ply
format ascii 1.0
comment Created by Open3D
element vertex 1398
property double x
property double y
property double z
property uchar red
property uchar green
property uchar blue
end_header
-2.60039 -1082.68 -1546 157 133 129
0.935555 -1083.38 -1547 150 125 121
4.47608 -1084.09 -1548 138 114 112
8.03675 -1086.89 -1552 127 103 102
11.6083 -1089.01 -1555 119 97 97
15.2424 -1094.62 -1563 110 93 100
18.9253 -1100.94 -1572 100 88 95
22.7784 -1113.57 -1590 94 84 91
26.8472 -1131.81 -1616 88 80 84
30.9406 -1146.55 -1637 82 76 77
35.0035 -1157.09 -1652 76 72 77
61.7676 -1163.05 -1660 76 73 78
-165.638 -1163.64 -1649 0 0 0
-161.434 -1160.65 -1645 156 155 152
-157.538 -1159.77 -1644 156 156 150
-153.18 -1155.37 -1638 153 153 147
-149.034 -1152.39 -1634 155 153 147
-144.641 -1147.3 -1627 142 140 134
-139.33 -1134.46 -1609 116 115 108
-133.429 -1115.98 -1583 115 108 104
-128.305 -1103.15 -1565 116 108 104
-123.424 -1091.74 -1549 116 105 102
-118.928 -1083.16 -1537 113 99 101
-115.014 -1079.51 -1532 112 95 95
-111.561 -1080.09 -1533 108 91 91
-108.175 -1081.39 -1535 107 90 90
-104.645 -1081.27 -1535 103 90 89
-101.049 -1080.46 -1534 103 92 96
-97.4597 -1079.65 -1533 101 92 98
-94.1209 -1081.66 -1536 96 91 100
-90.6513 -1082.27 -1537 98 86 93
-87.4047 -1085.69 -1542 88 78 88
-84.2992 -1091.23 -1550 78 69 81
-81.6266 -1103.11 -1567 78 73 81
-79.1757 -1119.22 -1590 83 79 83
-76.8575 -1138.85 -1618 86 80 82
-74.05 -1152.84 -1638 89 81 82
-70.5507 -1156.99 -1644 90 79 75
-67.1059 -1162.55 -1652 88 77 75
-63.395 -1163.89 -1654 88 77 75
-59.6397 -1164.52 -1655 90 80 78
-55.9478 -1166.57 -1658 89 81 79
-52.1171 -1165.81 -1657 86 77 75
-48.2331 -1163.65 -1654 85 76 73
-44.3633 -1161.49 -1651 86 80 74
-40.3111 -1153.71 -1640 88 85 79
-36.1313 -1140.3 -1621 92 86 89
-31.999 -1125.49 -1600 96 88 95
-28.0341 -1113.5 -1583 107 98 101
-24.1165 -1100.11 -1564 128 111 108
-20.4173 -1093.76 -1555 142 123 117
-16.7921 -1089.52 -1549 154 133 125
-13.2287 -1088.09 -1547 163 138 130
-9.66226 -1085.27 -1543 166 139 133
-6.13008 -1085.26 -1543 165 140 134
-2.59626 -1084.55 -1542 161 137 133
0.934773 -1085.96 -1544 152 128 124
4.48098 -1088.77 -1548 146 122 116
8.04013 -1090.89 -1551 139 115 109
11.6206 -1093.72 -1555 130 106 101
15.2879 -1101.47 -1566 116 97 101
19.0056 -1109.22 -1577 102 90 96
22.8457 -1120.5 -1593 95 84 91
26.859 -1136 -1615 88 77 82
30.9357 -1150.1 -1635 81 75 76
34.9557 -1159.28 -1648 75 72 77
38.8945 -1164.24 -1655 75 72 79
46.589 -1167.15 -1659 74 71 79
50.3897 -1167.2 -1659 75 74 81
58.0283 -1168.02 -1660 77 74 79
61.7958 -1167.38 -1659 0 0 0
-161.115 -1162.12 -1640 0 0 0
-157.226 -1161.24 -1639 157 154 149
-152.969 -1157.54 -1634 159 156 153
-148.919 -1155.25 -1631 157 155 153
-144.706 -1151.55 -1626 154 152 149
-139.652 -1140.78 -1611 142 133 129
-134.161 -1125.76 -1590 138 127 118
-128.934 -1112.17 -1571 138 124 117
-123.795 -1098.58 -1552 139 122 118
-119.21 -1089.25 -1539 135 115 113
-115.362 -1086.3 -1535 129 108 104
-111.461 -1082.64 -1530 122 102 96
-108.079 -1083.94 -1532 115 98 91
-104.483 -1083.12 -1531 109 96 90
-101.025 -1083.71 -1532 106 95 93
-97.4361 -1082.9 -1531 104 95 96
-93.9756 -1083.51 -1532 99 92 98
-90.4523 -1083.41 -1532 95 88 92
-87.1002 -1085.43 -1535 89 82 88
-83.9532 -1090.29 -1542 81 73 81
-81.1397 -1100.1 -1556 80 73 81
-78.4123 -1112.04 -1573 86 79 85
-75.8929 -1128.21 -1596 90 81 85
-73.3593 -1145.81 -1621 89 79 81
-70.0671 -1152.8 -1631 91 77 74
-66.6485 -1158.38 -1639 91 80 76
-63.0402 -1161.14 -1643 91 82 78
-59.4144 -1163.9 -1647 89 82 77
-55.6694 -1164.55 -1648 88 80 78
-51.826 -1163.08 -1646 86 76 74
-48.0506 -1163.02 -1646 87 78 75
-44.1682 -1160.15 -1642 88 82 76
-40.0831 -1150.92 -1629 89 86 80
-35.9688 -1138.87 -1612 94 88 89
-31.8928 -1125.41 -1593 101 93 96
-27.9928 -1115.49 -1579 115 103 105
-24.0956 -1102.74 -1561 137 118 113
-20.3994 -1096.36 -1552 149 128 122
-16.7773 -1092.1 -1546 157 134 128
-13.2342 -1092.09 -1546 163 138 130
-9.66613 -1089.25 -1542 170 143 137
-6.13259 -1089.24 -1542 165 139 134
-2.59719 -1088.53 -1541 159 134 130
0.936027 -1090.65 -1544 153 129 124
4.48279 -1092.77 -1547 145 122 114
8.06431 -1097.72 -1554 139 115 108
11.663 -1101.26 -1559 130 106 100
15.3238 -1107.64 -1568 116 96 95
19.0742 -1116.84 -1581 103 90 90
22.9418 -1128.87 -1598 93 82 83
26.9877 -1145.14 -1621 84 74 75
30.9876 -1155.77 -1636 77 71 71
34.9716 -1163.58 -1647 75 71 76
38.7948 -1165.03 -1649 75 73 78
42.705 -1168.61 -1654 75 75 79
46.3854 -1165.83 -1650 75 72 79
50.1699 -1165.88 -1650 73 72 79
53.9545 -1165.93 -1650 76 74 81
57.81 -1167.41 -1652 77 74 79
-156.818 -1161.99 -1633 155 153 149
-152.758 -1159.69 -1630 157 155 153
-148.713 -1157.39 -1627 158 156 154
-144.594 -1154.39 -1623 156 154 152
-139.801 -1145.7 -1611 151 141 137
-134.643 -1133.47 -1594 140 127 121
-129.565 -1121.24 -1577 143 128 123
-124.167 -1105.46 -1555 150 132 129
-119.492 -1095.38 -1541 149 129 127
-115.485 -1090.99 -1535 144 123 117
-111.581 -1087.31 -1530 136 116 108
-107.912 -1085.77 -1528 126 109 98
-104.39 -1085.66 -1528 120 105 94
-100.935 -1086.26 -1529 113 101 94
-97.2854 -1084.73 -1527 109 98 94
-93.8917 -1086.05 -1529 104 94 94
-90.3716 -1085.95 -1529 94 90 91
-86.9661 -1087.28 -1531 91 86 87
-83.9882 -1094.29 -1541 85 78 79
-80.913 -1100.59 -1550 79 72 78
-78.0469 -1110.45 -1564 82 74 80
-75.4027 -1124.56 -1584 87 78 82
-72.8486 -1141.52 -1608 89 79 81
-69.7547 -1151.38 -1622 90 79 74
-66.4346 -1158.41 -1632 90 79 75
-62.8386 -1161.18 -1636 91 81 77
-59.2249 -1163.95 -1640 88 81 76
-55.4244 -1163.18 -1639 87 79 77
-51.566 -1161 -1636 86 77 73
-47.8388 -1161.65 -1637 87 77 73
-44.0536 -1160.89 -1636 86 80 74
-39.9041 -1149.5 -1620 87 84 78
-35.8731 -1139.52 -1606 94 88 87
-31.8265 -1126.71 -1588 103 95 95
-27.8629 -1113.91 -1570 119 108 105
-24.0285 -1103.24 -1555 145 124 118
-20.3554 -1097.54 -1547 156 133 126
-16.7516 -1093.98 -1542 165 140 132
-13.1968 -1092.54 -1540 166 141 135
-9.65121 -1091.11 -1538 170 143 137
-6.12296 -1091.1 -1538 167 141 134
-2.59307 -1090.39 -1537 160 135 129
0.934033 -1091.81 -1539 156 131 125
4.47612 -1094.65 -1543 149 124 118
8.04179 -1098.2 -1548 137 112 106
11.638 -1102.47 -1554 127 103 97
15.2815 -1108.16 -1562 114 94 91
19.0342 -1118.11 -1576 100 87 81
22.8945 -1130.19 -1593 91 80 75
26.9831 -1148.66 -1619 84 73 73
30.9828 -1159.34 -1634 78 72 68
34.9029 -1165.05 -1642 75 72 75
38.695 -1165.8 -1643 75 72 76
42.5696 -1168.68 -1647 74 72 77
46.2099 -1165.18 -1642 71 68 75
50.0103 -1165.94 -1643 72 69 76
53.8813 -1168.13 -1646 74 72 78
57.7667 -1170.31 -1649 76 73 78
-148.232 -1157.38 -1620 158 155 154
-144.393 -1156.51 -1619 157 155 153
-139.778 -1149.22 -1609 156 147 144
-134.788 -1138.35 -1594 146 132 128
-129.539 -1124.64 -1575 144 128 124
-124.38 -1110.94 -1556 149 130 127
-119.621 -1100.1 -1541 149 129 126
-115.534 -1094.98 -1534 149 126 121
-111.554 -1090.57 -1528 148 124 117
-107.886 -1089.03 -1526 150 126 113
-104.297 -1088.2 -1525 144 123 112
-100.779 -1088.09 -1525 137 116 107
-97.1984 -1087.27 -1524 133 113 106
-93.808 -1088.59 -1526 127 109 105
-90.3503 -1089.21 -1527 108 101 102
-86.8888 -1089.82 -1528 100 92 90
-83.751 -1094.73 -1535 89 81 76
-80.6341 -1100.34 -1543 79 71 74
-77.581 -1107.39 -1553 75 69 72
-74.864 -1120.14 -1571 79 72 74
-72.3824 -1137.89 -1596 83 75 75
-69.5713 -1152.07 -1616 89 78 73
-66.1797 -1157.7 -1624 90 79 75
-62.6752 -1161.91 -1630 90 80 76
-59.0714 -1164.69 -1634 92 82 78
-55.2468 -1163.21 -1632 87 79 77
-51.3057 -1158.87 -1626 86 77 74
-47.6267 -1160.24 -1628 86 77 73
-43.8043 -1158.06 -1625 83 79 72
-39.7248 -1148.04 -1611 83 80 74
-35.6878 -1137.31 -1596 95 88 84
-31.68 -1125.16 -1579 108 98 95
-27.8039 -1115.15 -1565 128 113 110
-23.9768 -1104.43 -1550 150 127 118
-20.3507 -1100.85 -1545 159 134 126
-16.7478 -1097.26 -1540 170 143 135
-13.1765 -1094.4 -1536 170 145 139
-9.66161 -1095.81 -1538 171 144 136
-6.12549 -1095.09 -1537 166 140 133
-2.59739 -1095.8 -1538 160 135 129
0.934469 -1095.8 -1538 154 129 124
4.48688 -1100.79 -1545 148 121 113
8.05067 -1102.93 -1548 139 113 105
11.6281 -1105.08 -1551 128 103 97
15.2881 -1112.22 -1561 113 93 91
19.0064 -1120.08 -1572 100 86 79
22.8474 -1131.5 -1588 90 78 73
26.8787 -1147.91 -1611 82 70 71
30.8263 -1157.21 -1624 75 68 63
34.7274 -1162.94 -1632 71 67 67
38.5244 -1164.41 -1634 70 67 68
42.3567 -1166.59 -1637 70 67 70
45.9779 -1163.07 -1632 70 67 72
49.7899 -1164.55 -1634 71 68 75
53.7099 -1168.17 -1639 74 71 77
57.6183 -1171.08 -1643 76 73 78
-148.026 -1159.5 -1616 157 153 152
-144.013 -1157.19 -1613 155 153 151
-139.755 -1152.73 -1607 155 147 145
-134.849 -1142.54 -1593 147 133 130
-129.926 -1131.64 -1578 142 126 122
-124.595 -1116.44 -1557 149 129 126
-119.828 -1105.56 -1542 149 129 124
-115.584 -1098.98 -1533 151 129 121
-111.529 -1093.84 -1526 154 130 120
-107.79 -1091.57 -1523 159 128 117
-104.204 -1090.73 -1522 158 129 117
-100.689 -1090.62 -1522 154 126 115
-97.1756 -1090.52 -1522 152 125 115
-93.7861 -1091.85 -1524 146 119 112
-90.3885 -1093.18 -1526 137 117 115
-87.0394 -1095.23 -1529 125 106 102
-83.732 -1098.01 -1533 109 92 85
-80.5117 -1102.21 -1539 88 79 78
-77.3646 -1107.86 -1547 78 73 74
-74.4677 -1117.8 -1561 79 73 74
-71.961 -1134.91 -1585 83 75 75
-69.1721 -1149.15 -1605 87 76 71
-65.9246 -1156.95 -1616 87 76 72
-62.5117 -1162.61 -1624 87 77 73
-58.9179 -1165.41 -1628 88 78 74
-55.1029 -1163.92 -1626 85 77 75
-51.203 -1160.28 -1621 83 74 71
-47.473 -1160.23 -1621 84 76 71
-43.6356 -1157.32 -1617 83 80 73
-39.5701 -1147.25 -1603 83 80 74
-35.5247 -1135.76 -1587 97 89 84
-31.5131 -1122.84 -1569 118 107 101
-27.7092 -1114.94 -1558 137 121 113
-23.9561 -1107.04 -1547 154 129 119
-20.3198 -1102.72 -1541 163 137 128
-16.744 -1100.55 -1538 171 143 136
-13.1906 -1099.11 -1536 172 145 137
-9.64041 -1096.95 -1533 171 141 134
-6.11607 -1096.94 -1533 166 138 131
-2.59855 -1099.8 -1537 160 135 128
0.935125 -1099.8 -1537 153 128 124
4.48604 -1104.09 -1543 147 118 111
8.05416 -1106.96 -1547 137 110 103
11.6482 -1110.55 -1552 123 98 93
15.3048 -1117.01 -1561 107 87 87
19.0148 -1124.18 -1571 96 83 77
22.8432 -1134.94 -1586 88 76 71
26.8075 -1148.56 -1605 82 70 69
30.7457 -1157.89 -1618 75 68 63
34.5734 -1161.51 -1623 71 69 66
38.4008 -1164.41 -1627 71 69 68
42.2731 -1168.03 -1632 70 67 69
45.943 -1165.93 -1629 72 69 74
49.7523 -1167.42 -1631 75 72 79
53.6039 -1169.62 -1634 78 74 81
57.5051 -1172.54 -1638 79 75 80
-148.004 -1163.05 -1614 156 153 152
-144.081 -1161.45 -1612 156 153 152
-139.733 -1156.25 -1605 158 150 148
-134.91 -1146.74 -1592 150 136 134
-129.903 -1135.07 -1576 143 126 124
-124.57 -1119.81 -1555 150 130 127
-119.724 -1108.15 -1539 152 132 125
-115.483 -1101.54 -1530 156 135 124
-111.577 -1097.82 -1525 160 136 123
-107.836 -1095.54 -1522 165 134 121
-104.317 -1095.43 -1522 163 132 119
-100.732 -1094.59 -1521 161 130 119
-97.3449 -1095.93 -1523 160 129 120
-93.9495 -1097.26 -1525 156 125 117
-90.605 -1099.32 -1528 147 120 112
-87.0768 -1099.22 -1528 140 114 106
-83.7134 -1101.29 -1531 127 102 94
-80.4419 -1104.8 -1536 102 88 84
-77.098 -1107.59 -1540 83 75 75
-74.1662 -1116.85 -1553 80 73 74
-71.5845 -1132.6 -1575 85 75 77
-68.8587 -1147.62 -1596 87 76 71
-65.6285 -1155.46 -1607 86 75 71
-62.2711 -1161.86 -1616 85 76 72
-58.728 -1165.39 -1621 85 78 73
-54.9929 -1165.33 -1621 85 77 75
-51.1318 -1162.39 -1617 82 75 71
-47.4656 -1163.78 -1619 81 75 69
-43.6287 -1160.85 -1615 82 79 72
-39.5634 -1150.75 -1601 85 82 76
-35.451 -1137.05 -1582 104 96 89
-31.4467 -1124.07 -1564 126 115 106
-27.65 -1116.14 -1553 143 124 114
-23.92 -1108.92 -1543 158 131 119
-20.3153 -1106.02 -1539 165 136 127
-16.7511 -1104.57 -1537 171 141 133
-13.1876 -1102.39 -1534 171 144 136
-9.64435 -1100.94 -1532 172 142 134
-6.11064 -1099.5 -1530 169 141 132
-2.6012 -1104.52 -1537 165 138 130
0.936787 -1105.24 -1538 153 127 122
4.48812 -1108.12 -1542 143 117 114
8.04204 -1108.85 -1543 130 103 101
11.6159 -1111.01 -1546 121 93 92
15.2723 -1118.21 -1556 107 85 85
18.9873 -1126.14 -1567 92 78 71
22.796 -1136.22 -1581 85 72 65
26.7532 -1149.9 -1600 81 68 65
30.6649 -1158.56 -1612 77 70 64
34.4403 -1160.75 -1615 73 70 69
38.2535 -1163.67 -1619 72 70 70
42.0336 -1165.15 -1621 73 70 71
45.767 -1165.19 -1621 75 72 77
49.5618 -1166.68 -1623 78 75 82
53.3665 -1168.18 -1625 78 75 81
57.2161 -1170.39 -1628 79 75 80
-147.89 -1165.88 -1611 0 0 0
-143.791 -1162.82 -1607 158 154 153
-139.537 -1158.33 -1601 160 152 150
-134.719 -1148.77 -1588 153 138 139
-129.714 -1137.05 -1572 144 126 127
-124.385 -1121.72 -1551 149 129 127
-119.544 -1110.02 -1535 151 131 124
-115.382 -1104.11 -1527 159 136 125
-111.405 -1099.65 -1521 162 138 123
-107.741 -1098.08 -1519 162 135 123
-104.293 -1098.69 -1520 159 133 121
-100.842 -1099.3 -1521 158 131 120
-97.387 -1099.91 -1522 159 130 121
-93.9285 -1100.53 -1523 159 128 119
-90.4069 -1100.43 -1523 153 125 113
-87.0575 -1102.5 -1526 146 119 108
-83.5857 -1103.13 -1527 135 108 100
-80.3722 -1107.37 -1533 115 95 89
-76.9814 -1109.46 -1536 97 82 81
-74.0558 -1118.76 -1549 88 75 75
-71.3893 -1133.13 -1569 84 75 75
-68.6745 -1148.22 -1590 88 77 72
-65.5364 -1157.53 -1603 87 77 72
-62.146 -1163.24 -1611 87 77 73
-58.5743 -1166.06 -1615 86 79 74
-54.8149 -1165.28 -1614 85 77 75
-51.0608 -1164.5 -1613 83 76 72
-47.3705 -1165.17 -1614 81 75 69
-43.5408 -1162.23 -1610 84 81 74
-39.5322 -1153.52 -1598 89 86 80
-35.4223 -1139.77 -1579 106 98 90
-31.4002 -1126.01 -1560 129 117 108
-27.6088 -1118.04 -1549 146 127 115
-23.8838 -1110.8 -1539 163 134 122
-20.3108 -1109.33 -1537 171 141 131
-16.7255 -1106.42 -1533 175 144 135
-13.1847 -1105.68 -1532 170 143 137
-9.64225 -1104.23 -1530 171 142 135
-6.12121 -1104.94 -1531 169 140 133
-2.59031 -1103.49 -1529 162 135 127
0.935405 -1107.1 -1534 152 125 119
4.49021 -1112.16 -1541 141 116 111
8.051 -1113.61 -1543 126 102 98
11.6211 -1115.06 -1545 115 91 88
15.2891 -1123.01 -1556 105 84 81
18.9958 -1130.25 -1566 92 76 74
22.7488 -1137.49 -1576 84 69 67
26.6149 -1147.62 -1590 81 67 64
30.508 -1156.32 -1602 75 68 63
34.2858 -1159.24 -1606 73 69 68
38.0586 -1161.44 -1609 73 70 69
41.8718 -1164.38 -1613 72 70 68
45.7039 -1167.31 -1617 73 70 75
49.4938 -1168.81 -1619 76 73 80
53.2603 -1169.58 -1620 79 76 82
57.1025 -1171.81 -1623 81 78 83
-147.501 -1166.52 -1605 0 0 0
-143.501 -1164.18 -1602 157 154 155
-139.166 -1158.94 -1595 160 154 152
-134.696 -1152.25 -1586 154 141 140
-129.774 -1141.21 -1571 144 126 126
-124.602 -1127.27 -1552 148 128 125
-119.831 -1116.24 -1537 150 129 122
-115.433 -1108.12 -1526 157 134 123
-111.601 -1105.09 -1522 161 136 121
-107.93 -1103.52 -1520 162 136 127
-104.408 -1103.4 -1520 160 136 126
-100.82 -1102.56 -1519 160 136 125
-97.4937 -1104.63 -1522 156 131 121
-93.9697 -1104.53 -1522 158 131 121
-90.3871 -1103.7 -1521 154 128 117
-86.9244 -1104.33 -1522 147 120 110
-83.5127 -1105.69 -1524 137 110 101
-80.0927 -1107.05 -1526 123 100 90
-76.8649 -1111.31 -1532 107 90 84
-73.8975 -1119.94 -1544 91 76 73
-71.1485 -1132.91 -1562 84 74 70
-68.2739 -1145.16 -1579 89 78 72
-65.1986 -1155.24 -1593 87 76 72
-61.8663 -1161.7 -1602 86 76 73
-58.3116 -1164.54 -1606 84 77 72
-54.6368 -1165.2 -1607 83 77 74
-50.9898 -1166.59 -1609 83 76 72
-47.3047 -1167.26 -1610 82 76 71
-43.5342 -1165.76 -1608 87 81 76
-39.5506 -1157.74 -1597 90 84 79
-35.4609 -1144.65 -1579 107 99 94
-31.374 -1128.67 -1557 128 117 112
-27.5853 -1120.66 -1546 148 128 121
-23.8632 -1113.39 -1536 160 135 125
-20.2403 -1109.01 -1530 167 141 129
-16.6891 -1107.54 -1528 174 147 134
-13.156 -1106.8 -1527 175 146 138
-9.64016 -1107.51 -1528 170 143 135
-6.11558 -1107.51 -1528 167 140 132
-2.59297 -1108.23 -1529 161 134 126
0.935855 -1111.12 -1533 153 125 121
4.48044 -1113.3 -1536 135 112 103
8.05478 -1117.66 -1542 122 100 92
11.619 -1118.39 -1543 111 90 85
15.306 -1127.83 -1556 102 81 76
19.0044 -1134.37 -1565 94 76 75
22.7737 -1142.37 -1576 85 70 69
26.5604 -1148.92 -1585 77 65 62
30.3698 -1154.75 -1593 72 65 60
34.1096 -1156.96 -1596 71 67 66
37.8636 -1159.18 -1599 74 71 70
41.684 -1162.84 -1604 74 72 70
45.5843 -1167.97 -1611 75 72 77
49.3645 -1169.47 -1613 75 72 79
53.1214 -1170.25 -1614 81 78 84
56.9188 -1171.76 -1616 88 85 90
-146.928 -1165.69 -1597 0 0 0
-143.031 -1164.07 -1595 158 156 153
-138.971 -1160.99 -1591 158 153 152
-134.505 -1154.27 -1582 151 142 141
-129.752 -1144.64 -1569 140 128 126
-124.739 -1132.1 -1552 147 129 126
-120.119 -1122.48 -1539 152 132 125
-115.787 -1115.06 -1529 159 135 125
-111.65 -1109.1 -1521 165 136 122
-108.049 -1108.25 -1520 168 139 127
-104.66 -1109.59 -1522 166 139 129
-100.997 -1108.02 -1520 165 138 128
-97.4728 -1107.91 -1520 162 135 125
-93.8258 -1106.35 -1518 160 130 121
-90.1891 -1104.79 -1516 159 129 122
-86.6769 -1104.69 -1516 154 125 117
-83.3303 -1106.78 -1519 144 117 107
-79.9706 -1108.88 -1522 129 106 93
-76.6481 -1111.71 -1526 111 93 83
-73.6433 -1119.64 -1537 96 81 72
-70.6795 -1129.03 -1550 88 76 68
-67.7862 -1140.6 -1566 89 76 69
-64.7376 -1150.73 -1580 90 78 74
-61.5477 -1159.4 -1592 87 77 75
-58.0848 -1163.7 -1598 83 76 72
-54.4926 -1165.82 -1601 77 72 70
-50.8872 -1167.95 -1604 79 74 70
-47.1508 -1167.17 -1603 81 75 70
-43.4194 -1166.39 -1602 86 81 76
-39.47 -1159.06 -1592 90 84 79
-35.3874 -1145.92 -1574 107 98 93
-31.3278 -1130.59 -1553 124 113 109
-27.5442 -1122.55 -1542 146 126 119
-23.8427 -1115.97 -1533 159 134 124
-20.2096 -1110.85 -1526 170 143 131
-16.6636 -1109.38 -1524 175 147 133
-13.153 -1110.09 -1525 175 148 138
-9.6126 -1107.89 -1522 172 145 137
-6.11039 -1110.07 -1525 166 139 131
-2.58906 -1110.06 -1525 159 132 122
0.934691 -1112.97 -1529 147 120 115
4.47087 -1114.43 -1531 130 107 98
8.03745 -1118.81 -1537 115 93 86
11.6092 -1121 -1540 104 83 78
15.3032 -1131.21 -1554 100 79 74
18.989 -1137.05 -1562 95 77 77
22.7845 -1146.54 -1575 86 71 70
26.5394 -1151.66 -1582 79 68 64
30.3461 -1157.51 -1590 73 67 62
34.0404 -1158.28 -1591 72 68 67
37.7868 -1160.5 -1594 74 71 69
41.5479 -1162.73 -1597 77 75 73
45.4645 -1168.6 -1605 77 74 79
49.3269 -1172.3 -1610 78 75 81
52.9823 -1170.9 -1608 86 83 88
56.6993 -1170.96 -1608 92 89 93
-142.741 -1165.39 -1590 158 156 152
-138.6 -1161.57 -1585 158 154 153
-134.399 -1157.02 -1579 150 142 140
-129.896 -1149.55 -1569 137 126 122
-124.958 -1137.68 -1553 147 129 126
-120.408 -1128.76 -1541 152 132 126
-115.764 -1118.37 -1527 158 135 126
-111.921 -1115.31 -1523 166 138 126
-108.098 -1112.26 -1519 169 140 128
-104.638 -1112.88 -1520 167 140 130
-100.843 -1109.83 -1516 166 139 129
-97.5164 -1111.92 -1519 166 139 129
-93.6821 -1108.16 -1514 163 133 124
-90.1101 -1107.32 -1513 162 132 124
-86.4866 -1105.76 -1511 159 130 122
-83.2576 -1109.32 -1516 150 123 113
-79.7434 -1109.23 -1516 136 112 99
-76.6825 -1115.73 -1525 118 100 89
-73.4848 -1120.77 -1532 100 85 75
-70.5293 -1130.2 -1545 88 77 68
-67.5578 -1140.37 -1559 89 76 69
-64.522 -1150.53 -1573 89 78 74
-61.2673 -1157.78 -1583 88 77 75
-57.8214 -1162.1 -1589 83 74 72
-54.3143 -1165.69 -1594 81 75 74
-50.721 -1167.83 -1597 82 76 73
-47.0849 -1169.24 -1599 83 77 72
-43.3587 -1168.46 -1598 83 80 74
-39.4391 -1161.83 -1589 88 82 76
-35.4038 -1150.09 -1573 108 100 94
-31.3623 -1135.43 -1553 128 118 113
-27.485 -1123.7 -1537 149 129 122
-23.7911 -1117.09 -1528 162 136 126
-20.1788 -1112.68 -1522 170 143 131
-16.6163 -1109.74 -1518 173 145 131
-13.107 -1109.72 -1518 173 144 134
-9.59787 -1109.71 -1518 169 142 134
-6.09696 -1111.16 -1520 162 135 126
-2.58324 -1111.16 -1520 151 124 114
0.932696 -1114.08 -1524 140 113 106
4.4615 -1115.55 -1526 124 101 92
8.02032 -1119.94 -1532 111 89 82
11.5767 -1121.41 -1534 101 80 75
15.2709 -1132.39 -1549 100 79 74
18.9858 -1140.45 -1560 93 77 76
22.8097 -1151.44 -1575 88 73 71
26.5688 -1156.59 -1582 84 70 67
30.3415 -1161.01 -1588 77 69 67
34.0137 -1161.04 -1588 74 70 69
37.6864 -1161.08 -1588 74 71 70
41.4115 -1162.59 -1590 76 74 73
45.288 -1167.75 -1597 77 74 79
49.0441 -1169.27 -1599 79 76 81
52.711 -1168.59 -1598 89 86 90
56.5503 -1171.58 -1602 0 0 0
-142.271 -1165.22 -1583 0 0 0
-138.492 -1164.33 -1582 157 153 152
-134.463 -1161.23 -1578 150 143 141
-130.206 -1155.94 -1571 138 127 125
-125.5 -1146.23 -1558 147 129 126
-120.933 -1137.26 -1546 151 131 125
-116.196 -1126.1 -1531 154 132 123
-112.192 -1121.56 -1525 162 135 123
-108.289 -1117.76 -1520 166 138 126
-104.686 -1116.9 -1519 165 138 128
-100.755 -1112.38 -1513 163 136 126
-97.2392 -1112.27 -1513 164 137 127
-93.4145 -1108.48 -1508 167 137 128
-89.7333 -1106.18 -1505 161 133 123
-86.2962 -1106.81 -1506 157 129 120
-82.9104 -1108.19 -1508 151 124 114
-79.7266 -1112.51 -1514 139 115 102
-76.4657 -1116.1 -1519 125 104 94
-73.4224 -1123.36 -1529 107 89 81
-70.2878 -1129.89 -1538 92 77 70
-67.3725 -1140.83 -1553 88 75 68
-64.3883 -1151.78 -1568 88 76 73
-61.1803 -1159.79 -1579 86 75 73
-57.8127 -1165.6 -1587 82 73 71
-54.2721 -1168.48 -1591 78 73 71
-50.65 -1169.89 -1593 78 73 69
-47.0192 -1171.3 -1595 78 72 67
-43.2166 -1168.31 -1591 80 77 71
-39.3336 -1162.39 -1583 89 82 76
-35.3305 -1151.34 -1568 109 99 94
-31.2758 -1135.88 -1547 131 120 115
-27.4617 -1126.3 -1534 152 132 125
-23.8018 -1121.13 -1527 166 139 128
-20.148 -1114.5 -1518 168 141 129
-16.6017 -1112.28 -1515 171 144 130
-13.0782 -1110.8 -1513 173 144 133
-9.58313 -1111.52 -1514 170 142 133
-6.08352 -1112.24 -1515 162 135 125
-2.57933 -1112.97 -1516 147 120 110
0.931927 -1116.64 -1521 136 109 101
4.46069 -1118.85 -1524 119 96 87
8.01889 -1123.26 -1530 106 84 77
11.5898 -1126.21 -1534 99 78 73
15.2583 -1135.03 -1546 99 78 73
18.9826 -1143.86 -1558 90 74 73
22.7772 -1153.43 -1571 87 71 70
26.5312 -1158.6 -1578 85 71 68
30.2987 -1163.03 -1584 78 70 68
33.9873 -1163.8 -1585 75 71 70
37.6334 -1163.11 -1584 76 73 71
41.3011 -1163.15 -1584 77 75 73
45.1396 -1167.61 -1590 78 75 79
48.853 -1168.39 -1591 84 81 86
52.5386 -1168.45 -1591 92 89 93
56.3306 -1170.71 -1594 0 0 0
-138.296 -1166.35 -1578 0 0 0
-134.443 -1164.72 -1576 155 149 149
-130.269 -1160.14 -1570 138 128 128
-125.882 -1153.34 -1561 144 126 123
-121.382 -1145.08 -1550 148 128 122
-116.402 -1131.65 -1532 151 129 120
-112.244 -1125.61 -1524 157 130 118
-108.267 -1121.06 -1518 160 133 122
-104.596 -1119.46 -1516 163 136 125
-100.468 -1112.7 -1507 162 135 125
-97.0262 -1113.33 -1508 164 135 126
-93.1469 -1108.79 -1502 165 135 126
-89.8336 -1110.9 -1505 161 133 123
-86.2205 -1109.33 -1503 156 129 119
-83.113 -1114.4 -1510 151 124 114
-79.6575 -1115.05 -1511 143 116 104
-76.5006 -1120.13 -1518 129 105 96
-73.3601 -1125.95 -1526 112 90 82
-70.2289 -1132.51 -1535 92 76 70
-67.1871 -1141.28 -1547 86 72 68
-64.1312 -1150.8 -1560 82 71 69
-60.8994 -1158.11 -1570 83 73 73
-57.5853 -1164.68 -1579 82 72 70
-54.1277 -1169.04 -1585 75 71 68
-50.5473 -1171.2 -1588 75 69 65
-46.8946 -1171.88 -1589 76 70 65
-43.1288 -1169.62 -1586 76 73 67
-39.2282 -1162.93 -1577 90 83 77
-35.2569 -1152.57 -1563 108 99 94
-31.2296 -1137.78 -1543 129 118 114
-27.4565 -1129.64 -1532 149 130 120
-23.7502 -1122.24 -1522 167 140 127
-20.1304 -1117.05 -1515 172 144 131
-16.5654 -1113.34 -1510 176 148 134
-13.0495 -1111.85 -1508 175 148 134
-9.55571 -1111.84 -1508 171 144 134
-6.07006 -1113.31 -1510 164 137 127
-2.5769 -1115.51 -1513 151 124 114
0.930147 -1117.72 -1516 139 112 104
4.4511 -1119.94 -1519 120 97 88
7.99648 -1123.63 -1524 110 88 80
11.55 -1125.86 -1527 103 82 77
15.2064 -1134.72 -1539 101 80 75
18.9063 -1142.85 -1550 93 75 75
22.7156 -1153.93 -1565 87 72 71
26.4937 -1160.59 -1574 81 70 66
30.2179 -1163.58 -1578 76 70 67
33.8752 -1163.61 -1578 74 70 69
37.5804 -1165.13 -1580 76 73 72
41.1907 -1163.7 -1578 77 75 74
44.9913 -1167.43 -1583 83 80 83
48.6926 -1168.22 -1584 92 89 93
52.399 -1169.02 -1585 95 92 95
56.146 -1170.55 -1587 0 0 0
-134.167 -1165.98 -1571 159 154 153
-130.166 -1162.87 -1567 146 136 136
-125.701 -1155.3 -1557 147 131 127
-121.126 -1146.26 -1545 151 132 126
-116.305 -1134.26 -1529 152 130 122
-112.149 -1128.19 -1521 155 129 118
-108.104 -1122.88 -1514 157 130 120
-104.368 -1120.53 -1511 160 133 122
-100.38 -1115.23 -1504 161 134 123
-96.9419 -1115.86 -1505 164 134 125
-93.1893 -1112.78 -1501 162 135 125
-89.6357 -1111.94 -1500 161 135 125
-86.0875 -1111.1 -1499 159 133 123
-82.8205 -1113.97 -1503 152 127 117
-79.5358 -1116.84 -1507 147 120 108
-76.3342 -1121.2 -1513 134 108 98
-73.1536 -1126.3 -1520 118 94 86
-70.0787 -1133.63 -1530 94 78 72
-66.9145 -1140.23 -1539 85 71 67
-63.9974 -1152.01 -1555 80 68 68
-60.7735 -1159.34 -1565 79 69 71
-57.4309 -1165.2 -1573 79 69 69
-54.0175 -1170.33 -1580 74 68 65
-50.4127 -1171.75 -1582 74 68 64
-46.7402 -1171.69 -1582 75 69 64
-42.9865 -1169.42 -1579 78 74 69
-39.0978 -1162.71 -1570 93 87 81
-35.1609 -1153.04 -1557 107 99 94
-31.2443 -1141.9 -1542 128 118 115
-27.4333 -1132.24 -1529 148 129 119
-23.7612 -1126.28 -1521 167 139 126
-20.1529 -1121.82 -1515 173 144 131
-16.5728 -1117.35 -1509 174 145 131
-13.038 -1114.37 -1505 175 148 134
-9.54093 -1113.62 -1504 171 144 132
-6.06061 -1115.09 -1506 165 138 127
-2.57447 -1118.05 -1510 157 130 120
0.928764 -1119.53 -1512 144 117 107
4.44736 -1122.5 -1516 128 105 95
7.97405 -1123.98 -1518 115 93 86
11.5326 -1127.7 -1523 103 82 77
15.1641 -1135.12 -1533 101 80 75
18.8789 -1144.76 -1546 93 75 75
22.6831 -1155.89 -1561 86 71 71
26.473 -1163.32 -1571 80 68 67
30.2136 -1167.06 -1576 75 68 65
33.9132 -1168.58 -1578 74 70 69
37.5988 -1169.36 -1579 76 72 72
41.2109 -1167.92 -1577 80 77 78
44.8711 -1167.97 -1577 89 86 89
48.4704 -1166.54 -1575 97 94 97
52.1601 -1167.34 -1576 97 94 95
55.8902 -1168.88 -1578 0 0 0
-133.977 -1167.98 -1567 159 156 154
-130.23 -1167.08 -1566 153 145 143
-125.681 -1158.74 -1555 150 134 130
-121.028 -1148.91 -1542 150 131 125
-116.208 -1136.86 -1526 150 129 121
-112.054 -1130.77 -1518 152 127 117
-107.94 -1124.69 -1510 155 128 118
-104.347 -1123.82 -1509 158 131 120
-100.427 -1119.24 -1503 163 136 124
-96.7934 -1117.64 -1501 165 136 125
-93.1702 -1116.04 -1499 164 137 127
-89.6769 -1115.94 -1499 164 138 128
-86.1846 -1115.84 -1499 163 138 128
-82.914 -1118.72 -1503 156 131 121
-79.4141 -1118.63 -1503 151 124 112
-76.2181 -1123.01 -1509 141 114 103
-72.9951 -1127.39 -1515 125 99 89
-69.8825 -1134 -1524 98 82 76
-66.8159 -1142.11 -1535 85 71 67
-63.9046 -1153.94 -1551 80 68 67
-60.6865 -1161.31 -1561 77 67 69
-57.3493 -1167.19 -1569 78 66 66
-53.8044 -1169.36 -1572 76 70 67
-50.31 -1173.02 -1577 74 68 63
-46.6745 -1173.71 -1578 74 68 63
-42.8986 -1170.69 -1574 80 76 73
-39.0421 -1164.69 -1566 94 87 81
-35.1552 -1156.47 -1555 104 95 90
-31.2185 -1144.53 -1539 126 115 111
-27.4642 -1137.06 -1529 150 129 120
-23.7566 -1129.6 -1519 165 138 126
-20.149 -1125.11 -1513 173 146 133
-16.5475 -1119.14 -1505 176 148 134
-13.0353 -1117.64 -1503 175 147 133
-9.53885 -1116.88 -1502 168 141 131
-6.04713 -1116.13 -1501 162 135 124
-2.56884 -1119.1 -1505 157 130 118
0.926977 -1120.58 -1507 151 124 114
4.43776 -1123.56 -1511 134 110 101
7.9621 -1125.8 -1514 115 93 86
11.5154 -1129.53 -1519 105 84 79
15.1219 -1135.49 -1527 100 79 75
18.8391 -1145.92 -1541 88 71 70
22.6216 -1156.36 -1555 83 68 67
26.4185 -1164.57 -1566 80 66 65
30.1518 -1168.32 -1571 75 67 66
33.8655 -1170.58 -1574 74 70 68
37.4983 -1169.88 -1573 77 73 73
41.1006 -1168.44 -1571 83 79 81
44.751 -1168.48 -1571 92 89 94
48.3095 -1166.31 -1568 96 93 96
51.9871 -1167.11 -1569 96 93 96
55.7406 -1169.4 -1572 0 0 0
-133.958 -1171.46 -1565 161 158 156
-130.045 -1169.06 -1562 158 150 151
-125.581 -1161.43 -1552 149 133 129
-120.772 -1150.07 -1537 148 130 123
-116.035 -1138.71 -1522 151 130 121
-111.812 -1131.85 -1513 155 130 118
-107.847 -1127.24 -1507 156 131 121
-104.12 -1124.87 -1504 158 131 120
-100.407 -1122.51 -1501 163 136 124
-96.8386 -1121.65 -1500 168 139 127
-93.2136 -1120.05 -1498 167 140 130
-89.7187 -1119.94 -1498 167 141 130
-85.9945 -1116.85 -1494 165 141 128
-82.6765 -1119 -1497 159 134 124
-79.3454 -1121.15 -1500 151 124 114
-76.2034 -1126.29 -1507 142 115 106
-72.9331 -1129.95 -1512 130 103 95
-69.8699 -1137.34 -1522 104 86 80
-66.7171 -1143.99 -1531 87 72 69
-63.812 -1155.87 -1547 80 68 67
-60.5995 -1163.27 -1557 76 66 67
-57.2312 -1168.43 -1564 75 65 63
-53.7625 -1172.1 -1569 76 69 64
-50.1433 -1172.79 -1570 76 69 64
-46.52 -1173.48 -1571 77 71 66
-42.7835 -1171.19 -1568 82 78 75
-38.9115 -1164.42 -1559 94 87 80
-35.0818 -1157.66 -1550 102 93 87
-31.2131 -1147.91 -1537 121 110 106
-27.4412 -1139.66 -1526 147 126 120
-23.7834 -1134.41 -1519 160 135 126
-20.1583 -1129.15 -1512 170 144 133
-16.566 -1123.91 -1505 172 145 131
-13.0586 -1123.14 -1504 171 144 130
-9.53678 -1120.14 -1500 168 141 129
-6.05401 -1120.88 -1501 167 140 128
-2.56983 -1123.12 -1504 160 133 121
0.926208 -1123.12 -1504 154 127 117
4.42814 -1124.61 -1506 141 114 103
7.95014 -1127.61 -1510 124 100 92
11.4982 -1131.35 -1515 112 92 87
15.0797 -1135.85 -1521 104 86 83
18.7749 -1145.57 -1534 91 75 72
22.5307 -1155.31 -1547 82 67 65
26.2798 -1162.06 -1556 80 67 66
30.013 -1166.57 -1562 76 68 68
33.7316 -1169.59 -1566 73 69 66
37.3738 -1169.63 -1566 77 73 72
40.9901 -1168.93 -1565 86 82 83
44.6308 -1168.98 -1565 95 92 97
48.2102 -1167.54 -1563 96 93 96
51.8471 -1167.6 -1563 95 92 95
-133.511 -1171.19 -1558 160 158 156
-129.527 -1168.03 -1554 162 154 155
-125.076 -1160.37 -1544 152 138 132
-120.359 -1149.71 -1530 147 132 124
-115.709 -1139.05 -1516 149 133 123
-111.57 -1132.91 -1508 157 134 122
-107.684 -1129.03 -1503 160 134 122
-104.1 -1128.16 -1502 159 134 121
-100.254 -1124.28 -1497 161 137 124
-96.6905 -1123.42 -1496 167 140 130
-93.0706 -1121.81 -1494 168 141 131
-89.5211 -1120.96 -1493 166 139 128
-85.9196 -1119.35 -1491 165 138 126
-82.6049 -1121.51 -1494 161 134 124
-79.2769 -1123.67 -1497 151 124 114
-75.9358 -1125.83 -1500 142 116 106
-72.7264 -1130.25 -1506 130 105 95
-69.6737 -1137.67 -1516 110 88 83
-66.5749 -1145.1 -1526 89 73 67
-63.6368 -1156.28 -1541 81 68 64
-60.4346 -1163.72 -1551 76 66 64
-57.0033 -1167.4 -1556 73 65 63
-53.5492 -1171.09 -1561 75 68 62
-49.9766 -1172.53 -1563 76 69 63
-46.2764 -1170.97 -1561 77 71 66
-42.5862 -1169.42 -1559 85 81 77
-38.8307 -1165.63 -1554 94 88 81
-35.0083 -1158.83 -1545 103 95 89
-31.1875 -1150.55 -1534 119 109 105
-27.4904 -1145.26 -1527 142 124 119
-23.7633 -1136.98 -1516 160 135 127
-20.1545 -1132.46 -1510 169 142 131
-16.5848 -1128.69 -1505 172 143 129
-13.0472 -1125.67 -1501 173 146 132
-9.53494 -1123.41 -1498 171 144 132
-6.04859 -1123.4 -1498 169 142 130
-2.56078 -1122.64 -1497 164 137 125
0.922973 -1122.64 -1497 156 129 119
4.41578 -1124.9 -1500 144 115 103
7.92764 -1127.9 -1504 130 105 96
11.4582 -1130.91 -1508 114 93 88
15.0176 -1134.68 -1513 108 88 84
18.6494 -1141.45 -1522 96 80 77
22.3815 -1151.22 -1535 84 71 68
26.1406 -1159.5 -1546 79 68 67
29.8935 -1165.53 -1554 76 68 68
33.6193 -1169.32 -1559 76 71 68
37.2494 -1169.36 -1559 77 72 71
40.8533 -1168.65 -1558 87 84 84
44.5389 -1170.2 -1560 94 91 96
48.1107 -1168.76 -1558 94 91 94
51.7735 -1169.56 -1559 0 0 0
-133.15 -1171.64 -1552 158 156 154
-129.342 -1169.98 -1550 161 153 153
-124.733 -1160.77 -1538 153 140 133
-120.025 -1150.07 -1524 145 131 122
-115.46 -1140.12 -1511 149 134 123
-111.327 -1133.96 -1503 159 136 125
-107.449 -1130.06 -1498 163 136 126
-104.011 -1130.69 -1499 163 137 127
-100.234 -1127.56 -1495 163 138 128
-96.4777 -1124.43 -1491 165 139 129
-92.8654 -1122.81 -1489 163 138 128
-89.2635 -1121.2 -1487 163 137 126
-85.5564 -1118.08 -1483 162 135 123
-82.2012 -1119.49 -1485 159 132 120
-78.8905 -1121.66 -1488 153 126 115
-75.7693 -1126.85 -1495 143 117 108
-72.5195 -1130.53 -1500 131 106 98
-69.6153 -1140.25 -1513 112 88 84
-66.4327 -1146.2 -1521 91 74 69
-63.5029 -1157.43 -1536 80 67 63
-60.3477 -1165.65 -1547 78 68 66
-56.8484 -1167.84 -1550 76 68 66
-53.3357 -1170.04 -1553 75 68 62
-49.8095 -1172.24 -1556 76 70 64
-46.1216 -1170.68 -1554 77 72 67
-42.4433 -1169.12 -1552 88 84 81
-38.75 -1166.81 -1549 95 90 84
-34.9576 -1160.75 -1541 102 94 89
-31.1621 -1153.18 -1531 115 105 101
-27.4135 -1145.61 -1521 137 120 114
-23.7276 -1138.8 -1512 157 132 124
-20.1774 -1137.27 -1510 168 142 131
-16.5485 -1129.72 -1500 174 145 131
-13.0621 -1130.45 -1501 171 144 130
-9.5584 -1129.69 -1500 170 143 131
-6.03934 -1125.16 -1494 168 141 129
-2.56006 -1125.91 -1495 164 137 125
0.923031 -1125.91 -1495 155 128 118
4.41203 -1127.42 -1497 142 114 103
7.9051 -1128.18 -1498 128 104 96
11.4411 -1132.71 -1504 117 96 91
14.9951 -1136.49 -1509 111 90 85
18.6217 -1143.29 -1518 99 82 80
22.2905 -1150.09 -1527 90 75 73
26.0013 -1156.9 -1536 79 66 65
29.7545 -1163.71 -1545 74 66 65
33.5284 -1169.77 -1553 77 71 68
37.1484 -1169.81 -1553 79 74 73
40.7689 -1169.85 -1553 84 80 80
44.4472 -1171.41 -1555 93 90 93
48.0424 -1170.71 -1554 0 0 0
-132.874 -1172.83 -1547 162 160 158
-128.906 -1169.64 -1543 166 158 158
-124.39 -1161.16 -1532 155 142 135
-119.69 -1150.41 -1518 144 130 122
-115.134 -1140.42 -1505 150 135 124
-111.233 -1136.5 -1500 158 135 124
-107.501 -1134.1 -1497 161 136 126
-103.992 -1133.98 -1497 162 137 127
-100.149 -1130.08 -1492 162 137 127
-96.4593 -1127.69 -1489 162 137 127
-92.785 -1125.31 -1486 162 137 128
-89.186 -1123.69 -1484 163 137 127
-85.5394 -1121.32 -1481 161 134 123
-82.2958 -1124.25 -1485 157 130 119
-78.8751 -1124.91 -1486 150 124 113
-75.6028 -1127.85 -1490 141 115 106
-72.3609 -1131.55 -1495 130 105 97
-69.3268 -1139.04 -1505 110 86 83
-66.4216 -1149.56 -1519 91 74 71
-63.4103 -1159.32 -1532 81 67 64
-60.1827 -1166.06 -1541 80 69 68
-56.7301 -1169.02 -1545 76 68 67
-53.2593 -1171.98 -1549 75 69 64
-49.6745 -1172.68 -1550 76 71 66
-46.0556 -1172.62 -1550 79 76 70
-42.3552 -1170.3 -1547 91 87 84
-38.6442 -1167.23 -1543 99 93 88
-34.9068 -1162.65 -1537 105 96 91
-31.0755 -1153.53 -1525 117 106 102
-27.3548 -1146.69 -1516 136 119 113
-23.7077 -1141.37 -1509 154 131 122
-20.0935 -1136.05 -1502 164 139 128
-16.5453 -1133 -1498 171 144 130
-13.0334 -1131.47 -1496 171 144 130
-9.52473 -1129.19 -1493 170 143 131
-6.02583 -1126.16 -1489 165 138 126
-2.55441 -1126.91 -1490 161 134 122
0.921644 -1127.66 -1491 154 127 115
4.39648 -1126.91 -1490 143 116 106
7.88274 -1128.43 -1492 128 104 97
11.401 -1132.22 -1497 119 98 93
14.9429 -1136.02 -1502 114 93 88
18.4958 -1139.07 -1506 105 87 85
22.1116 -1144.38 -1513 92 77 74
25.794 -1151.22 -1522 82 68 66
29.5382 -1158.81 -1532 74 64 62
33.286 -1164.9 -1540 74 68 65
36.9517 -1167.21 -1543 78 73 71
40.5794 -1168.01 -1544 83 79 79
44.2695 -1170.33 -1547 98 95 98
-132.34 -1171.72 -1539 166 164 162
-128.303 -1167.76 -1534 165 157 157
-124.046 -1161.52 -1526 151 139 131
-119.434 -1151.49 -1513 149 134 124
-115.114 -1143.74 -1503 152 135 123
-111.139 -1139.05 -1497 161 138 127
-107.338 -1135.88 -1493 163 138 127
-103.834 -1135.75 -1493 165 140 129
-99.9285 -1131.07 -1487 166 142 131
-96.2465 -1128.67 -1484 167 142 132
-92.6423 -1127.04 -1482 164 139 130
-88.9883 -1124.66 -1479 162 136 127
-85.4649 -1123.8 -1478 163 136 126
-82.058 -1124.46 -1479 160 134 124
-78.8068 -1127.41 -1483 152 127 117
-75.487 -1129.6 -1486 141 116 107
-72.3476 -1134.83 -1493 125 100 92
-69.2224 -1140.83 -1501 108 84 82
-66.2794 -1150.63 -1514 90 73 69
-63.2764 -1160.44 -1527 81 67 65
-60.0176 -1166.45 -1535 78 66 67
-56.575 -1169.42 -1539 76 66 66
-53.1144 -1172.39 -1543 74 68 64
-49.5713 -1173.86 -1545 75 70 67
-45.9006 -1172.28 -1543 78 74 71
-42.2396 -1170.71 -1541 90 88 86
-38.5884 -1169.14 -1539 102 98 92
-34.8334 -1163.78 -1532 113 106 101
-31.0502 -1156.15 -1522 121 110 106
-27.3682 -1150.8 -1515 135 118 112
-23.7035 -1144.69 -1507 154 131 122
-20.0496 -1137.07 -1497 164 140 128
-16.5533 -1137.05 -1497 173 146 132
-13.0135 -1133.24 -1492 171 144 130
-9.52911 -1133.22 -1492 168 141 129
-6.03682 -1131.69 -1490 164 137 125
-2.55734 -1131.69 -1490 163 136 124
0.921086 -1130.17 -1488 157 130 118
4.39883 -1130.93 -1489 147 120 108
7.88129 -1131.7 -1490 131 106 98
11.3913 -1134.75 -1494 123 99 93
14.9104 -1137.04 -1497 122 98 94
18.4068 -1137.06 -1497 112 94 92
22.0057 -1142.4 -1504 99 84 81
25.6205 -1146.99 -1510 90 77 74
29.3216 -1153.86 -1519 78 70 68
33.0434 -1159.97 -1527 76 70 67
36.7789 -1165.33 -1534 77 71 69
40.3897 -1166.13 -1535 84 79 79
44.0628 -1168.46 -1538 114 111 113
-131.461 -1167.52 -1527 167 163 162
-127.531 -1164.31 -1523 164 156 156
-123.296 -1158.04 -1515 152 137 131
-118.941 -1150.26 -1505 150 133 124
-114.865 -1144.77 -1498 153 137 124
-110.971 -1140.82 -1493 165 140 130
-107.175 -1137.64 -1489 166 141 131
-103.607 -1136.75 -1488 164 140 130
-99.7755 -1132.81 -1483 165 142 132
-95.9688 -1128.88 -1478 166 141 133
-92.4996 -1128.77 -1478 163 138 130
-88.9712 -1127.9 -1477 161 135 126
-85.5063 -1127.8 -1477 162 135 124
-81.9867 -1126.94 -1476 161 136 126
-78.5791 -1127.61 -1477 155 130 121
-75.2695 -1129.81 -1480 147 122 114
-71.995 -1132.78 -1484 131 106 100
-68.9335 -1139.56 -1493 111 87 85
-66.0058 -1149.41 -1506 92 74 72
-63.0178 -1159.25 -1519 79 64 63
-59.8523 -1166.81 -1529 74 62 64
-56.4567 -1170.56 -1534 74 65 65
-53.0036 -1173.55 -1538 73 67 63
-49.4682 -1175.02 -1540 77 72 68
-45.8347 -1174.2 -1539 82 78 75
-42.1513 -1171.86 -1536 91 89 87
-38.5076 -1170.29 -1534 112 109 103
-34.7599 -1164.9 -1527 129 123 118
-31.0044 -1158 -1518 122 112 108
-27.3095 -1151.86 -1510 136 120 114
-23.6522 -1145.73 -1502 154 131 122
-20.0192 -1138.84 -1493 164 139 128
-16.4949 -1136.53 -1490 170 143 129
-12.9848 -1134.23 -1487 171 144 130
-9.50177 -1133.45 -1486 169 142 130
-6.01519 -1131.15 -1483 168 141 129
-2.54633 -1130.38 -1482 165 138 126
0.919078 -1131.15 -1483 158 131 119
4.39213 -1132.67 -1485 146 119 107
7.86948 -1133.44 -1486 134 109 101
11.3437 -1133.46 -1486 128 104 98
14.8681 -1137.29 -1491 127 102 96
18.3543 -1137.31 -1491 118 100 98
21.8847 -1139.62 -1494 105 89 86
25.5485 -1147.27 -1504 93 79 77
29.2204 -1153.41 -1512 82 73 71
32.9085 -1158.78 -1519 76 70 69
36.6538 -1164.93 -1527 77 72 70
40.2787 -1166.5 -1529 86 81 80
43.8847 -1167.31 -1530 131 128 129
-134.685 -1168.01 -1521 0 0 0
-130.926 -1166.32 -1519 165 161 160
-127.094 -1163.87 -1516 161 153 153
-122.951 -1158.35 -1509 151 137 130
-118.685 -1151.3 -1500 149 133 123
-114.692 -1146.56 -1494 154 137 123
-110.804 -1142.59 -1489 164 139 128
-107.084 -1140.16 -1486 163 138 129
-103.379 -1137.73 -1483 163 139 130
-99.6227 -1134.54 -1479 165 142 133
-96.0161 -1132.9 -1477 171 147 139
-92.4198 -1131.25 -1475 170 147 138
-88.8943 -1130.38 -1474 167 143 133
-85.3743 -1129.51 -1473 166 139 127
-82.0269 -1130.95 -1475 163 138 128
-78.5644 -1130.85 -1475 157 132 124
-75.2555 -1133.06 -1478 147 122 114
-71.9819 -1136.04 -1482 136 111 105
-68.7827 -1140.56 -1488 118 93 91
-65.7318 -1148.14 -1498 93 74 72
-62.7176 -1157.27 -1510 80 64 64
-59.5695 -1164.86 -1520 72 60 63
-56.2645 -1170.16 -1527 71 63 63
-52.9274 -1175.46 -1534 74 67 65
-49.3008 -1174.63 -1533 74 70 66
-45.739 -1175.34 -1534 81 79 75
-42.063 -1172.99 -1531 90 88 86
-38.3766 -1169.88 -1527 118 115 110
-34.6408 -1164.47 -1520 136 130 125
-30.9383 -1159.07 -1513 122 111 107
-27.2326 -1152.14 -1504 133 117 111
-23.5536 -1144.45 -1494 149 128 119
-19.9619 -1139.07 -1487 160 136 125
-16.4476 -1136.75 -1484 168 141 127
-12.9649 -1135.96 -1483 168 141 127
-9.4872 -1135.19 -1482 169 142 130
-6.01404 -1134.41 -1481 166 139 127
-2.54754 -1134.41 -1481 159 132 120
0.91831 -1133.64 -1480 153 126 114
4.38859 -1135.17 -1482 144 118 108
7.85744 -1135.18 -1482 135 110 102
11.3648 -1139.02 -1487 129 105 99
14.8854 -1142.1 -1491 129 104 98
18.3759 -1142.12 -1491 123 102 98
21.8957 -1143.68 -1493 107 90 86
25.5274 -1149.83 -1501 93 80 76
29.1385 -1153.7 -1506 82 73 70
32.8168 -1159.09 -1513 76 69 67
36.5524 -1165.26 -1521 75 70 68
40.1676 -1166.84 -1523 80 76 75
43.7639 -1167.66 -1524 130 127 128
-138.072 -1170.04 -1517 0 0 0
-134.223 -1167.56 -1514 166 164 162
-130.389 -1165.1 -1511 165 161 160
-126.404 -1161.09 -1506 160 152 152
-122.361 -1156.32 -1500 151 138 131
-118.349 -1151.55 -1494 151 135 124
-114.443 -1147.56 -1489 157 139 125
-110.71 -1145.11 -1486 164 140 127
-107.138 -1144.22 -1485 165 142 131
-103.361 -1141.01 -1481 167 144 133
-99.5375 -1137.04 -1476 169 146 137
-95.9987 -1136.15 -1475 171 148 139
-92.4028 -1134.5 -1473 169 146 138
-88.8175 -1132.85 -1471 167 143 135
-85.3004 -1131.98 -1470 165 138 128
-81.9004 -1132.65 -1471 160 135 125
-78.3899 -1131.79 -1470 156 132 123
-75.1399 -1134.78 -1474 151 127 118
-71.6773 -1134.69 -1474 142 117 109
-68.5395 -1140 -1481 122 97 95
-65.4135 -1146.08 -1489 97 77 75
-62.4585 -1156.01 -1502 81 65 64
-59.3646 -1164.4 -1513 73 61 64
-56.1092 -1170.49 -1521 73 63 63
-52.7476 -1175.04 -1527 70 65 64
-49.1332 -1174.21 -1526 72 68 66
-45.6134 -1175.7 -1528 82 80 78
-41.8648 -1171.03 -1522 93 92 89
-38.2202 -1168.67 -1519 132 130 124
-34.4989 -1163.25 -1512 139 133 128
-30.8107 -1157.82 -1505 126 115 111
-27.1738 -1153.17 -1499 134 117 110
-23.518 -1146.22 -1490 148 128 120
-19.9718 -1143.12 -1486 156 133 123
-16.4446 -1140.02 -1482 165 138 126
-12.9537 -1138.46 -1480 165 138 124
-9.47239 -1136.91 -1478 165 138 126
-6.0129 -1137.67 -1479 162 135 123
-2.54167 -1135.36 -1476 158 131 120
0.917752 -1136.13 -1477 150 124 113
4.37594 -1135.36 -1476 141 117 106
7.85092 -1137.68 -1479 134 110 101
11.3398 -1140 -1482 130 107 98
14.8231 -1140.78 -1483 129 105 99
18.2865 -1140.03 -1482 123 102 97
21.8187 -1143.13 -1486 112 96 89
25.4042 -1147.78 -1492 95 83 76
28.9792 -1150.88 -1496 88 78 74
32.595 -1154.77 -1501 84 75 74
36.379 -1163.27 -1512 77 71 70
39.9509 -1164.09 -1513 80 75 74
43.5277 -1164.9 -1514 121 117 116
-137.597 -1169.57 -1510 165 164 162
-133.938 -1168.63 -1509 167 165 163
-129.939 -1164.61 -1504 165 161 160
-126.049 -1161.36 -1500 158 146 142
-122.343 -1159.66 -1498 151 136 128
-118.33 -1154.88 -1492 154 138 126
-114.347 -1150.09 -1486 159 141 129
-110.394 -1145.32 -1480 165 142 131
-106.831 -1144.41 -1479 169 146 136
-103.064 -1141.2 -1475 168 145 136
-99.3849 -1138.75 -1472 169 146 137
-95.7862 -1137.09 -1470 171 148 139
-92.1979 -1135.43 -1468 171 148 139
-88.62 -1133.78 -1466 170 147 138
-85.0525 -1132.13 -1464 165 142 131
-81.6626 -1132.8 -1465 162 137 127
-78.2154 -1132.71 -1465 160 134 125
-74.8202 -1133.39 -1466 153 126 118
-71.4698 -1134.85 -1468 141 116 108
-68.1569 -1137.09 -1471 125 100 94
-65.0947 -1143.97 -1480 103 81 77
-62.0741 -1152.39 -1491 86 67 66
-59.1596 -1163.92 -1506 76 62 65
-55.8797 -1169.26 -1513 70 63 64
-52.5676 -1174.6 -1520 72 64 62
-49.0298 -1175.32 -1521 73 67 65
-45.4281 -1174.49 -1520 82 80 78
-41.7488 -1171.35 -1516 105 105 100
-38.1392 -1169.75 -1514 142 140 135
-34.4252 -1164.3 -1507 145 141 136
-30.7648 -1159.63 -1501 132 123 119
-27.1512 -1155.73 -1496 133 117 110
-23.4824 -1147.98 -1486 147 126 119
-19.9279 -1144.09 -1481 156 131 121
-16.4082 -1140.98 -1477 163 134 120
-12.9251 -1139.41 -1475 167 138 126
-9.45779 -1138.63 -1474 166 139 129
-5.99956 -1138.62 -1474 162 135 124
-2.53772 -1137.07 -1472 157 130 118
0.917608 -1139.39 -1475 146 122 109
4.3813 -1140.16 -1476 141 116 106
7.84441 -1140.17 -1476 135 111 102
11.3533 -1144.82 -1482 132 109 100
14.8407 -1145.6 -1483 130 106 100
18.3081 -1144.85 -1482 127 106 101
21.7859 -1144.88 -1482 115 100 91
25.3489 -1148.77 -1487 102 90 81
28.8777 -1150.34 -1489 96 85 81
32.4597 -1153.47 -1493 89 77 78
36.1569 -1159.69 -1501 82 73 73
39.7602 -1162.05 -1504 78 71 71
43.3203 -1162.88 -1505 111 106 105
-140.869 -1170.79 -1505 0 0 0
-137.214 -1169.85 -1504 164 163 163
-133.564 -1168.91 -1503 165 162 161
-129.661 -1165.64 -1499 164 159 158
-125.778 -1162.38 -1495 161 142 135
-121.834 -1158.35 -1490 153 135 125
-117.994 -1155.09 -1486 154 137 124
-113.944 -1149.52 -1479 158 141 127
-110.077 -1145.5 -1474 164 145 133
-106.524 -1144.59 -1473 168 146 136
-102.907 -1142.91 -1471 168 145 136
-99.1649 -1139.68 -1467 168 145 136
-95.6389 -1138.79 -1466 169 146 137
-91.9929 -1136.35 -1463 171 148 139
-88.4225 -1134.69 -1461 173 150 141
-84.8626 -1133.03 -1459 168 145 135
-81.4246 -1132.93 -1459 164 141 130
-77.934 -1132.06 -1458 158 133 125
-74.5001 -1131.97 -1458 150 125 117
-71.2619 -1134.99 -1462 138 113 105
-67.9594 -1137.24 -1465 124 100 94
-64.9516 -1144.92 -1475 103 82 78
-61.8975 -1152.61 -1485 85 67 65
-58.9543 -1163.4 -1499 71 57 59
-55.6131 -1167.21 -1504 63 55 56
-52.3529 -1173.36 -1512 68 60 60
-48.7651 -1172.52 -1511 75 69 67
-45.1825 -1171.69 -1510 84 82 77
-41.6328 -1171.64 -1510 115 115 113
-37.9573 -1167.71 -1505 141 139 135
-34.2371 -1161.46 -1497 143 139 135
-30.6782 -1159.87 -1495 128 121 116
-27.0561 -1155.18 -1489 132 116 108
-23.4151 -1148.17 -1480 147 125 116
-19.8706 -1144.27 -1475 155 129 118
-16.3497 -1140.37 -1470 161 132 118
-12.8788 -1138.8 -1468 166 138 126
-9.41748 -1137.23 -1466 167 140 130
-5.98213 -1138.78 -1468 165 138 127
-2.53205 -1138 -1467 160 133 122
0.915808 -1140.32 -1470 150 124 113
4.37479 -1141.88 -1472 142 117 107
7.83236 -1141.88 -1472 136 112 103
11.3055 -1143.45 -1474 135 111 103
14.8183 -1147.34 -1479 136 111 105
18.3053 -1148.14 -1480 132 108 102
21.7676 -1147.39 -1479 122 104 95
25.3109 -1150.52 -1483 113 97 89
28.8538 -1152.88 -1486 103 89 85
32.3894 -1154.46 -1488 97 83 80
35.983 -1157.61 -1492 90 79 77
39.5956 -1160.76 -1496 84 74 73
43.2275 -1163.91 -1500 107 99 99
46.7542 -1163.96 -1500 142 137 138
50.4823 -1168.68 -1506 0 0 0
-140.569 -1171.84 -1500 0 0 0
-136.738 -1169.33 -1497 162 159 156
-133.101 -1168.38 -1496 163 159 157
-129.383 -1166.67 -1494 161 154 152
-125.423 -1162.61 -1489 158 138 132
-121.57 -1159.34 -1485 151 132 122
-117.738 -1156.07 -1481 155 136 124
-113.848 -1152.03 -1476 159 142 128
-109.909 -1147.21 -1470 163 144 132
-106.433 -1147.09 -1470 167 146 135
-102.749 -1144.62 -1467 170 147 138
-99.2155 -1143.72 -1466 169 146 137
-95.557 -1141.26 -1463 170 147 138
-91.9136 -1138.81 -1460 174 151 142
-88.2855 -1136.36 -1457 173 150 141
-84.7308 -1134.7 -1455 170 147 138
-81.298 -1134.6 -1455 165 142 133
-77.9733 -1136.06 -1457 157 133 125
-74.4354 -1134.41 -1455 149 124 116
-71.1515 -1136.67 -1458 140 115 107
-67.808 -1138.14 -1460 128 103 97
-64.8085 -1145.86 -1470 107 85 81
-61.6373 -1151.24 -1477 88 68 66
-58.67 -1161.3 -1490 69 55 56
-55.3831 -1165.91 -1496 61 53 53
-52.1378 -1172.08 -1504 67 59 60
-48.5969 -1172.02 -1504 72 65 65
-45.0266 -1171.18 -1503 91 89 83
-41.4614 -1170.35 -1502 130 129 127
-37.8509 -1167.97 -1499 141 139 135
-34.2091 -1164.03 -1494 141 136 132
-30.6323 -1161.65 -1491 129 119 114
-26.9972 -1156.17 -1484 131 114 106
-23.4112 -1151.46 -1478 145 122 113
-19.8401 -1145.98 -1471 159 134 122
-16.3245 -1142.07 -1466 168 139 125
-12.859 -1140.49 -1464 168 141 129
-9.40947 -1139.7 -1463 167 140 130
-5.96468 -1138.91 -1462 165 138 128
-2.52464 -1138.13 -1461 160 133 123
0.913169 -1140.46 -1464 152 125 115
4.3651 -1142.8 -1467 146 120 110
7.82584 -1144.37 -1469 141 115 106
11.2961 -1145.94 -1471 138 113 103
14.796 -1149.07 -1475 138 113 105
18.29 -1150.65 -1477 132 108 102
21.7495 -1149.89 -1476 127 105 98
25.2557 -1151.48 -1478 121 101 95
28.7133 -1150.73 -1477 111 95 88
32.2319 -1152.33 -1479 105 90 86
35.7844 -1154.7 -1482 99 86 85
39.4044 -1158.65 -1487 95 83 82
43.0195 -1161.81 -1491 91 80 80
46.5603 -1162.64 -1492 139 130 131
50.2405 -1166.6 -1497 145 142 142
53.7293 -1165.88 -1496 0 0 0
-140.363 -1173.65 -1496 168 163 161
-136.537 -1171.13 -1493 168 163 160
-132.904 -1170.18 -1492 165 159 156
-129.018 -1166.89 -1488 157 148 144
-124.899 -1161.25 -1481 151 132 125
-121.142 -1158.75 -1478 152 132 123
-117.401 -1156.25 -1475 156 137 125
-113.521 -1152.19 -1470 158 141 127
-109.816 -1149.71 -1467 164 143 132
-106.416 -1150.36 -1468 169 147 137
-102.872 -1149.45 -1467 171 148 139
-99.1311 -1146.2 -1463 171 148 139
-95.4099 -1142.95 -1459 172 149 140
-91.6456 -1138.92 -1454 174 151 142
-88.0273 -1136.46 -1451 174 151 142
-84.4824 -1134.79 -1449 171 148 139
-81.0597 -1134.69 -1449 166 143 134
-77.638 -1134.59 -1449 160 136 127
-74.2171 -1134.5 -1449 153 128 120
-70.9924 -1137.55 -1453 144 120 112
-67.7961 -1141.38 -1458 131 106 100
-64.6653 -1146.78 -1465 113 90 85
-61.5857 -1153.75 -1474 91 71 67
-58.5431 -1162.29 -1485 74 60 59
-55.1528 -1164.57 -1488 65 57 57
-51.7837 -1167.63 -1492 66 58 61
-48.3638 -1169.92 -1495 71 64 66
-44.9004 -1171.43 -1497 101 98 92
-41.3451 -1170.6 -1496 140 138 138
-37.8202 -1170.55 -1496 144 142 139
-34.2041 -1167.38 -1492 141 136 132
-30.6072 -1164.21 -1488 131 122 117
-26.9566 -1157.91 -1480 128 111 101
