ply
format ascii 1.0
comment Created by Open3D
element vertex 1458
property double x
property double y
property double z
property uchar red
property uchar green
property uchar blue
end_header
-56.9084 56.6923 -1260 185 155 66
-53.7548 56.0141 -1245 188 158 70
-50.7437 55.426 -1232 190 160 73
-47.9807 55.0632 -1224 187 156 72
-45.3615 54.8354 -1219 181 150 69
-42.6921 54.5179 -1212 181 151 66
-39.9179 54.0206 -1201 185 155 70
-37.219 53.5685 -1191 183 153 71
-34.3554 52.8017 -1174 180 149 65
-31.805 52.4399 -1166 178 146 62
-29.3372 52.1682 -1160 175 146 69
-26.9635 52.0316 -1157 176 147 70
-24.7297 52.1649 -1160 185 154 79
-22.6002 52.5683 -1169 170 143 92
-20.4352 52.9717 -1178 87 62 23
-18.1578 53.1504 -1182 33 21 16
-15.771 53.0145 -1179 58 44 38
-13.0204 51.3949 -1143 140 120 115
-9.89539 47.3024 -1052 194 168 158
-7.40637 44.8738 -998 216 185 172
-5.31119 43.9292 -977 227 194 183
-3.31668 43.2095 -961 230 197 186
-1.40771 43.1644 -960 229 198 185
0.493654 42.8047 -952 227 196 184
2.36827 42.535 -946 226 195 183
4.18318 41.9057 -932 223 193 184
6.0008 41.6812 -927 221 191 182
7.77325 41.3219 -919 221 190 183
9.56621 41.1876 -916 218 187 180
11.3473 41.0533 -913 216 185 178
13.0734 40.7843 -907 214 183 176
14.8086 40.6052 -903 212 181 174
16.4544 40.2464 -895 207 176 170
18.1705 40.1126 -892 204 173 168
19.83 39.8889 -887 200 170 164
21.5429 39.8002 -885 198 169 165
23.2481 39.7116 -883 194 164 160
24.9454 39.6231 -881 187 157 153
26.5441 39.3998 -876 184 155 151
28.1879 39.2665 -873 185 156 152
29.7513 39.0434 -868 180 152 146
31.3313 38.8653 -864 174 144 140
32.8192 38.5973 -858 168 138 135
34.3639 38.4194 -854 166 135 130
35.8508 38.1966 -849 171 140 135
37.0086 37.6589 -837 178 147 142
38.35 37.3462 -830 180 149 143
38.9891 36.4036 -809 168 137 130
39.5952 35.506 -789 158 128 119
40.2784 34.7434 -772 150 119 110
41.436 34.4308 -765 143 112 103
42.4538 34.0283 -756 136 105 96
43.9594 34.0309 -756 134 103 94
45.2248 33.8535 -752 128 102 94
46.5988 33.7663 -750 126 100 92
48.0294 33.7241 -749 126 99 89
49.5225 33.7271 -749 126 100 90
51.1523 33.8202 -751 125 98 88
52.58 33.7783 -750 126 95 86
54.0764 33.7815 -750 128 95 89
55.9436 34.0101 -755 121 86 82
57.5269 34.0586 -756 99 72 67
-90.0601 59.5639 -1384 174 161 142
-85.3463 58.2247 -1353 164 149 119
-81.8562 57.6605 -1340 168 146 78
-78.655 57.2685 -1331 172 149 75
-75.319 56.7478 -1319 177 153 72
-71.9763 56.1843 -1306 181 153 71
-68.8983 55.7931 -1297 180 152 70
-65.8057 55.359 -1287 180 152 70
-62.7533 54.9251 -1277 184 155 72
-59.7413 54.4915 -1267 188 158 73
-56.5436 53.843 -1252 189 159 70
-53.4494 53.2378 -1238 191 161 72
-50.7407 52.9768 -1232 190 160 73
-47.8995 52.544 -1222 184 154 70
-45.21 52.2403 -1215 179 148 67
-42.5487 51.9367 -1208 178 148 63
-39.7826 51.4615 -1197 183 154 69
-37.0919 51.0293 -1187 181 153 69
-34.3826 50.5114 -1175 179 148 65
-31.8849 50.2516 -1169 179 147 64
-29.4114 49.9919 -1163 178 148 70
-27.055 49.9042 -1161 182 152 76
-24.8774 50.1607 -1167 186 156 84
-22.8115 50.7181 -1180 152 128 81
-20.5901 51.0177 -1187 66 46 11
-18.2796 51.1456 -1190 30 21 20
-15.7835 50.7148 -1180 53 41 40
-7.38368 42.7619 -995 213 184 172
-5.28914 41.8161 -973 224 191 180
-3.32339 41.3861 -963 227 195 183
-1.40616 41.214 -959 227 196 184
0.493623 40.9131 -952 226 195 184
2.36562 40.6124 -945 225 194 183
4.19639 40.1828 -935 221 191 182
6.01339 39.9253 -929 218 188 179
7.79816 39.6249 -922 216 185 178
9.58653 39.4534 -918 214 183 176
11.3591 39.2822 -914 213 182 175
13.1015 39.068 -909 211 180 173
14.8241 38.8539 -904 208 177 170
16.5453 38.6829 -900 204 173 168
18.2509 38.512 -896 199 169 162
19.9406 38.3411 -892 193 163 156
21.6877 38.2993 -891 192 164 161
23.3783 38.1717 -888 189 160 157
25.0855 38.0871 -886 182 152 149
26.7244 37.9166 -882 178 148 145
28.4122 37.8323 -880 176 146 143
29.9552 37.576 -874 172 145 139
31.547 37.4058 -870 168 139 135
33.085 37.1927 -865 161 132 129
34.6435 37.0227 -861 158 127 122
36.1443 36.8097 -856 158 127 122
37.5812 36.5538 -850 162 131 126
38.9483 36.255 -843 164 133 127
39.9507 35.6552 -829 157 126 119
41.2488 35.3564 -822 155 125 116
41.9977 34.6276 -805 147 117 108
43.4376 34.501 -802 142 111 102
44.1359 33.8152 -786 133 102 93
46.1081 34.119 -793 133 102 94
47.2065 33.7775 -785 126 101 93
48.3978 33.5221 -779 125 100 91
49.2448 33.0516 -768 123 99 89
50.6435 32.9683 -766 121 98 88
51.6259 32.627 -758 114 92 82
-89.2742 56.318 -1372 169 155 121
-85.1523 55.4102 -1350 157 140 97
-81.7295 54.913 -1338 167 143 78
-78.4142 54.4572 -1327 174 150 78
-75.3147 54.1247 -1319 176 152 71
-71.862 53.5051 -1304 179 152 70
-68.4695 52.8858 -1289 180 152 70
-65.3418 52.4308 -1278 182 154 71
-62.2093 51.935 -1266 187 158 74
-59.0778 51.3983 -1253 192 162 76
-56.0437 50.903 -1241 192 162 74
-53.1873 50.5308 -1232 191 161 73
-50.4495 50.2409 -1225 188 158 71
-47.8184 50.0331 -1220 184 154 70
-45.0958 49.7024 -1212 178 147 66
-42.4406 49.413 -1205 176 146 61
-39.5478 48.7956 -1190 181 151 66
-36.9335 48.4655 -1182 178 152 66
-34.2929 48.0535 -1172 178 149 66
-31.8013 47.8057 -1166 177 147 65
-29.3591 47.5991 -1161 178 147 68
-27.17 47.8025 -1166 184 154 77
-25.0892 48.252 -1177 185 155 87
-22.8876 48.5377 -1184 126 106 63
-20.693 48.9054 -1193 51 35 6
-18.3707 49.0273 -1196 28 21 22
-15.9297 48.8214 -1191 54 43 43
-13.1441 47.304 -1154 138 120 119
-7.42779 41.0312 -1001 212 183 170
-5.32689 40.1701 -980 221 189 178
-3.32666 39.514 -964 224 192 181
-1.40755 39.3499 -960 225 194 183
0.493593 39.022 -952 226 195 184
2.373 38.8581 -948 225 194 183
4.21411 38.4894 -939 221 190 181
6.03894 38.2437 -933 216 185 176
7.82309 37.9162 -925 212 181 174
9.60688 37.7117 -920 211 180 173
11.3957 37.5893 -917 210 179 172
13.144 37.3851 -912 206 175 168
14.8888 37.2219 -908 204 173 166
16.5996 37.0177 -903 201 170 165
18.3313 36.8957 -900 196 166 160
20.0066 36.6918 -895 190 160 154
21.7595 36.652 -894 187 159 156
23.456 36.5302 -891 183 154 151
25.169 36.4496 -889 177 147 144
26.8138 36.287 -885 173 143 140
28.5074 36.2065 -883 168 139 135
30.0906 36.0031 -878 164 137 131
31.6903 35.8408 -874 159 131 127
33.2361 35.6375 -869 153 125 122
34.8025 35.4754 -865 153 122 117
36.2689 35.2312 -859 152 121 116
37.8443 35.1102 -856 150 119 114
39.2233 34.8252 -849 149 118 111
40.7675 34.7044 -846 147 116 109
41.949 34.2964 -836 145 115 106
43.4039 34.1347 -832 141 111 102
44.1933 33.4806 -816 135 104 95
45.7618 33.4421 -815 132 101 92
47.3265 33.4036 -814 128 98 89
49.1406 32.4651 -791 124 101 91
-88.4886 53.1203 -1360 163 148 103
-84.643 52.4127 -1342 155 138 83
-81.5418 52.135 -1335 168 144 77
-78.1145 51.6231 -1322 175 150 76
-74.5684 50.9943 -1306 179 152 72
-71.4172 50.6001 -1296 182 154 73
-68.094 50.0498 -1282 183 155 73
-65.1338 49.734 -1274 185 157 74
-61.9111 49.1842 -1260 190 161 76
-58.7917 48.6736 -1247 193 162 75
-55.9504 48.3583 -1239 193 163 76
-53.1845 48.0823 -1232 189 159 72
-50.4469 47.8063 -1225 185 155 68
-47.7374 47.5306 -1218 184 153 70
-45.019 47.216 -1210 180 149 68
-42.3327 46.9015 -1202 177 147 63
-39.5456 46.4312 -1190 180 151 67
-36.8691 46.039 -1180 178 152 66
-34.3203 45.764 -1173 178 151 67
-31.8542 45.5672 -1168 179 151 69
-29.5093 45.5266 -1167 183 151 70
-27.4249 45.9152 -1177 183 152 76
-25.237 46.1869 -1184 174 145 83
-23.0796 46.5757 -1194 93 76 40
-20.8133 46.8086 -1200 37 26 3
-18.4773 46.9247 -1203 24 19 21
-15.9957 46.6507 -1196 55 46 47
-13.246 45.3627 -1163 141 123 122
-7.50901 39.472 -1012 210 181 167
-5.33748 38.3016 -982 218 187 176
-3.33683 37.7163 -967 221 190 179
-1.40894 37.4821 -961 222 191 180
0.494083 37.1701 -953 223 192 181
2.37287 36.9751 -948 223 192 181
4.23183 36.7803 -943 219 188 179
6.07745 36.6246 -939 213 182 174
7.86495 36.2739 -930 209 178 172
9.64813 36.0403 -924 207 176 170
11.4573 35.9629 -922 204 173 166
13.2009 35.7295 -916 200 169 162
14.9536 35.5742 -912 196 165 159
16.6906 35.419 -908 194 163 158
18.4118 35.2639 -904 189 159 154
20.0726 35.0309 -898 185 155 150
21.8313 34.993 -897 181 152 150
23.5337 34.8771 -894 174 145 142
25.2243 34.7614 -891 168 138 135
26.8729 34.6067 -887 165 136 133
28.5704 34.5301 -885 162 132 129
30.2259 34.4146 -882 154 127 122
31.9424 34.3772 -881 152 124 120
33.5403 34.2228 -877 151 122 119
35.0421 33.9905 -871 150 120 115
36.5203 33.7582 -865 148 118 113
38.1075 33.6431 -862 145 115 110
39.637 33.489 -858 142 112 105
41.2954 33.4521 -857 141 110 103
42.6994 33.2201 -851 141 111 102
44.2884 33.1443 -849 137 106 97
45.7073 32.9515 -844 134 103 94
46.9383 32.6415 -836 130 99 90
-88.2889 50.3043 -1357 166 149 95
-84.7018 49.7811 -1343 164 145 82
-81.3544 49.3693 -1332 171 147 77
-77.756 48.7722 -1316 175 149 74
-74.5647 48.3979 -1306 179 152 72
-71.0279 47.7643 -1289 183 156 73
-67.6656 47.205 -1274 185 157 74
-64.4147 46.683 -1260 188 160 76
-61.3675 46.2724 -1249 191 161 76
-58.5059 45.973 -1241 192 160 74
-55.6766 45.6738 -1233 190 159 73
-52.966 45.4489 -1227 188 158 71
-50.3207 45.2611 -1222 185 155 68
-47.6957 45.0734 -1217 182 152 68
-45.0167 44.8119 -1210 180 149 68
-42.2601 44.4394 -1200 181 150 68
-39.3775 43.8819 -1185 182 152 70
-36.8359 43.6578 -1179 179 153 67
-34.2015 43.2858 -1169 178 151 69
-31.8798 43.2841 -1169 181 154 75
-29.6089 43.3567 -1171 190 157 77
-27.4934 43.6884 -1180 189 158 83
-25.4276 44.1684 -1193 153 126 70
-23.2331 44.5004 -1202 65 53 22
-20.951 44.7214 -1208 30 23 5
-18.5838 44.7945 -1210 27 23 26
-16.142 44.6826 -1207 59 50 52
-13.4617 43.7564 -1182 146 128 129
-7.55315 37.6843 -1018 207 178 165
-5.36982 36.5735 -988 217 186 175
-3.35047 35.944 -971 218 187 176
-1.40887 35.5737 -961 218 187 176
0.49613 35.4256 -957 219 188 177
2.38526 35.2776 -953 219 188 177
4.24507 35.0186 -946 215 185 176
6.09008 34.8338 -941 211 180 172
7.88992 34.538 -933 206 175 170
9.67896 34.3163 -927 201 170 164
11.4443 34.0947 -921 195 164 157
13.2435 34.0213 -919 192 161 154
14.9857 33.8369 -914 188 157 151
16.7449 33.7266 -911 184 153 148
18.4516 33.5424 -906 178 148 144
20.1386 33.3583 -901 177 146 143
21.9033 33.3223 -900 171 141 140
23.5851 33.1754 -896 164 134 132
25.2797 33.0655 -893 161 131 128
26.9927 32.9927 -891 156 127 124
28.6981 32.9201 -889 150 121 118
30.4643 32.9215 -889 148 120 117
32.1219 32.812 -886 148 119 116
33.768 32.7025 -883 151 121 118
35.2816 32.482 -877 148 118 113
36.8139 32.2986 -872 144 114 109
38.5919 32.3376 -873 143 113 108
40.0969 32.1543 -868 140 109 104
41.7751 32.1193 -867 138 108 102
95.5401 52.0169 -1403 209 168 159
97.3566 51.5027 -1389 217 177 169
100.199 51.5446 -1390 223 184 179
103.565 51.8464 -1398 226 186 179
-88.1545 47.5359 -1355 165 147 88
-84.6346 47.0758 -1342 166 147 80
-81.0451 46.5457 -1327 173 148 74
-77.575 46.0509 -1313 177 151 73
-74.1614 45.5563 -1299 180 153 73
-70.4735 44.8515 -1279 185 156 74
-67.3437 44.4625 -1268 187 159 76
-64.1049 43.9686 -1254 190 162 77
-61.1679 43.6501 -1245 193 163 77
-58.3145 43.3668 -1237 191 159 73
-55.5836 43.1537 -1231 187 157 70
-52.8771 42.9408 -1225 188 158 72
-50.2771 42.7982 -1221 186 156 70
-47.6543 42.6207 -1216 180 149 66
-44.8285 42.233 -1205 180 149 68
-42.2229 42.0206 -1199 183 152 70
-39.4088 41.5631 -1186 182 151 69
-36.8029 41.281 -1178 177 149 66
-34.2877 41.0691 -1172 177 150 69
-31.9873 41.1025 -1173 181 154 75
-29.8097 41.3113 -1179 193 158 81
-27.7483 41.7304 -1191 191 159 88
-25.6182 42.1146 -1202 127 102 51
-23.3866 42.3937 -1210 49 36 14
-21.0541 42.5328 -1214 28 21 11
-18.6905 42.637 -1217 29 24 27
-16.2348 42.5311 -1214 58 49 51
-13.6432 41.9698 -1198 147 129 130
-5.41848 34.927 -997 214 182 171
-3.36066 34.121 -974 214 182 171
-1.41614 33.8407 -966 215 184 173
0.497659 33.6304 -960 214 183 172
2.39015 33.4554 -955 214 183 172
4.26282 33.2804 -950 211 181 172
6.10273 33.0354 -943 208 177 169
7.95719 32.9656 -941 203 172 167
9.74113 32.6858 -933 196 165 159
11.5307 32.5111 -928 190 159 152
13.286 32.3015 -922 187 156 149
15.0833 32.2321 -920 181 150 144
16.836 32.0927 -916 175 144 139
18.5321 31.8833 -910 171 140 137
20.2941 31.8142 -908 168 137 134
22.0482 31.7451 -906 160 131 130
23.7156 31.571 -901 155 127 125
25.4483 31.5021 -899 153 124 122
27.1429 31.3982 -896 148 120 116
28.8904 31.3645 -895 145 117 113
30.7027 31.4009 -896 147 117 114
32.5192 31.4375 -897 147 117 114
34.2252 31.3689 -895 148 116 114
35.8029 31.1953 -890 143 114 111
37.1921 30.8816 -881 137 108 105
38.8552 30.8133 -879 134 106 102
40.6493 30.8502 -880 131 104 100
89.1694 47.3277 -1349 212 172 165
93.3565 48.1039 -1371 205 161 154
96.1604 48.1435 -1372 206 163 157
99.0412 48.2182 -1374 213 170 166
102.375 48.5038 -1382 219 172 168
-88.0204 44.7757 -1353 163 144 83
-84.4416 44.3086 -1339 170 149 80
-81.1024 43.9409 -1328 175 150 72
-77.4534 43.3749 -1311 178 152 72
-73.5871 42.6437 -1289 181 154 73
-70.1947 42.1443 -1274 185 155 73
-66.7564 41.5789 -1257 189 159 76
-63.7953 41.2783 -1248 191 163 78
-60.8704 40.9779 -1239 192 162 77
-58.0762 40.7437 -1232 189 157 71
-55.3553 40.5428 -1226 183 153 68
-52.7452 40.4081 -1222 187 157 72
-50.1101 40.2405 -1217 185 155 70
-47.4562 40.0399 -1211 181 150 67
-44.7892 39.8065 -1204 183 152 71
-42.0801 39.507 -1195 185 154 72
-39.407 39.2077 -1186 180 150 68
-36.8325 38.9746 -1179 178 149 66
-34.3445 38.8076 -1174 179 151 70
-32.0676 38.8723 -1176 181 153 74
-29.96 39.1684 -1185 193 158 85
-27.9101 39.5968 -1198 180 148 81
-25.7662 39.9592 -1209 98 75 36
-23.5015 40.1895 -1216 40 28 15
-21.1572 40.3207 -1220 26 20 15
-18.7357 40.3198 -1220 25 18 22
-16.301 40.2859 -1219 56 45 48
-13.7793 39.9879 -1210 144 126 128
-10.9549 38.5002 -1165 189 163 154
-5.46714 33.245 -1006 210 177 166
-3.37776 32.3525 -979 211 179 169
-1.41901 31.9889 -968 212 181 171
0.499708 31.8567 -964 212 181 170
2.39755 31.6585 -958 211 180 169
4.28057 31.5265 -954 205 175 165
6.12833 31.2954 -947 202 172 164
7.93991 31.0313 -939 198 168 163
9.78245 30.9656 -937 193 163 158
11.555 30.7347 -930 187 157 151
13.4151 30.7683 -931 181 151 147
15.1482 30.5376 -924 173 144 139
16.9638 30.5053 -923 166 138 133
18.6739 30.3078 -917 162 134 129
20.4049 30.1764 -913 158 130 125
22.1445 30.0782 -910 151 125 123
23.8461 29.9471 -906 150 124 123
25.532 29.8159 -902 149 123 121
27.3537 29.8502 -903 146 119 114
29.1796 29.8845 -904 144 116 111
30.9411 29.8528 -903 149 116 112
32.6264 29.755 -900 148 115 112
34.5295 29.8557 -903 146 113 111
36.2438 29.7911 -901 139 111 110
73.4169 41.7853 -1263 183 148 141
76.4129 42.0534 -1271 181 144 138
79.8141 42.5201 -1285 189 148 141
83.2717 42.987 -1299 199 158 151
87.3146 43.7189 -1321 204 163 156
92.0585 44.7489 -1352 199 155 149
95.1749 44.9516 -1358 196 151 146
98.2437 45.1215 -1363 191 146 142
101.482 45.3576 -1370 192 140 138
-91.7187 42.5564 -1368 164 149 123
-87.8865 42.0238 -1351 168 147 83
-84.2488 41.5537 -1336 171 149 79
-80.7325 41.1148 -1322 175 151 70
-77.0364 40.5517 -1304 181 155 74
-73.0702 39.8023 -1280 184 157 75
-69.6958 39.3329 -1265 188 159 75
-66.5942 38.988 -1254 189 159 75
-63.5369 38.6433 -1243 186 158 72
-60.6221 38.3609 -1234 185 155 69
-57.9322 38.203 -1229 186 154 68
-55.2175 38.0142 -1223 183 152 67
-52.6134 37.8876 -1219 184 154 69
-50.0668 37.7922 -1216 184 154 69
-47.4541 37.6348 -1211 182 152 69
-44.7129 37.3532 -1202 185 154 73
-42.043 37.1027 -1194 184 153 71
-39.3389 36.7903 -1184 178 147 65
-36.8309 36.6333 -1179 179 148 67
-34.4016 36.5386 -1176 181 152 72
-32.2571 36.7547 -1183 185 157 77
-30.1357 37.0331 -1192 195 161 92
-28.0487 37.4047 -1204 157 127 65
-25.8717 37.7142 -1214 71 51 20
-23.5971 37.9306 -1221 32 21 11
-21.2256 38.0229 -1224 26 19 14
-18.7963 38.0221 -1224 26 18 20
-16.3404 37.9592 -1222 52 41 43
-13.8356 37.7411 -1215 138 121 123
-11.1613 36.8709 -1187 190 164 155
-3.43626 30.9372 -996 205 174 168
-1.42481 30.1916 -972 209 176 169
0.500722 30.0052 -966 209 176 167
2.40495 29.85 -961 207 174 163
4.29833 29.7569 -958 203 173 162
6.16042 29.5708 -952 197 168 158
8.01567 29.4468 -948 193 163 158
9.8551 29.323 -944 187 157 152
11.6787 29.1992 -940 180 150 144
13.4722 29.0444 -935 174 144 140
15.2787 28.9518 -932 166 138 133
17.055 28.8282 -928 156 130 123
18.7952 28.6736 -923 155 127 121
20.5381 28.5502 -919 152 123 118
22.2653 28.4268 -915 148 121 119
24.0557 28.3967 -914 148 121 119
25.7857 28.3045 -911 145 118 116
27.5343 28.2435 -909 142 114 110
29.4688 28.369 -913 141 113 108
31.2481 28.3392 -912 143 111 109
33.205 28.4649 -916 144 111 109
35.0251 28.4663 -916 143 110 108
36.8052 28.4367 -915 136 108 106
70.3942 38.9925 -1254 159 128 119
73.2394 39.182 -1260 159 128 120
76.0489 39.3406 -1265 160 128 121
79.3138 39.7172 -1277 163 126 119
82.6271 40.0938 -1289 165 127 120
86.5177 40.7194 -1309 177 137 130
91.4418 41.7809 -1343 189 145 139
94.9604 42.1581 -1355 189 144 138
98.1674 42.3799 -1362 184 137 132
101.403 42.602 -1369 178 125 125
-91.3127 39.6623 -1362 163 147 108
-87.8178 39.3094 -1350 173 150 84
-84.1823 38.8693 -1335 175 151 80
-80.485 38.3711 -1318 178 154 71
-76.2063 37.5529 -1290 183 158 75
-72.5535 36.9969 -1271 186 159 77
-69.1972 36.5576 -1256 190 160 75
-66.1136 36.2348 -1245 187 158 72
-63.2277 35.9994 -1237 183 155 68
-60.4723 35.8223 -1231 182 152 66
-57.7414 35.6454 -1225 183 151 65
-55.0798 35.4978 -1220 184 154 69
-52.4818 35.3793 -1216 185 155 70
-49.9001 35.2609 -1212 183 153 68
-47.2563 35.0845 -1206 183 152 70
-44.6367 34.9081 -1200 184 153 72
-41.9709 34.6737 -1192 181 150 68
-39.4369 34.5266 -1187 177 146 64
-36.8919 34.3506 -1181 179 147 66
-34.5465 34.3492 -1181 183 152 71
-32.3649 34.5224 -1187 189 158 77
-30.2862 34.8411 -1198 191 159 93
-28.1874 35.189 -1210 125 97 40
-25.9772 35.4497 -1219 53 35 8
-23.6541 35.5941 -1224 33 21 11
-21.2594 35.6514 -1226 29 21 15
-18.8263 35.6506 -1226 27 19 20
-16.3665 35.5918 -1224 43 32 34
-13.8806 35.4458 -1219 124 107 110
-11.3019 34.951 -1202 184 158 151
-3.48788 29.3964 -1011 203 173 171
-1.43208 28.4078 -977 200 167 161
0.503292 28.2333 -971 201 168 161
2.41987 28.117 -967 200 166 158
4.32059 28.0009 -963 195 164 157
6.17959 27.7684 -955 192 161 154
8.04916 27.6815 -952 184 156 146
9.88602 27.5365 -947 177 148 140
11.728 27.4496 -944 170 140 133
13.5437 27.3338 -940 165 135 128
15.3764 27.2762 -938 159 130 122
17.2197 27.2478 -937 152 124 115
18.937 27.0449 -930 151 121 115
20.7384 26.9876 -928 150 119 114
22.459 26.843 -923 146 118 116
24.2915 26.8439 -923 144 116 113
26.096 26.8158 -922 140 112 109
27.8663 26.7587 -920 138 110 107
29.6613 26.7307 -919 139 110 107
31.5552 26.7901 -921 137 106 105
33.3124 26.7332 -919 137 107 105
35.2913 26.8509 -923 137 107 104
37.4071 27.0559 -930 132 104 102
64.5659 36.0299 -1238 145 114 105
67.6248 36.3527 -1249 142 111 102
70.5037 36.5591 -1256 141 110 101
73.2364 36.6783 -1260 139 111 103
76.0458 36.8268 -1265 136 109 101
79.1243 37.0918 -1274 137 106 97
82.5596 37.5027 -1288 140 108 99
86.3158 38.0301 -1306 147 114 105
91.0977 38.9654 -1338 166 127 120
94.6763 39.3477 -1351 172 132 125
98.2355 39.701 -1363 174 130 125
101.325 39.8505 -1368 168 123 121
-92.1138 37.2808 -1374 164 147 98
-87.5543 36.5178 -1346 173 149 81
-83.4224 35.8907 -1323 177 153 81
-79.566 35.3452 -1303 181 157 75
-75.2583 34.5558 -1274 184 159 78
-72.037 34.2277 -1262 187 160 79
-68.864 33.8996 -1250 188 159 74
-65.8456 33.626 -1240 187 157 72
-63.0719 33.4609 -1234 184 156 69
-60.3227 33.296 -1228 183 153 66
-57.6449 33.1583 -1223 184 152 64
-55.0326 33.0478 -1219 183 153 68
-52.5229 32.9916 -1217 185 155 70
-49.9394 32.8813 -1213 183 153 68
-47.2937 32.7169 -1207 183 152 69
-44.7094 32.5797 -1202 184 153 72
-42.1101 32.4155 -1196 182 151 69
-39.369 32.1159 -1185 179 148 66
-36.8592 31.979 -1180 182 148 68
-34.6036 32.059 -1183 186 153 72
-32.4727 32.2745 -1191 190 158 76
-30.4115 32.5986 -1203 179 149 88
-28.2795 32.8956 -1214 93 67 15
-26.0188 33.0843 -1221 41 25 1
-23.6919 33.2188 -1226 35 21 8
-21.2586 33.218 -1226 32 20 10
-18.8409 33.2444 -1227 31 22 22
-16.3792 33.1896 -1225 41 28 30
-13.9029 33.0807 -1221 108 91 95
-11.3578 32.728 -1208 170 145 139
-3.59124 28.2028 -1041 197 168 167
-1.46135 27.0106 -997 192 159 154
0.508973 26.6042 -982 193 160 155
2.42978 26.3063 -971 192 158 154
4.33837 26.1981 -967 187 153 151
6.21817 26.0357 -961 185 153 148
8.10804 25.9818 -959 179 151 140
9.9796 25.9008 -956 175 146 137
11.8145 25.7658 -951 168 138 130
13.644 25.6578 -947 161 131 123
15.4742 25.5771 -944 155 125 118
17.3109 25.5235 -942 150 120 113
19.1195 25.4429 -939 147 116 112
20.9387 25.3894 -937 146 114 110
22.7258 25.3089 -934 142 113 110
24.5538 25.2827 -933 140 112 108
26.3497 25.2294 -931 139 110 106
28.1985 25.2304 -931 138 110 107
29.9829 25.1773 -929 137 109 106
31.9309 25.2597 -932 136 106 106
33.7099 25.2067 -930 135 106 103
61.6492 33.3243 -1229 138 108 99
64.6677 33.6249 -1240 135 104 95
67.514 33.8171 -1247 133 102 93
70.3887 34.0095 -1254 130 99 90
73.0593 34.0935 -1257 124 98 90
75.8626 34.2319 -1262 126 101 93
78.935 34.4788 -1271 124 99 89
82.4283 34.8887 -1286 126 100 90
86.3786 35.4615 -1307 127 100 90
91.2304 36.3602 -1340 138 105 96
94.953 36.7706 -1355 145 109 102
98.2318 36.9913 -1363 144 106 101
-91.105 34.1729 -1359 167 149 94
-86.9008 33.5916 -1336 175 151 80
-82.4737 32.8848 -1308 177 153 78
-78.5862 32.3541 -1287 183 159 78
-74.4286 31.6728 -1260 186 161 81
-71.2924 31.3938 -1249 187 160 79
-68.4209 31.2155 -1242 187 158 72
-65.684 31.0876 -1237 186 157 70
-62.9675 30.9598 -1232 183 154 66
-60.2715 30.8321 -1227 182 152 63
-57.6428 30.7296 -1223 181 150 62
-55.0306 30.6272 -1219 181 149 65
-52.4348 30.5249 -1215 183 151 67
-49.8553 30.4226 -1211 180 150 65
-47.292 30.3205 -1207 182 151 68
-44.7079 30.1933 -1202 181 150 68
-42.0735 30.016 -1195 179 150 69
-39.5337 29.8891 -1190 179 150 69
-37.0141 29.7622 -1185 183 154 73
-34.7487 29.8364 -1188 188 156 77
-32.6079 30.0361 -1196 192 158 79
-30.5621 30.3615 -1209 150 124 87
-28.3251 30.5363 -1216 66 43 9
-26.0818 30.7363 -1224 36 23 2
-23.7104 30.8108 -1227 27 18 10
-21.2752 30.8101 -1227 29 21 18
-18.8402 30.8094 -1227 27 21 22
-16.392 30.7837 -1226 33 24 25
-13.9365 30.733 -1224 84 71 73
-11.4327 30.5317 -1216 153 131 128
-8.89388 30.1045 -1199 184 160 156
0.515691 24.982 -995 184 152 149
2.45972 24.6808 -983 182 149 146
4.39205 24.5804 -979 183 149 146
6.28266 24.3798 -971 176 143 139
8.18385 24.3047 -968 173 143 137
10.0419 24.1543 -962 168 138 133
11.8886 24.0292 -957 161 131 126
13.802 24.0547 -958 156 126 122
15.6212 23.9297 -953 150 120 116
17.4941 23.9051 -952 146 116 111
19.3225 23.8304 -949 145 113 110
21.2061 23.8311 -949 142 110 108
23.0413 23.7816 -947 138 108 105
24.974 23.8326 -949 138 108 104
26.745 23.7331 -945 139 110 105
30.5305 23.7601 -946 132 104 102
58.8174 30.6804 -1221 131 103 98
61.8477 30.984 -1233 133 106 98
64.6655 31.162 -1240 132 102 93
67.5657 31.3653 -1248 131 101 92
70.3301 31.4933 -1253 128 99 88
73.0567 31.5963 -1257 120 97 85
75.86 31.7245 -1262 120 99 87
78.8079 31.9031 -1269 118 97 84
82.6177 32.4087 -1289 117 96 84
86.3095 32.8389 -1306 115 94 83
-90.7668 31.3566 -1354 169 152 86
-85.8572 30.5665 -1320 177 154 74
-81.1469 29.7998 -1287 180 156 73
-77.5456 29.4037 -1270 183 158 84
-74.249 29.1003 -1257 185 160 81
-71.1759 28.8666 -1247 186 160 74
-68.3085 28.7024 -1240 185 158 67
-65.6288 28.6077 -1236 183 156 64
-62.9144 28.49 -1231 181 151 60
-60.2204 28.3724 -1226 180 150 60
-57.641 28.3011 -1223 180 150 61
-55.0289 28.2068 -1219 181 149 64
-52.4762 28.1357 -1216 181 150 65
-49.8948 28.0415 -1212 181 151 66
-47.3689 27.9706 -1209 183 152 69
-44.7808 27.8535 -1204 180 149 67
-42.1425 27.6902 -1197 178 149 68
-39.6321 27.5964 -1193 179 150 69
-37.0754 27.4565 -1187 185 157 76
-34.8938 27.5941 -1193 191 159 80
-32.6887 27.7319 -1199 187 153 75
-30.6622 28.0547 -1213 113 93 74
-28.4406 28.2388 -1221 47 29 11
-26.1449 28.3767 -1227 33 23 5
-23.7676 28.4453 -1230 22 18 19
-21.2919 28.3984 -1228 18 17 25
-18.8703 28.4209 -1229 24 21 24
-16.4182 28.3972 -1228 26 21 23
-13.9702 28.3736 -1227 54 44 44
-11.4793 28.2345 -1221 131 112 111
-8.99002 28.026 -1212 171 150 149
-6.45502 27.4708 -1188 185 157 157
2.51969 23.2853 -1007 173 141 138
4.4592 22.9848 -994 172 138 134
6.34069 22.6612 -980 166 134 130
8.26812 22.6152 -978 161 131 128
10.1877 22.5692 -976 157 127 124
12.0497 22.4308 -970 153 123 119
13.8448 22.2231 -961 150 120 118
15.6862 22.1311 -957 145 116 113
17.6405 22.201 -960 141 112 109
19.5458 22.2015 -960 141 110 109
21.4736 22.2253 -961 139 108 107
23.4785 22.3185 -965 136 106 104
25.2363 22.1805 -959 136 106 102
27.2253 22.2507 -962 137 107 103
55.8797 27.9995 -1210 126 102 99
58.9119 28.3021 -1223 126 102 97
61.7955 28.5123 -1232 125 100 93
64.7677 28.7457 -1242 127 97 88
67.6718 28.9329 -1250 129 100 90
70.3839 29.0277 -1254 126 102 87
73.0544 29.0993 -1257 115 95 77
75.8575 29.2175 -1262 107 88 70
78.8675 29.4051 -1270 97 83 62
82.3587 29.7549 -1285 99 84 66
86.3728 30.267 -1307 95 79 63
-90.2279 28.4968 -1346 169 154 70
-84.8791 27.6264 -1305 179 157 69
-80.388 26.989 -1275 182 159 71
-76.9328 26.6692 -1260 181 157 85
-73.7152 26.413 -1248 182 157 79
-70.8884 26.284 -1242 184 158 72
-68.1412 26.1762 -1237 185 156 65
-65.5206 26.1109 -1234 180 151 60
-62.9125 26.0456 -1231 178 148 57
-60.2677 25.9592 -1227 177 147 58
-57.6393 25.8729 -1223 177 147 59
-55.0724 25.8078 -1220 178 147 62
-52.5179 25.7428 -1217 180 149 64
-49.9345 25.6567 -1213 181 151 65
-47.3283 25.5496 -1208 182 151 67
-44.7795 25.4637 -1204 180 149 67
-42.2469 25.3779 -1200 181 151 69
-39.6309 25.2287 -1193 184 154 72
-37.1055 25.1218 -1188 187 157 77
-35.0098 25.3111 -1197 188 156 76
-32.9331 25.5428 -1208 179 147 66
-30.7624 25.7322 -1217 74 59 41
-28.533 25.9005 -1225 36 22 6
-26.1867 25.9843 -1229 27 18 6
-23.7669 26.0047 -1230 23 18 18
-21.3086 25.9829 -1229 21 18 21
-18.8851 26.0035 -1230 21 18 19
-16.4311 25.9818 -1229 24 18 20
-13.9812 25.9603 -1228 35 25 26
-11.526 25.9176 -1226 97 79 80
-9.07135 25.8539 -1223 155 136 137
-6.56893 25.5578 -1209 174 147 147
-4.07037 24.9446 -1180 179 151 149
4.58467 21.6046 -1022 162 130 125
6.49577 21.2242 -1004 158 127 122
10.2918 20.8442 -986 151 121 116
12.1736 20.7177 -980 147 117 113
14.1037 20.6969 -979 145 115 111
15.948 20.5705 -973 140 111 108
17.934 20.6344 -976 138 110 107
19.7692 20.5292 -971 138 107 107
21.7858 20.6144 -975 138 107 107
23.7941 20.6785 -978 134 105 104
25.8408 20.7637 -982 134 104 101
53.34 25.5321 -1207 126 98 95
56.2937 25.7875 -1219 126 100 95
59.1028 25.9585 -1227 127 102 94
61.9943 26.1506 -1236 126 102 91
64.8179 26.3005 -1243 124 100 84
67.724 26.4716 -1251 121 97 80
70.494 26.5794 -1256 112 90 71
73.1103 26.6238 -1258 98 80 58
75.9154 26.7317 -1263 96 79 56
79.1756 26.9879 -1275 88 76 51
82.0358 27.0961 -1280 89 77 54
85.9738 27.5431 -1301 85 73 53
-87.4101 25.0168 -1304 171 154 68
-83.4459 24.6118 -1283 180 159 71
-79.7552 24.2643 -1265 184 162 74
-76.6865 24.0897 -1256 181 157 85
-73.7132 23.9343 -1248 182 157 79
-70.9436 23.8366 -1243 183 157 71
-68.1944 23.7389 -1238 182 153 63
-65.625 23.6989 -1236 179 149 58
-62.9108 23.6013 -1231 179 149 59
-60.266 23.5231 -1227 178 148 59
-57.6377 23.4449 -1223 176 146 59
-55.0709 23.3859 -1220 176 146 60
-52.5596 23.3461 -1218 178 148 62
-49.9743 23.2681 -1214 180 150 63
-47.4836 23.2286 -1212 181 151 66
-44.8898 23.1315 -1207 183 153 70
-42.2809 23.0154 -1201 187 156 74
-39.6298 22.8611 -1193 188 157 75
-37.2607 22.8601 -1193 187 158 75
-35.1551 23.0316 -1202 188 157 75
-32.9594 23.1649 -1209 163 131 49
-30.8879 23.4131 -1222 46 35 21
-28.6021 23.5273 -1228 28 18 6
-26.2286 23.5841 -1231 24 15 8
-23.8049 23.6026 -1232 20 14 12
-21.3427 23.5829 -1231 24 19 18
-18.9 23.5824 -1231 20 16 17
-16.4307 23.5436 -1229 24 18 19
-13.9808 23.524 -1228 31 22 24
-11.5351 23.5046 -1227 59 44 46
-9.09335 23.4851 -1226 124 107 109
-6.62308 23.3508 -1219 160 136 137
-4.15995 23.1017 -1206 172 146 146
-1.73376 22.661 -1183 179 151 149
10.5629 19.3861 -1012 149 119 114
12.5086 19.2907 -1007 145 115 110
14.377 19.1186 -998 139 109 105
18.301 19.0811 -996 134 107 104
20.2573 19.0625 -995 135 105 105
22.165 19.0055 -992 135 105 106
45.2252 22.6722 -1183 131 103 99
48.179 22.9609 -1198 129 103 98
51.0239 23.173 -1209 128 102 97
53.692 23.2894 -1215 126 100 94
56.4307 23.425 -1222 123 97 88
59.1975 23.5607 -1229 120 96 84
62.0428 23.7157 -1237 117 95 80
64.9204 23.8707 -1245 113 92 71
67.8845 24.045 -1254 106 85 64
70.5482 24.1043 -1257 96 76 52
73.3407 24.202 -1262 84 68 42
75.9133 24.2231 -1263 90 75 48
78.863 24.3593 -1270 89 77 49
82.2257 24.6108 -1283 89 77 53
85.9053 24.9391 -1300 83 71 49
-92.4227 23.0303 -1339 165 153 114
-86.8047 22.2714 -1295 174 155 72
-82.8585 21.9083 -1274 181 160 73
-79.1859 21.5969 -1256 182 161 74
-76.3182 21.4919 -1250 180 156 81
-73.4751 21.3871 -1244 182 157 77
-70.6565 21.2822 -1238 183 157 71
-68.0275 21.2291 -1235 183 153 63
-65.5172 21.2104 -1234 180 150 59
-62.858 21.14 -1230 179 149 60
-60.1663 21.0527 -1225 179 149 60
-57.5892 20.9998 -1222 177 147 60
-55.0244 20.9469 -1219 174 144 58
-52.472 20.8941 -1216 176 146 59
-49.9319 20.8414 -1213 178 148 61
-47.4433 20.8059 -1211 179 149 63
-44.8143 20.7018 -1205 184 154 69
-42.3151 20.6493 -1202 186 155 73
-39.5957 20.4765 -1192 185 154 72
-37.4159 20.5787 -1198 184 156 71
-35.125 20.6294 -1201 186 156 73
-33.1222 20.8691 -1215 132 101 19
-30.9377 21.0229 -1224 29 22 15
-28.6479 21.1253 -1230 23 15 9
-26.2706 21.1762 -1233 21 13 10
-23.8236 21.1756 -1233 20 13 9
-21.3595 21.1579 -1232 24 17 12
-18.9149 21.1574 -1232 22 16 17
-16.457 21.1399 -1231 25 19 20
-14.0033 21.1223 -1230 29 20 22
-11.5536 21.1049 -1229 37 25 28
-9.10797 21.0875 -1228 74 61 63
-6.66096 21.0529 -1226 133 111 115
-4.20813 20.9498 -1220 163 139 141
-1.77329 20.778 -1210 167 141 141
0.619791 20.5376 -1196 170 139 137
2.92981 20.1083 -1171 161 130 128
40.4558 20.2881 -1181 128 100 100
43.309 20.5295 -1195 127 99 97
46.0269 20.6852 -1204 126 99 95
48.7006 20.8066 -1211 125 100 94
51.3603 20.9108 -1217 124 99 92
53.9558 20.9808 -1221 122 97 89
56.66 21.0851 -1227 116 93 78
59.2924 21.1552 -1231 103 82 64
62.0915 21.277 -1238 95 76 56
64.971 21.416 -1246 93 76 49
67.937 21.5722 -1255 95 78 51
70.6026 21.6253 -1258 92 76 47
73.3389 21.6958 -1262 86 72 43
76.0918 21.7663 -1266 88 74 45
78.9232 21.854 -1271 84 73 43
82.2878 22.0794 -1284 86 74 47
85.9693 22.3737 -1301 83 71 47
90.2637 22.8057 -1326 54 44 26
-89.4527 19.7158 -1296 169 156 121
-85.5963 19.425 -1277 178 157 79
-82.2714 19.2408 -1265 179 159 74
-79.1211 19.087 -1255 181 161 75
-76.2556 18.9942 -1249 180 154 76
-73.4735 18.9167 -1244 181 155 74
-70.7691 18.8544 -1240 183 156 71
-68.0811 18.7921 -1236 185 155 66
-65.4627 18.7452 -1233 181 151 61
-62.8056 18.683 -1229 177 147 58
-60.1159 18.6057 -1224 178 148 60
-57.5879 18.5741 -1222 177 147 60
-54.9781 18.5122 -1218 176 145 57
-52.4709 18.4807 -1216 176 145 57
-50.0131 18.4644 -1215 177 146 58
-47.4815 18.4178 -1212 178 148 61
-44.8877 18.3409 -1207 183 153 68
-42.3494 18.2792 -1203 182 151 69
-39.6944 18.1569 -1195 180 150 67
-37.4464 18.2168 -1199 181 153 68
-35.2119 18.2921 -1204 171 144 62
-33.2033 18.5041 -1218 97 69 9
-30.9876 18.6249 -1226 22 14 13
-28.7172 18.7307 -1233 22 15 13
-26.3127 18.7605 -1235 21 14 13
-23.8618 18.76 -1235 23 15 11
-21.3937 18.7443 -1234 23 15 9
-18.9298 18.7287 -1233 22 14 17
-16.4567 18.698 -1231 24 16 18
-14.003 18.6825 -1230 25 17 18
-11.5533 18.667 -1229 29 18 21
-9.10777 18.6516 -1228 33 21 24
-6.66624 18.6363 -1227 78 61 65
-4.22874 18.621 -1226 127 108 110
-1.79084 18.5602 -1222 142 120 119
0.630658 18.4842 -1217 157 130 127
3.01731 18.3172 -1206 151 124 120
5.34241 18.0895 -1191 151 121 114
33.0235 17.7296 -1167 131 101 98
38.529 18.1413 -1194 128 99 99
41.0715 18.2181 -1199 128 100 100
43.7067 18.3253 -1206 127 99 98
46.37 18.4326 -1213 126 100 97
48.9408 18.4944 -1217 125 102 96
51.4857 18.541 -1220 121 99 87
54.1314 18.6181 -1225 115 93 79
56.6588 18.6496 -1227 101 83 63
59.3393 18.7268 -1232 90 74 51
62.1403 18.8344 -1239 85 71 45
64.9696 18.9422 -1246 89 75 46
67.9355 19.0804 -1255 94 79 50
70.6011 19.1274 -1258 92 77 46
73.4535 19.2201 -1264 88 74 45
76.2103 19.2825 -1268 88 74 45
79.1077 19.3753 -1274 85 74 43
82.0297 19.4682 -1280 86 74 46
86.1657 19.835 -1304 83 71 46
90.8063 20.2931 -1334 51 42 24
-93.81 17.4735 -1321 175 166 161
-88.6227 16.9825 -1284 174 159 124
-85.1254 16.7958 -1270 178 157 86
-81.9447 16.6621 -1260 176 156 74
-78.8674 16.5416 -1251 181 161 77
-76.0098 16.4609 -1245 182 155 73
-73.2359 16.3935 -1240 182 154 72
-70.5394 16.3394 -1236 182 154 71
-67.9146 16.2984 -1233 182 152 64
-65.2491 16.2444 -1229 178 148 59
-62.6511 16.2036 -1226 179 149 60
-60.0656 16.1628 -1223 181 150 62
-57.5397 16.1354 -1221 176 146 59
-55.0222 16.1079 -1219 175 144 56
-52.5562 16.0938 -1218 173 142 54
-50.0533 16.0664 -1216 173 142 53
-47.5589 16.0391 -1214 175 144 58
-44.9612 15.9723 -1209 181 151 66
-42.419 15.9186 -1205 180 149 67
-39.7269 15.799 -1196 178 148 65
-37.4456 15.838 -1199 180 153 68
-35.2697 15.9298 -1206 154 129 51
-33.2026 16.0877 -1218 79 54 6
-30.987 16.1928 -1226 23 15 17
-28.7399 16.2979 -1234 21 13 15
-26.3335 16.3238 -1236 18 12 13
-23.9 16.3366 -1237 21 12 8
-21.4453 16.3362 -1237 25 15 10
-18.9448 16.2962 -1234 23 15 19
-16.4697 16.2695 -1232 23 15 17
-14.0141 16.256 -1231 25 17 17
-11.5719 16.2558 -1231 28 18 20
-9.12243 16.2424 -1230 28 18 20
-6.68242 16.2423 -1230 35 23 26
-4.23901 16.229 -1229 79 65 65
-1.7996 16.2157 -1228 117 100 98
0.634273 16.1629 -1224 139 116 113
3.04728 16.0837 -1218 140 116 112
5.42753 15.9781 -1210 144 116 111
7.76962 15.8594 -1201 143 114 109
10.0253 15.6615 -1186 144 114 110
12.1799 15.4108 -1167 144 115 111
14.4703 15.3846 -1165 140 111 107
16.7241 15.332 -1161 136 107 103
18.9621 15.2795 -1157 133 106 102
21.4417 15.412 -1167 130 104 100
23.6761 15.3595 -1163 133 104 104
26.2075 15.492 -1173 132 104 103
28.7789 15.6246 -1183 130 102 101
31.3113 15.7176 -1190 129 100 97
33.8435 15.7974 -1196 127 98 95
36.3694 15.8641 -1201 128 99 98
38.8833 15.9176 -1205 127 99 98
41.3105 15.9315 -1206 125 98 98
43.9233 16.0115 -1212 125 98 97
46.522 16.0784 -1217 123 98 95
49.0605 16.1189 -1220 119 98 90
51.6536 16.1726 -1224 109 90 74
54.2629 16.2264 -1228 98 79 61
56.7501 16.2406 -1229 83 70 44
59.3863 16.2945 -1233 81 69 41
62.0889 16.3617 -1238 82 71 41
64.9162 16.4553 -1245 87 73 44
67.7718 16.549 -1252 91 77 48
70.5998 16.6296 -1258 91 77 46
73.394 16.697 -1263 91 77 49
76.0887 16.738 -1266 90 76 49
79.1683 16.8584 -1275 89 78 48
82.6689 17.0582 -1290 90 78 51
86.5605 17.3241 -1310 87 75 50
-91.678 14.5119 -1291 179 167 149
-87.724 14.2857 -1271 178 161 120
-84.5877 14.1832 -1262 182 159 91
-81.6832 14.1145 -1256 179 158 80
-78.7401 14.0347 -1249 177 156 76
-75.9475 13.9773 -1244 182 155 72
-73.2347 13.9313 -1240 183 155 73
-70.5383 13.8852 -1236 182 154 71
-67.8584 13.8393 -1232 180 150 63
-65.2481 13.8046 -1229 179 149 61
-62.6502 13.7699 -1226 180 150 63
-60.0647 13.7353 -1223 179 148 61
-57.5388 13.7119 -1221 174 143 56
-55.0664 13.6999 -1220 173 141 54
-52.5985 13.6878 -1219 171 139 53
-50.0937 13.6646 -1217 171 139 52
-47.5973 13.6414 -1215 173 142 57
-45.0721 13.607 -1212 179 148 65
-42.4887 13.5502 -1207 181 150 68
-39.8259 13.4598 -1199 176 145 64
-37.445 13.4592 -1199 180 149 69
-35.2107 13.5148 -1204 141 117 42
-33.1476 13.649 -1216 62 41 4
-30.9865 13.7607 -1226 21 14 14
-28.7395 13.8501 -1234 19 11 13
-26.333 13.8721 -1236 19 11 15
-23.9189 13.8942 -1238 21 11 8
-21.4623 13.8938 -1238 24 13 8
-18.9599 13.8598 -1235 22 14 18
-16.4694 13.8259 -1232 22 14 17
-14.0138 13.8145 -1231 25 17 17
-11.5623 13.803 -1230 28 19 21
-9.11487 13.7917 -1229 26 18 20
-6.67688 13.7915 -1229 24 18 15
-4.23894 13.7915 -1229 38 29 26
-1.79957 13.7802 -1228 70 58 54
0.635816 13.769 -1227 108 90 88
3.05223 13.6904 -1220 123 104 103
5.44538 13.6232 -1214 131 108 107
7.75655 13.455 -1199 135 108 106
10.0421 13.3316 -1188 139 109 106
12.2945 13.2196 -1178 138 110 107
14.5818 13.1749 -1174 138 110 107
16.9255 13.1864 -1175 135 108 104
19.2404 13.1754 -1174 130 104 101
21.6802 13.2431 -1180 130 105 101
24.1032 13.2883 -1184 130 102 102
26.5646 13.3448 -1189 129 101 100
29.0947 13.4238 -1196 127 99 98
31.6266 13.4916 -1202 125 97 94
34.041 13.5033 -1203 125 97 94
36.5505 13.5488 -1207 128 100 99
39.0117 13.5718 -1209 127 101 99
41.4811 13.5948 -1211 122 97 96
44.0313 13.6404 -1215 118 94 89
46.5977 13.686 -1219 114 91 83
49.1803 13.7316 -1223 104 84 72
51.6949 13.7548 -1225 92 74 55
54.262 13.7893 -1228 86 69 48
56.8415 13.8239 -1231 78 67 40
59.4335 13.8584 -1234 79 69 41
62.0879 13.9043 -1238 80 71 42
64.9151 13.9838 -1245 85 72 44
67.6625 14.041 -1250 90 77 49
70.4864 14.1095 -1256 91 79 48
73.3928 14.1892 -1263 91 77 50
76.2677 14.2577 -1269 88 74 48
79.4154 14.3712 -1279 87 76 47
82.8598 14.5298 -1293 88 76 50
87.3518 14.857 -1322 87 75 51
-95.0541 12.0503 -1302 178 173 165
-90.7536 11.8269 -1278 181 166 133
-87.3777 11.7147 -1266 179 159 112
-84.3855 11.6489 -1259 182 158 93
-81.4219 11.5831 -1252 181 159 85
-78.5499 11.5266 -1246 180 159 82
-75.7633 11.4794 -1241 183 156 73
-73.1156 11.4507 -1238 182 155 72
-70.4802 11.4221 -1235 181 153 70
-67.7473 11.375 -1230 180 150 64
-65.1941 11.3556 -1228 177 147 60
-62.5981 11.3271 -1225 175 145 59
-60.0147 11.2986 -1222 174 143 57
-57.538 11.2886 -1221 170 138 53
-55.0205 11.2694 -1219 171 139 55
-52.5114 11.2503 -1217 169 137 54
-50.0518 11.2404 -1216 169 137 53
-47.6358 11.2398 -1216 171 140 57
-45.0715 11.2022 -1212 177 145 64
-42.5937 11.1832 -1210 179 147 67
-39.8918 11.0995 -1201 174 141 61
-37.4757 11.0898 -1200 177 140 59
-35.1225 11.0986 -1201 133 107 38
-33.0381 11.1998 -1212 57 37 4
-30.885 11.2918 -1222 22 16 17
-28.6692 11.3746 -1231 19 13 15
-26.2901 11.402 -1234 21 12 18
-23.8992 11.4294 -1237 22 12 10
-21.462 11.4384 -1238 23 12 7
-18.9749 11.4196 -1236 21 13 16
-16.496 11.4009 -1234 22 14 16
-14.025 11.3823 -1232 25 17 17
-11.5622 11.3636 -1230 27 19 21
-9.09991 11.3358 -1227 25 17 19
-6.66592 11.3357 -1227 23 19 16
-4.22508 11.3171 -1225 29 22 19
-1.78929 11.2801 -1221 35 25 22
0.631661 11.2617 -1219 49 36 35
3.03468 11.2063 -1213 69 55 55
5.40942 11.1416 -1206 98 77 76
7.73704 11.0493 -1196 118 94 91
10.025 10.9571 -1186 123 98 94
12.3569 10.9387 -1184 128 103 98
14.6686 10.9112 -1181 127 102 97
17.0405 10.9299 -1183 127 103 99
19.404 10.9393 -1184 125 101 97
21.882 11.0043 -1191 126 101 97
24.286 11.023 -1193 126 100 97
26.7876 11.0788 -1199 125 99 95
29.2159 11.0976 -1201 122 97 92
31.7577 11.1534 -1207 122 97 90
34.1537 11.1538 -1207 123 98 92
36.6409 11.182 -1210 124 99 95
39.0757 11.1917 -1211 124 101 95
41.5833 11.2199 -1214 115 93 87
44.0307 11.2297 -1215 103 82 70
46.6735 11.2857 -1221 98 77 64
49.2199 11.3141 -1224 91 73 56
51.7364 11.3332 -1226 85 69 47
54.3055 11.3616 -1229 82 66 44
56.9331 11.3993 -1233 77 66 39
59.4808 11.4185 -1235 79 69 42
62.1372 11.4562 -1239 81 72 44
64.8621 11.5032 -1244 84 72 46
67.6615 11.5595 -1250 86 75 47
70.4854 11.6159 -1256 87 77 47
73.2756 11.663 -1261 89 76 50
76.2667 11.738 -1269 89 75 50
79.4143 11.8314 -1279 88 76 49
83.4354 12.0452 -1302 88 76 52
-98.3251 9.52983 -1311 176 169 158
-93.739 9.33263 -1284 172 163 144
-90.1845 9.22998 -1270 180 161 111
-86.9626 9.15644 -1260 181 160 101
-84.0495 9.11201 -1254 182 158 90
-81.2258 9.07487 -1249 180 159 84
-78.4229 9.03776 -1244 179 158 82
-75.7015 9.00795 -1240 181 154 71
-73.0557 8.98543 -1237 179 151 68
-70.4224 8.96294 -1234 178 148 66
-67.8016 8.94047 -1231 177 147 60
-65.1933 8.91804 -1228 174 144 57
-62.6486 8.90289 -1226 172 142 57
-60.1123 8.88777 -1224 172 141 56
-57.5844 8.87267 -1222 169 137 53
-55.065 8.85759 -1220 168 136 54
-52.554 8.84255 -1218 167 135 53
-50.0513 8.82753 -1216 168 136 55
-47.6353 8.82705 -1216 170 138 58
-45.1453 8.81208 -1214 173 141 62
-42.6284 8.78987 -1211 174 142 63
-39.9578 8.7314 -1203 168 135 55
-37.4441 8.70199 -1199 168 128 44
-35.0051 8.68712 -1197 128 101 36
-32.7651 8.72308 -1202 56 36 5
-30.7077 8.81711 -1215 22 18 21
-28.5059 8.88213 -1224 19 13 16
-26.2259 8.93266 -1231 22 11 16
-23.8603 8.96144 -1235 23 12 10
-21.4444 8.97573 -1237 23 12 8
-18.944 8.95376 -1234 19 11 13
-16.469 8.93908 -1232 19 11 13
-13.9793 8.90991 -1228 23 15 15
-11.4962 8.87351 -1223 24 18 19
-9.04789 8.85164 -1220 23 17 18
-6.61152 8.8298 -1217 26 19 23
-4.19055 8.81523 -1215 29 21 24
-1.77608 8.79344 -1212 31 23 23
0.62699 8.77892 -1210 34 24 24
3.01212 8.73541 -1204 35 24 22
5.36451 8.67741 -1196 46 28 23
7.6852 8.61943 -1188 58 38 30
10.0249 8.605 -1186 76 54 45
12.3777 8.60511 -1186 91 69 58
14.7305 8.60525 -1186 100 78 68
17.1123 8.61992 -1188 110 90 80
19.5185 8.64186 -1191 116 94 86
21.9552 8.67109 -1195 117 94 87
24.4079 8.70034 -1199 120 96 88
26.899 8.73688 -1204 121 97 89
29.3373 8.75167 -1206 119 97 87
31.81 8.77374 -1209 118 96 84
34.2099 8.77406 -1209 115 92 81
36.6707 8.78892 -1211 109 88 80
39.1075 8.79655 -1212 102 84 73
41.5828 8.81147 -1214 92 76 63
44.0664 8.8264 -1216 88 70 49
46.7112 8.8704 -1222 88 71 50
49.2193 8.88539 -1224 90 74 50
51.778 8.90766 -1227 87 71 48
54.349 8.92996 -1230 82 66 44
56.8862 8.94503 -1232 78 65 38
59.48 8.96738 -1235 80 67 41
62.2368 9.01154 -1241 82 70 45
64.8614 9.03395 -1244 84 72 47
67.6066 9.07091 -1249 84 73 46
70.3724 9.1079 -1254 83 75 44
73.2167 9.15218 -1260 88 77 51
76.2658 9.21829 -1269 89 76 51
79.5997 9.31349 -1282 88 76 49
83.4345 9.45959 -1302 87 75 52
-102.249 7.01562 -1328 175 172 177
-96.8242 6.81945 -1291 178 167 144
-93.0812 6.73426 -1275 173 160 128
-89.8287 6.6808 -1265 184 161 96
-86.8929 6.64848 -1259 183 160 92
-83.9147 6.61091 -1252 179 156 84
-81.0951 6.58392 -1247 178 157 82
-78.2962 6.55696 -1242 179 157 83
-75.6398 6.54057 -1239 179 151 71
-72.996 6.52421 -1236 176 147 66
-70.3076 6.50258 -1232 175 144 62
-67.746 6.49153 -1230 174 144 58
-65.1397 6.47523 -1227 174 144 58
-62.648 6.4695 -1226 171 141 56
-60.0627 6.45323 -1223 169 138 54
-57.584 6.44753 -1222 168 136 53
-55.0646 6.43658 -1220 166 134 55
-52.5536 6.42564 -1218 163 131 52
-50.0097 6.40945 -1215 164 131 53
-47.5957 6.4091 -1215 163 131 54
-45.1449 6.4035 -1214 164 131 56
-42.6281 6.38736 -1211 166 133 58
-40.0239 6.35542 -1205 166 132 56
-37.475 6.32878 -1200 170 133 51
-35.0048 6.31269 -1197 135 107 48
-32.6831 6.323 -1199 66 43 7
-30.4295 6.34914 -1204 25 16 21
-28.3193 6.41221 -1216 19 10 13
-26.0552 6.44893 -1223 20 10 10
-23.7056 6.46984 -1227 21 11 10
-21.3402 6.49078 -1231 23 13 11
-18.8671 6.48009 -1229 20 12 14
-16.3887 6.46415 -1226 20 12 14
-13.8995 6.43767 -1221 24 16 17
-11.4397 6.41649 -1217 26 18 17
-8.95882 6.36897 -1208 29 21 20
-6.5517 6.35837 -1206 32 22 24
-4.15257 6.34779 -1204 32 21 20
-1.75995 6.33195 -1201 33 23 19
0.621803 6.32667 -1200 37 26 20
2.98958 6.30033 -1195 46 34 27
5.34652 6.28454 -1192 58 42 27
7.70454 6.27931 -1191 60 42 24
10.0502 6.26883 -1189 66 47 27
12.4089 6.26891 -1189 72 54 33
14.7677 6.26901 -1189 82 64 43
17.1698 6.28494 -1192 90 73 52
19.6003 6.30617 -1196 94 75 57
22.0836 6.33795 -1202 99 80 63
24.4891 6.34339 -1203 103 82 67
26.9658 6.36467 -1207 103 82 67
29.41 6.37542 -1209 99 80 63
31.8623 6.38618 -1211 95 76 56
34.2662 6.38642 -1211 91 72 53
36.731 6.39722 -1213 86 68 53
39.204 6.40804 -1215 83 67 50
41.6852 6.41888 -1217 82 67 48
44.1385 6.42446 -1218 85 68 43
46.6726 6.44061 -1221 86 70 44
49.2189 6.45677 -1224 85 71 43
51.7776 6.47296 -1227 83 69 45
54.3928 6.49444 -1231 80 65 41
56.9781 6.51067 -1234 80 66 38
59.624 6.53219 -1238 81 68 40
62.2864 6.55373 -1242 81 69 42
64.9651 6.57529 -1246 84 74 47
67.5519 6.58632 -1248 84 75 47
70.3157 6.6132 -1253 83 76 45
73.1579 6.64538 -1259 86 77 49
76.3253 6.70398 -1270 87 76 49
79.6611 6.77316 -1283 87 76 48
-99.7074 4.26814 -1295 176 170 165
-95.6987 4.20508 -1276 182 167 128
-92.4965 4.175 -1267 180 162 112
-89.4731 4.15153 -1260 186 160 86
-86.6163 4.13466 -1255 182 158 81
-83.8472 4.12111 -1251 174 153 73
-81.0296 4.10427 -1246 175 151 78
-78.3587 4.09403 -1243 176 152 80
-75.6393 4.08051 -1239 176 147 70
-73.1137 4.07688 -1238 174 144 65
-70.4214 4.06339 -1234 172 141 59
-67.8557 4.0565 -1232 169 139 54
-65.2454 4.04632 -1229 171 141 56
-62.7498 4.04274 -1228 171 141 56
-60.1114 4.0293 -1224 168 137 53
-57.5836 4.02245 -1222 166 134 51
-55.0642 4.01562 -1220 165 132 55
-52.51 4.0055 -1217 163 129 53
-49.9682 3.9954 -1214 161 128 52
-47.5563 3.99518 -1214 158 125 50
-45.0703 3.98839 -1212 157 125 51
-42.5926 3.98161 -1210 162 129 56
-40.0901 3.97156 -1207 165 132 58
-37.5372 3.95493 -1202 166 132 58
-35.0046 3.93832 -1197 145 115 63
-32.5466 3.9283 -1194 89 63 23
-30.2524 3.93803 -1197 38 25 25
-27.9931 3.95434 -1202 24 12 12
-25.7994 3.98383 -1211 22 12 10
-23.4736 3.99688 -1215 20 12 12
-21.1668 4.01652 -1221 21 14 15
-18.7135 4.00985 -1219 21 13 15
-16.2817 4.00648 -1218 22 14 16
-13.7629 3.97681 -1209 23 15 17
-11.3175 3.96031 -1204 28 20 18
-8.87719 3.93724 -1197 44 36 32
-6.49191 3.93062 -1195 53 39 31
-4.12151 3.9306 -1195 41 28 18
-1.75407 3.93717 -1197 52 39 28
0.619726 3.93387 -1196 74 63 50
2.98456 3.92402 -1193 102 90 76
5.35546 3.92732 -1194 110 93 74
7.71743 3.92406 -1193 93 75 53
10.084 3.9241 -1193 83 66 41
12.4714 3.93073 -1195 79 64 38
14.8669 3.93737 -1197 84 69 43
17.2705 3.94403 -1199 83 69 43
19.7149 3.95727 -1203 82 66 42
22.157 3.96723 -1206 87 71 47
24.5908 3.97391 -1208 89 71 52
27.0104 3.97732 -1209 86 68 47
29.4585 3.98403 -1211 80 63 40
31.8884 3.98745 -1212 78 61 34
34.2943 3.9876 -1212 78 61 35
36.7308 3.99105 -1213 77 61 41
39.2037 3.9978 -1215 77 62 38
41.685 4.00456 -1217 80 66 41
44.1745 4.01134 -1219 86 71 42
46.7105 4.02141 -1222 86 71 42
49.2588 4.0315 -1225 84 70 42
51.8195 4.0416 -1228 83 70 43
54.3925 4.05172 -1231 82 69 43
57.0701 4.06842 -1236 83 68 39
59.7201 4.08185 -1240 81 69 39
62.2861 4.08871 -1242 82 71 40
64.9647 4.10216 -1246 84 75 47
67.6598 4.11563 -1250 88 79 50
70.3714 4.12911 -1254 88 81 50
73.2156 4.14919 -1260 86 77 47
76.3247 4.18245 -1270 84 75 45
79.9711 4.24209 -1288 84 74 43
-103.397 1.71354 -1309 176 170 162
-98.9371 1.68194 -1285 175 166 151
-95.3234 1.66344 -1271 180 163 111
-92.2042 1.6528 -1263 180 160 99
-89.3307 1.64609 -1258 186 158 79
-86.409 1.63808 -1252 180 156 74
-83.7129 1.634 -1249 174 155 69
-80.9643 1.62862 -1245 174 151 75
-78.2955 1.62455 -1242 173 149 75
-75.7001 1.62179 -1240 177 147 71
-73.1135 1.61904 -1238 174 144 65
-70.3641 1.61237 -1233 171 140 58
-67.8004 1.60963 -1231 168 138 54
-65.1921 1.60558 -1228 170 140 55
-62.6475 1.60285 -1226 170 139 56
-60.0621 1.59882 -1223 166 135 51
-57.5835 1.5974 -1222 163 131 47
-55.0189 1.59338 -1219 160 126 49
-52.4668 1.58936 -1216 159 125 49
-49.9681 1.58665 -1214 158 123 47
-47.5169 1.58526 -1213 154 120 46
-45.0702 1.58386 -1212 152 119 47
-42.6277 1.58248 -1211 155 122 51
-40.1564 1.57979 -1209 154 122 53
-37.5996 1.57318 -1204 146 115 56
-35.0922 1.56789 -1200 144 113 67
-32.601 1.5626 -1196 110 79 40
-30.2017 1.56124 -1195 57 40 29
-27.83 1.56119 -1195 35 20 12
-25.5437 1.56636 -1199 24 15 15
-23.2417 1.57155 -1203 19 14 17
-20.9067 1.57542 -1206 19 14 19
-18.5139 1.57539 -1206 20 13 17
-16.0811 1.57144 -1203 25 17 21
-13.6376 1.56488 -1198 30 22 24
-11.2234 1.55963 -1194 45 36 32
-8.84008 1.557 -1192 75 65 60
-6.47559 1.55699 -1192 80 62 40
-4.11805 1.55959 -1194 78 61 40
-1.7526 1.5622 -1196 114 98 77
0.619724 1.5622 -1196 118 106 87
2.99706 1.56481 -1198 103 90 71
5.37787 1.56613 -1199 96 78 56
7.76269 1.56744 -1200 86 70 45
10.16 1.57007 -1202 78 63 36
12.5444 1.57009 -1202 75 61 32
14.9538 1.57273 -1204 79 66 37
17.3425 1.57276 -1204 80 69 39
19.764 1.57541 -1206 79 66 38
22.1753 1.57675 -1207 78 63 37
24.6111 1.57941 -1209 80 64 42
27.0326 1.58076 -1210 78 62 37
29.4584 1.58212 -1211 74 59 29
31.9146 1.58479 -1213 73 58 25
34.3508 1.58616 -1214 76 60 28
36.7609 1.58622 -1214 77 62 36
39.2359 1.5889 -1216 77 62 33
41.6849 1.59028 -1217 81 66 35
44.1381 1.59167 -1218 85 70 41
46.6722 1.59567 -1221 85 71 42
49.1783 1.59838 -1223 82 70 43
51.7771 1.6037 -1227 80 70 39
54.3923 1.60902 -1231 80 70 39
57.07 1.61566 -1236 83 69 36
59.7198 1.62099 -1240 81 70 36
62.2857 1.62372 -1242 81 72 38
64.9124 1.62776 -1245 82 73 42
67.5514 1.6318 -1248 85 75 45
70.4834 1.64239 -1256 89 78 48
73.1573 1.64644 -1259 87 77 46
76.565 1.6662 -1274 88 78 47
