ply
format ascii 1.0
comment Created by Open3D
element vertex 1397
property double x
property double y
property double z
property uchar red
property uchar green
property uchar blue
end_header
-181.215 -182.776 -1332 112 85 33
-178.507 -182.742 -1332 109 82 31
-175.801 -182.709 -1332 108 81 29
-172.836 -182.403 -1330 108 81 27
-170.136 -182.371 -1330 108 81 27
-167.312 -182.202 -1329 107 80 26
-164.618 -182.171 -1329 108 81 36
-161.924 -182.141 -1329 106 82 36
-159.472 -182.385 -1331 104 82 34
-156.777 -182.356 -1331 101 79 32
-154.199 -182.464 -1332 101 79 32
-151.619 -182.572 -1333 104 81 31
-148.7 -182.271 -1331 103 80 30
-146.23 -182.517 -1333 102 79 29
-143.645 -182.627 -1334 107 81 33
-141.058 -182.738 -1335 111 85 38
-138.156 -182.438 -1333 112 86 39
-135.568 -182.55 -1334 111 85 40
-132.779 -182.388 -1333 113 87 44
-129.994 -182.227 -1332 111 88 44
-127.215 -182.066 -1331 112 88 45
-124.628 -182.18 -1332 117 94 52
-122.038 -182.294 -1333 123 101 56
-119.355 -182.271 -1333 122 101 55
-116.761 -182.386 -1334 123 101 59
-114.249 -182.638 -1336 122 102 57
-111.646 -182.754 -1337 124 106 57
-108.959 -182.734 -1337 127 110 48
-106.353 -182.85 -1338 130 112 49
-103.665 -182.831 -1338 142 117 53
-100.903 -182.676 -1337 154 127 52
-98.2197 -182.657 -1337 164 136 53
-95.4654 -182.503 -1336 168 137 47
-92.7854 -182.485 -1336 161 130 43
-90.1061 -182.468 -1336 157 124 43
-87.493 -182.589 -1337 155 122 50
-84.6863 -182.3 -1335 151 119 49
-82.1339 -182.557 -1337 142 114 50
-79.5743 -182.815 -1339 132 107 51
-77.1222 -183.347 -1343 114 92 52
-74.7655 -184.152 -1349 102 81 47
-72.4922 -185.231 -1357 96 75 43
-70.2903 -186.582 -1367 92 73 46
-67.9501 -187.662 -1375 89 70 43
-65.5785 -188.741 -1383 85 67 38
-63.1754 -189.821 -1391 79 66 42
-60.7408 -190.901 -1399 79 66 41
-58.316 -192.118 -1408 79 65 40
-55.9741 -193.745 -1420 85 71 46
-53.4724 -194.963 -1429 92 78 53
-51.3247 -197.682 -1449 96 83 65
-324.123 -192.47 -1365 147 122 44
-319.124 -191.139 -1356 147 119 38
-315.098 -190.373 -1351 151 117 33
-311.79 -190.03 -1349 143 115 38
-308.722 -189.829 -1348 142 114 37
-305.661 -189.629 -1347 145 114 35
-302.382 -189.289 -1345 145 114 34
-299.336 -189.09 -1344 147 116 35
-296.739 -189.173 -1345 151 120 38
-293.703 -188.975 -1344 150 119 39
-291.107 -189.059 -1345 149 118 42
-288.08 -188.863 -1344 152 121 42
-285.06 -188.667 -1343 149 118 40
-281.836 -188.332 -1341 149 118 43
-279.039 -188.278 -1341 148 117 41
-275.627 -187.803 -1338 143 112 35
-272.637 -187.61 -1337 141 110 35
-269.452 -187.278 -1335 142 111 36
-266.477 -187.086 -1334 137 106 31
-263.509 -186.895 -1333 138 107 31
-260.547 -186.704 -1332 143 112 35
-257.785 -186.655 -1332 141 110 33
-255.025 -186.606 -1332 137 105 32
-252.268 -186.557 -1332 133 101 31
-249.138 -186.229 -1330 132 100 33
-246.203 -186.042 -1329 132 100 33
-243.275 -185.855 -1328 133 101 34
-240.172 -185.529 -1326 136 104 40
-237.079 -185.204 -1324 136 104 41
-233.996 -184.879 -1322 140 108 45
-231.274 -184.834 -1322 142 110 46
-228.726 -184.93 -1323 141 109 46
-226.006 -184.887 -1323 143 110 50
-223.455 -184.984 -1324 144 111 51
-221.07 -185.221 -1326 140 110 47
-218.184 -185.04 -1325 136 106 43
-215.141 -184.719 -1323 136 106 43
-212.591 -184.818 -1324 136 106 43
-210.037 -184.918 -1325 130 100 37
-207.325 -184.878 -1325 126 96 32
-204.77 -184.978 -1326 126 96 33
-202.364 -185.218 -1328 125 95 32
-199.5 -185.041 -1327 129 99 41
-196.939 -185.143 -1328 130 99 43
-194.522 -185.385 -1330 129 98 43
-191.954 -185.487 -1331 127 97 35
-189.242 -185.451 -1331 124 95 32
-186.811 -185.694 -1333 123 95 31
-183.959 -185.52 -1332 122 94 35
-181.113 -185.346 -1331 116 89 34
-178.407 -185.312 -1331 110 83 28
-175.966 -185.557 -1333 108 81 26
-173.128 -185.385 -1332 108 81 26
-170.552 -185.491 -1333 107 80 25
-167.847 -185.459 -1333 106 79 25
-165.268 -185.567 -1334 106 80 29
-162.442 -185.397 -1333 106 81 30
-159.861 -185.506 -1334 105 83 30
-157.16 -185.476 -1334 103 80 30
-154.46 -185.446 -1334 103 80 30
-151.761 -185.418 -1334 104 81 28
-148.952 -185.25 -1333 103 79 29
-146.477 -185.501 -1335 104 81 32
-143.888 -185.612 -1336 109 85 37
-141.19 -185.585 -1336 110 86 38
-138.493 -185.559 -1336 111 85 38
-135.695 -185.394 -1335 112 87 40
-132.903 -185.23 -1334 113 89 42
-130.214 -185.205 -1334 110 89 44
-127.43 -185.042 -1333 110 89 44
-124.838 -185.157 -1334 114 93 48
-122.243 -185.273 -1335 118 97 49
-119.467 -185.112 -1334 118 97 49
-116.782 -185.089 -1334 121 99 53
-114.184 -185.207 -1335 121 100 53
-111.584 -185.324 -1336 123 104 55
-108.898 -185.303 -1336 128 110 46
-106.213 -185.283 -1336 136 117 51
-103.607 -185.402 -1337 149 125 56
-100.922 -185.383 -1337 157 130 52
-98.238 -185.364 -1337 162 134 49
-95.4832 -185.207 -1336 166 134 48
-92.8721 -185.328 -1337 162 130 44
-90.1903 -185.311 -1337 157 127 41
-87.5092 -185.295 -1337 156 125 48
-84.7654 -185.14 -1336 150 118 46
-82.2107 -185.402 -1338 133 107 45
-79.6486 -185.664 -1340 122 97 45
-77.1939 -186.203 -1344 106 84 47
-74.8902 -187.159 -1351 97 76 43
-72.6125 -188.253 -1359 94 73 42
-70.3034 -189.348 -1367 90 71 43
-68.0122 -190.581 -1376 89 70 41
-65.6381 -191.677 -1384 87 68 38
-63.2325 -192.773 -1392 78 64 41
-60.8389 -194.008 -1401 77 64 40
-58.4097 -195.243 -1410 76 63 38
-55.8268 -196.063 -1416 80 66 41
-53.3326 -197.299 -1425 87 73 48
-51.1217 -199.781 -1443 92 80 60
-328.461 -197.859 -1383 152 127 54
-320.599 -194.791 -1362 152 124 48
-315.86 -193.585 -1354 156 124 41
-312.082 -192.951 -1350 148 119 45
-309.011 -192.747 -1349 145 117 44
-305.494 -192.258 -1346 145 116 39
-302.441 -192.056 -1345 145 115 38
-299.617 -191.997 -1345 146 117 39
-296.797 -191.938 -1345 148 119 39
-293.979 -191.881 -1345 150 120 41
-291.38 -191.966 -1346 152 121 43
-288.35 -191.767 -1345 151 120 41
-285.327 -191.568 -1344 152 121 43
-282.101 -191.227 -1342 153 122 47
-279.093 -191.03 -1341 150 119 43
-275.886 -190.691 -1339 145 114 37
-272.894 -190.495 -1338 142 111 36
-269.908 -190.3 -1337 142 111 36
-266.729 -189.963 -1335 139 108 32
-263.758 -189.769 -1334 139 108 29
-260.793 -189.576 -1333 141 110 31
-257.835 -189.383 -1332 141 110 33
-254.692 -189.049 -1330 140 109 34
-252.127 -189.142 -1331 136 105 32
-248.998 -188.809 -1329 135 103 35
-246.251 -188.761 -1329 135 103 34
-243.322 -188.572 -1328 134 102 34
-240.399 -188.383 -1327 136 104 38
-237.125 -187.911 -1324 136 104 39
-234.218 -187.723 -1323 135 103 40
-231.318 -187.536 -1322 138 106 43
-228.597 -187.492 -1322 142 110 47
-225.878 -187.448 -1322 144 111 50
-223.33 -187.546 -1323 142 109 48
-220.779 -187.645 -1324 138 108 45
-218.061 -187.602 -1324 136 106 44
-215.02 -187.277 -1322 137 107 45
-212.631 -187.519 -1324 140 110 47
-209.761 -187.337 -1323 134 104 41
-207.209 -187.438 -1324 130 100 36
-204.809 -187.682 -1326 129 99 36
-202.25 -187.784 -1327 128 98 35
-199.388 -187.604 -1326 130 100 43
-196.977 -187.849 -1328 132 102 45
-194.413 -187.953 -1329 130 99 44
-191.847 -188.057 -1330 128 98 36
-189.136 -188.02 -1330 126 96 33
-186.706 -188.267 -1332 126 98 34
-183.994 -188.231 -1332 126 98 40
-181.284 -188.196 -1332 122 94 40
-178.575 -188.161 -1332 116 88 32
-176.131 -188.41 -1334 113 86 29
-173.291 -188.235 -1333 111 85 26
-170.713 -188.343 -1334 108 81 23
-167.879 -188.17 -1333 108 81 24
-165.299 -188.279 -1334 108 82 29
-162.595 -188.248 -1334 108 83 31
-159.892 -188.217 -1334 107 84 33
-157.19 -188.186 -1334 104 81 31
-154.489 -188.157 -1334 103 80 30
-151.904 -188.268 -1335 106 81 30
-149.092 -188.099 -1334 104 81 31
-146.505 -188.211 -1335 106 84 35
-143.915 -188.325 -1336 110 86 38
-141.216 -188.297 -1336 107 83 35
-138.415 -188.13 -1335 108 83 35
-135.721 -188.104 -1335 109 86 38
-132.928 -187.937 -1334 105 83 34
-130.239 -187.912 -1334 103 82 38
-127.55 -187.887 -1334 107 86 42
-124.862 -187.863 -1334 115 94 49
-122.267 -187.98 -1335 117 96 49
-119.579 -187.957 -1335 115 94 47
-116.98 -188.076 -1336 113 92 45
-114.206 -187.913 -1335 114 93 47
-111.605 -188.032 -1336 123 102 56
-109 -188.152 -1337 132 112 51
-106.233 -187.991 -1336 141 120 57
-103.549 -187.971 -1336 154 130 61
-100.941 -188.092 -1337 161 134 56
-98.2565 -188.073 -1337 162 134 49
-95.5012 -187.914 -1336 165 133 40
-92.8896 -188.037 -1337 161 130 40
-90.2073 -188.019 -1337 155 127 45
-87.4603 -187.862 -1336 154 124 48
-84.7179 -187.705 -1335 147 117 43
-82.1647 -187.97 -1337 128 103 44
-79.723 -188.517 -1341 114 90 40
-77.3808 -189.346 -1347 102 80 44
-75.0706 -190.315 -1354 97 76 44
-72.8934 -191.707 -1364 95 74 43
-70.4709 -192.536 -1370 88 69 41
-68.1238 -193.647 -1378 87 68 40
-65.6504 -194.478 -1384 86 67 38
-63.1989 -195.449 -1391 79 64 42
-60.6766 -196.281 -1397 76 62 39
-58.3792 -197.955 -1409 76 64 39
-55.7584 -198.647 -1414 77 64 39
-53.4549 -200.603 -1428 79 66 41
-50.9187 -201.858 -1437 82 70 49
-48.3468 -203.112 -1446 103 92 75
-331.852 -202.743 -1397 161 135 67
-320.897 -197.745 -1363 159 131 60
-316.156 -196.521 -1355 158 127 48
-312.375 -195.878 -1351 153 125 51
-309.073 -195.526 -1349 150 122 48
-305.781 -195.175 -1347 147 118 41
-302.725 -194.97 -1346 149 120 44
-299.677 -194.765 -1345 152 124 47
-296.855 -194.706 -1345 151 123 45
-293.818 -194.502 -1344 150 121 43
-291.22 -194.589 -1345 155 124 45
-287.978 -194.242 -1343 154 123 44
-284.959 -194.04 -1342 153 122 43
-282.156 -193.984 -1342 152 121 45
-278.94 -193.64 -1340 153 122 45
-275.94 -193.44 -1339 152 121 43
-272.743 -193.097 -1337 148 117 42
-269.759 -192.899 -1336 144 113 38
-266.581 -192.557 -1334 142 111 34
-263.809 -192.505 -1334 142 111 30
-261.04 -192.453 -1334 141 110 29
-258.079 -192.257 -1333 139 108 31
-254.933 -191.918 -1331 139 108 31
-252.176 -191.868 -1331 137 106 31
-249.047 -191.531 -1329 137 105 34
-246.299 -191.482 -1329 138 106 36
-243.553 -191.434 -1329 138 106 38
-240.446 -191.098 -1327 140 108 41
-237.529 -190.907 -1326 140 108 41
-234.618 -190.717 -1325 142 110 46
-231.889 -190.671 -1325 136 104 41
-229.161 -190.626 -1325 135 103 40
-226.435 -190.581 -1325 137 105 42
-223.711 -190.537 -1325 137 105 42
-221.155 -190.637 -1326 136 105 42
-218.268 -190.45 -1325 135 105 43
-215.224 -190.12 -1323 136 106 45
-212.512 -190.078 -1323 138 108 45
-209.801 -190.037 -1323 137 107 43
-207.092 -189.996 -1323 134 104 39
-204.694 -190.243 -1325 133 103 39
-202.289 -190.491 -1327 133 103 40
-199.427 -190.308 -1326 133 103 46
-196.867 -190.413 -1327 134 104 46
-194.304 -190.518 -1328 132 102 44
-191.884 -190.767 -1330 130 100 37
-189.03 -190.587 -1329 128 98 34
-186.602 -190.837 -1331 126 98 34
-184.03 -190.944 -1332 126 97 39
-181.319 -190.908 -1332 123 93 40
-178.609 -190.873 -1332 120 91 34
-176.165 -191.125 -1334 119 91 33
-173.455 -191.091 -1334 114 88 26
-170.874 -191.201 -1335 109 83 21
-168.164 -191.168 -1335 107 80 19
-165.455 -191.136 -1335 110 83 29
-162.748 -191.104 -1335 106 80 28
-160.042 -191.073 -1335 103 78 30
-157.338 -191.042 -1335 102 78 30
-154.751 -191.154 -1336 105 80 32
-152.047 -191.125 -1336 108 82 32
-149.344 -191.095 -1336 106 82 32
-146.752 -191.21 -1337 106 85 35
-144.05 -191.182 -1337 110 87 38
-141.244 -191.011 -1336 108 84 36
-138.546 -190.984 -1336 109 85 37
-135.747 -190.814 -1335 108 86 38
-132.954 -190.645 -1334 104 83 35
-130.361 -190.763 -1335 102 81 38
-127.67 -190.738 -1335 104 83 40
-125.073 -190.856 -1336 108 88 43
-122.29 -190.69 -1335 108 88 42
-119.691 -190.809 -1336 108 87 41
-117.002 -190.786 -1336 107 87 41
-114.313 -190.764 -1336 112 91 46
-111.626 -190.742 -1336 120 98 55
-109.021 -190.863 -1337 132 111 52
-106.254 -190.7 -1336 143 122 60
-103.491 -190.537 -1335 156 130 61
-100.885 -190.66 -1336 163 135 57
-98.2753 -190.783 -1337 164 136 50
-95.5195 -190.622 -1336 166 134 38
-92.9074 -190.746 -1337 161 130 38
-90.2246 -190.729 -1337 152 126 47
-87.5425 -190.712 -1337 150 122 48
-84.7976 -190.552 -1336 142 113 42
-82.3033 -190.964 -1339 122 96 42
-79.9166 -191.662 -1344 108 84 37
-77.6829 -192.787 -1352 99 76 41
-75.3622 -193.77 -1359 93 72 40
-73.0677 -194.897 -1367 90 69 38
-70.6902 -195.881 -1374 84 65 37
-68.1369 -196.438 -1378 83 64 36
-65.6629 -197.28 -1384 84 65 37
-63.211 -198.266 -1391 82 66 44
-60.7316 -199.251 -1398 78 63 41
-58.2247 -200.238 -1405 76 64 39
-55.848 -201.794 -1416 74 62 37
-53.203 -202.496 -1421 73 61 36
-50.7157 -203.911 -1431 79 64 44
-48.1889 -205.327 -1441 84 70 53
-45.591 -206.6 -1450 127 116 103
-322.139 -201.293 -1368 163 136 72
-316.686 -199.61 -1357 163 136 66
-312.669 -198.81 -1352 160 133 56
-308.905 -198.16 -1348 157 130 51
-305.615 -197.804 -1346 154 126 45
-302.561 -197.595 -1345 156 128 48
-299.737 -197.534 -1345 158 131 52
-296.915 -197.474 -1345 157 129 48
-294.314 -197.561 -1346 154 126 46
-291.279 -197.356 -1345 157 128 49
-288.25 -197.151 -1344 156 125 45
-285.228 -196.946 -1343 153 122 41
-282.423 -196.889 -1343 154 123 45
-279.204 -196.54 -1341 155 124 45
-275.995 -196.191 -1339 151 120 40
-272.798 -195.843 -1337 149 118 43
-269.813 -195.642 -1336 147 116 40
-266.634 -195.295 -1334 148 117 38
-264.06 -195.388 -1335 147 116 35
-261.288 -195.336 -1335 144 113 31
-258.324 -195.137 -1334 142 111 30
-255.367 -194.94 -1333 142 111 31
-252.226 -194.597 -1331 143 112 34
-249.284 -194.4 -1330 145 113 41
-246.533 -194.351 -1330 146 115 43
-243.601 -194.156 -1329 149 117 47
-240.675 -193.961 -1328 149 117 49
-237.755 -193.768 -1327 147 115 48
-235.019 -193.72 -1327 146 114 50
-232.109 -193.528 -1326 142 110 45
-229.379 -193.482 -1326 138 106 42
-226.65 -193.436 -1326 138 106 43
-223.924 -193.392 -1326 139 107 44
-221.199 -193.347 -1326 139 107 44
-218.311 -193.158 -1325 138 107 46
-215.43 -192.969 -1324 136 106 47
-212.715 -192.926 -1324 136 106 43
-209.843 -192.739 -1323 139 109 45
-207.29 -192.843 -1324 137 107 42
-204.58 -192.802 -1324 136 106 42
-202.329 -193.199 -1327 140 110 47
-199.616 -193.159 -1327 140 110 51
-196.905 -193.12 -1327 139 109 50
-194.489 -193.372 -1329 137 107 47
-191.777 -193.334 -1329 136 106 43
-189.209 -193.441 -1330 133 103 39
-186.779 -193.695 -1332 131 101 38
-184.204 -193.804 -1333 130 101 38
-181.491 -193.768 -1333 127 99 36
-178.644 -193.587 -1332 127 99 36
-176.332 -193.988 -1335 126 98 35
-173.619 -193.953 -1335 120 92 29
-171.035 -194.064 -1336 114 86 25
-168.323 -194.031 -1336 113 84 25
-165.612 -193.998 -1336 112 85 29
-162.78 -193.821 -1335 106 79 26
-159.954 -193.644 -1334 102 76 28
-157.369 -193.757 -1335 104 78 27
-154.665 -193.727 -1335 112 85 34
-152.076 -193.842 -1336 116 90 39
-149.373 -193.812 -1336 113 90 38
-146.781 -193.928 -1337 111 90 38
-143.971 -193.754 -1336 110 89 40
-141.165 -193.581 -1335 109 88 39
-138.469 -193.554 -1335 109 88 42
-135.774 -193.527 -1335 106 85 39
-133.08 -193.5 -1335 104 83 37
-130.484 -193.619 -1336 102 80 39
-127.886 -193.739 -1337 99 77 35
-125.191 -193.714 -1337 100 79 34
-122.405 -193.545 -1336 103 82 39
-119.804 -193.666 -1337 106 85 42
-117.025 -193.498 -1336 106 86 43
-114.421 -193.62 -1337 111 90 46
-111.648 -193.453 -1336 121 97 52
-109.124 -193.721 -1338 137 113 54
-106.274 -193.411 -1336 152 128 65
-103.512 -193.245 -1335 159 132 60
-100.829 -193.225 -1335 162 134 52
-98.0739 -193.061 -1334 162 135 44
-95.395 -193.042 -1334 164 134 38
-92.7864 -193.168 -1335 159 130 38
-90.1071 -193.15 -1335 153 128 48
-87.494 -193.278 -1336 149 122 56
-84.8776 -193.406 -1337 136 107 47
-82.4423 -193.968 -1341 115 89 43
-80.051 -194.675 -1346 104 78 36
-77.8704 -195.961 -1355 98 74 38
-75.5988 -197.103 -1363 92 71 39
-73.1888 -197.956 -1369 88 67 37
-70.601 -198.376 -1372 84 65 37
-68.1995 -199.375 -1379 83 63 37
-65.6283 -199.94 -1383 81 62 37
-63.1324 -200.795 -1389 79 63 39
-60.6565 -201.794 -1396 78 62 39
-58.236 -203.084 -1405 73 60 35
-55.8193 -204.518 -1415 72 59 34
-53.2134 -205.375 -1421 71 58 34
-50.7255 -206.81 -1431 74 59 40
-48.031 -207.523 -1436 76 61 44
-45.3797 -208.525 -1443 94 80 66
-42.9363 -210.684 -1458 145 135 127
-324.325 -205.46 -1377 164 136 78
-316.517 -202.261 -1356 163 139 76
-312.27 -201.302 -1350 161 135 62
-308.51 -200.642 -1346 161 135 58
-305.223 -200.281 -1344 161 133 54
-302.398 -200.218 -1344 162 135 57
-299.575 -200.157 -1344 163 137 60
-296.754 -200.096 -1344 165 138 59
-293.936 -200.035 -1344 162 135 55
-291.338 -200.124 -1345 161 133 52
-288.308 -199.916 -1344 156 125 44
-285.286 -199.709 -1343 153 122 40
-282.48 -199.651 -1343 155 124 44
-279.26 -199.297 -1341 156 125 44
-276.257 -199.092 -1340 150 119 38
-273.057 -198.738 -1338 147 116 39
-269.867 -198.386 -1336 148 117 40
-267.088 -198.332 -1336 149 118 39
-264.113 -198.129 -1335 150 119 38
-261.536 -198.224 -1336 154 123 41
-258.376 -197.875 -1334 153 122 40
-255.418 -197.674 -1333 157 126 45
-252.277 -197.326 -1331 161 130 51
-249.522 -197.275 -1331 163 132 59
-246.583 -197.077 -1330 162 131 58
-244.017 -197.175 -1331 159 127 57
-241.086 -196.978 -1330 155 123 55
-238.162 -196.782 -1329 149 117 50
-235.42 -196.734 -1329 145 112 47
-232.681 -196.686 -1329 140 108 43
-229.598 -196.344 -1327 137 105 40
-226.867 -196.298 -1327 136 104 40
-224.138 -196.252 -1327 135 103 40
-221.41 -196.207 -1327 135 103 40
-218.52 -196.015 -1326 135 104 43
-215.798 -195.971 -1326 131 101 42
-212.918 -195.78 -1325 131 101 38
-210.202 -195.738 -1325 133 103 40
-207.331 -195.548 -1324 132 102 37
-204.93 -195.802 -1326 131 101 37
-202.369 -195.909 -1327 136 106 43
-199.656 -195.868 -1327 137 105 47
-197.093 -195.976 -1328 135 104 44
-194.528 -196.084 -1329 137 107 44
-191.96 -196.193 -1330 137 107 42
-189.389 -196.302 -1331 137 107 41
-186.816 -196.412 -1332 136 106 42
-184.379 -196.669 -1334 134 104 41
-181.527 -196.485 -1333 132 102 38
-178.68 -196.302 -1332 133 104 38
-176.235 -196.561 -1334 136 107 41
-173.523 -196.526 -1334 132 104 37
-170.941 -196.639 -1335 129 100 35
-168.23 -196.605 -1335 126 98 33
-165.644 -196.719 -1336 123 96 35
-162.812 -196.539 -1335 118 92 34
-159.985 -196.359 -1334 115 89 35
-157.4 -196.475 -1335 118 90 34
-154.696 -196.444 -1335 123 95 39
-151.993 -196.413 -1335 121 96 40
-149.403 -196.53 -1336 117 94 39
-146.7 -196.5 -1336 112 90 36
-143.999 -196.471 -1336 109 87 38
-141.299 -196.443 -1336 107 85 37
-138.6 -196.415 -1336 106 83 39
-135.801 -196.241 -1335 102 79 35
-133.206 -196.361 -1336 101 79 34
-130.608 -196.482 -1337 102 79 36
-127.911 -196.456 -1337 100 77 33
-125.216 -196.431 -1337 101 79 32
-122.43 -196.259 -1336 109 87 43
-119.917 -196.529 -1338 111 88 46
-117.135 -196.358 -1337 112 91 48
-114.444 -196.335 -1337 121 98 51
-111.67 -196.166 -1336 132 107 53
-109.145 -196.438 -1338 146 121 55
-106.216 -195.976 -1335 156 131 62
-103.377 -195.662 -1333 161 133 53
-100.698 -195.641 -1333 161 134 45
-98.0197 -195.622 -1333 160 133 36
-95.1992 -195.309 -1331 160 134 29
-92.5961 -195.437 -1332 155 129 31
-90.0573 -195.712 -1334 151 126 50
-87.4457 -195.841 -1335 141 116 52
-84.9578 -196.264 -1338 124 99 41
-82.52 -196.834 -1342 108 83 40
-80.2453 -197.845 -1349 101 76 35
-77.9432 -198.856 -1356 98 73 37
-75.6136 -199.867 -1363 92 70 39
-73.0427 -200.292 -1366 88 67 37
-70.6148 -201.158 -1372 84 65 37
-68.0151 -201.584 -1375 83 63 38
-65.5937 -202.597 -1382 80 60 37
-63.0539 -203.317 -1387 74 58 34
-60.7119 -204.771 -1397 75 60 35
-58.1645 -205.638 -1403 73 59 34
-55.7119 -206.946 -1412 72 58 35
-53.1114 -207.815 -1418 74 59 37
-50.6292 -209.27 -1428 75 60 42
-47.8731 -209.7 -1431 75 59 42
-45.2313 -210.717 -1438 78 59 45
-42.6502 -212.173 -1448 102 90 78
-326.512 -209.666 -1386 164 137 84
-317.75 -205.817 -1361 159 139 80
-312.797 -204.391 -1352 164 140 71
-308.803 -203.57 -1347 167 142 68
-305.513 -203.204 -1345 167 140 64
-302.46 -202.99 -1344 169 143 69
-299.636 -202.928 -1344 168 143 69
-296.815 -202.866 -1344 170 143 67
-294.216 -202.955 -1345 168 141 63
-291.398 -202.895 -1345 167 139 57
-288.368 -202.684 -1344 165 135 52
-285.557 -202.625 -1344 162 132 49
-282.538 -202.415 -1343 160 129 48
-279.526 -202.206 -1342 158 127 46
-276.314 -201.847 -1340 152 121 39
-273.113 -201.49 -1338 152 121 41
-270.124 -201.283 -1337 154 123 44
-267.342 -201.228 -1337 157 126 47
-264.167 -200.872 -1335 160 129 48
-261.589 -200.968 -1336 165 134 52
-258.429 -200.614 -1334 166 135 53
-255.662 -200.561 -1334 167 136 55
-252.329 -200.058 -1331 168 137 58
-249.572 -200.006 -1331 168 137 64
-246.818 -199.955 -1331 166 134 62
-244.066 -199.905 -1331 157 125 55
-241.135 -199.705 -1330 147 115 47
-238.569 -199.805 -1331 138 106 39
-235.823 -199.757 -1331 137 103 39
-232.904 -199.559 -1330 130 97 33
-229.991 -199.361 -1329 126 94 29
-227.084 -199.165 -1328 125 93 29
-224.352 -199.118 -1328 124 92 29
-221.622 -199.073 -1328 126 94 31
-218.894 -199.028 -1328 126 95 34
-216.168 -198.983 -1328 125 95 36
-213.443 -198.939 -1328 127 97 34
-210.562 -198.746 -1327 130 100 36
-207.843 -198.704 -1327 130 100 35
-205.126 -198.661 -1327 130 100 36
-202.563 -198.77 -1328 134 104 41
-199.847 -198.729 -1328 140 107 49
-197.281 -198.838 -1329 137 105 45
-194.567 -198.798 -1329 137 107 42
-191.854 -198.759 -1329 134 105 38
-189.285 -198.869 -1330 134 104 37
-186.994 -199.28 -1333 137 107 42
-184.555 -199.541 -1335 136 106 43
-181.7 -199.354 -1334 134 104 43
-178.984 -199.317 -1334 138 108 43
-176.271 -199.281 -1334 141 111 45
-173.558 -199.246 -1334 142 114 43
-170.847 -199.211 -1334 140 112 40
-168.138 -199.176 -1334 133 105 32
-165.554 -199.292 -1335 133 105 37
-162.723 -199.109 -1334 132 104 38
-160.018 -199.077 -1334 130 104 42
-157.314 -199.045 -1334 132 105 40
-154.727 -199.162 -1335 131 103 37
-152.137 -199.28 -1336 122 96 36
-149.433 -199.25 -1336 120 96 38
-146.73 -199.22 -1336 118 95 40
-144.028 -199.19 -1336 116 92 44
-141.327 -199.162 -1336 116 92 45
-138.628 -199.133 -1336 113 89 45
-135.828 -198.956 -1335 112 88 43
-133.332 -199.227 -1337 113 89 45
-130.634 -199.201 -1337 115 89 42
-127.937 -199.175 -1337 115 90 42
-125.241 -199.149 -1337 114 90 39
-122.454 -198.975 -1336 117 93 45
-119.852 -199.1 -1337 119 95 48
-117.159 -199.076 -1337 128 106 59
-114.381 -198.903 -1336 142 119 65
-111.692 -198.881 -1336 151 125 63
-109.086 -199.007 -1337 159 134 62
-106.237 -198.688 -1335 165 139 64
-103.32 -198.22 -1332 169 141 56
-100.642 -198.2 -1332 167 140 47
-97.8921 -198.031 -1331 164 138 36
-95.1467 -197.863 -1330 158 135 22
-92.4061 -197.695 -1329 156 132 27
-89.8052 -197.826 -1330 152 127 53
-87.2666 -198.105 -1332 137 114 51
-84.9112 -198.831 -1337 119 96 38
-82.5365 -199.558 -1342 106 83 42
-80.3208 -200.731 -1350 100 76 37
-77.9587 -201.607 -1356 95 70 35
-75.5732 -202.484 -1362 90 68 37
-73.0039 -202.915 -1365 86 65 35
-70.4745 -203.495 -1369 82 63 37
-67.9792 -204.225 -1374 83 64 39
-65.4169 -204.806 -1378 81 61 38
-62.9755 -205.833 -1385 76 61 34
-60.7674 -207.753 -1398 75 60 34
-58.1346 -208.335 -1402 74 60 35
-55.6441 -209.513 -1410 73 58 35
-53.0096 -210.245 -1415 75 59 37
-50.4619 -211.423 -1423 76 61 41
-47.7823 -212.156 -1428 77 60 43
-45.1145 -213.038 -1434 77 58 44
-42.423 -213.92 -1440 77 63 47
-39.7628 -215.101 -1448 111 98 84
-318.283 -208.936 -1363 159 140 73
-313.094 -207.337 -1353 164 141 70
-309.097 -206.505 -1348 169 145 72
-305.577 -205.981 -1345 170 144 70
-302.523 -205.764 -1344 172 147 73
-299.253 -205.394 -1342 171 146 72
-296.436 -205.332 -1342 171 144 67
-293.839 -205.423 -1343 170 143 64
-291.242 -205.514 -1344 172 144 61
-288.428 -205.453 -1344 174 145 60
-285.404 -205.24 -1343 172 142 56
-282.597 -205.181 -1343 168 137 55
-279.376 -204.816 -1341 166 135 53
-275.959 -204.3 -1338 164 133 51
-273.17 -204.242 -1338 161 130 50
-269.978 -203.88 -1336 165 134 53
-267.198 -203.824 -1336 172 141 60
-264.222 -203.616 -1335 174 143 60
-261.448 -203.561 -1335 173 143 58
-258.482 -203.354 -1334 168 137 55
-255.523 -203.148 -1333 164 133 53
-252.381 -202.791 -1331 156 125 49
-249.437 -202.586 -1330 151 119 47
-246.498 -202.382 -1329 147 115 45
-243.75 -202.331 -1329 141 109 39
-241.004 -202.281 -1329 136 104 35
-238.439 -202.383 -1330 130 98 31
-235.871 -202.486 -1331 131 97 34
-233.127 -202.437 -1331 123 89 26
-230.211 -202.237 -1330 119 87 22
-227.473 -202.189 -1330 123 91 26
-224.736 -202.142 -1330 125 93 28
-222.002 -202.096 -1330 126 94 31
-219.269 -202.05 -1330 126 95 33
-216.375 -201.853 -1329 124 94 35
-213.648 -201.809 -1329 123 93 31
-210.764 -201.613 -1328 125 95 32
-207.886 -201.418 -1327 125 95 30
-205.168 -201.375 -1327 127 97 34
-202.757 -201.636 -1329 129 99 38
-199.888 -201.443 -1328 128 95 37
-197.322 -201.554 -1329 128 96 35
-194.753 -201.665 -1330 132 102 36
-192.038 -201.625 -1330 132 103 35
-189.324 -201.586 -1330 132 103 34
-187.033 -202.001 -1333 132 102 36
-184.454 -202.115 -1334 135 105 37
-181.737 -202.077 -1334 134 105 35
-179.021 -202.04 -1334 131 102 31
-176.306 -202.003 -1334 129 100 28
-173.464 -201.816 -1333 128 99 26
-170.882 -201.932 -1334 130 101 29
-168.172 -201.897 -1334 132 103 31
-165.588 -202.014 -1335 133 104 33
-162.756 -201.829 -1334 134 106 36
-160.05 -201.796 -1334 133 105 37
-157.346 -201.763 -1334 133 104 36
-154.758 -201.882 -1335 131 102 34
-152.054 -201.851 -1335 127 99 39
-149.351 -201.82 -1335 130 103 44
-146.65 -201.789 -1335 129 103 47
-143.95 -201.76 -1335 129 102 52
-141.25 -201.73 -1335 130 104 55
-138.552 -201.702 -1335 127 102 54
-135.855 -201.674 -1335 125 99 50
-133.359 -201.948 -1337 126 100 49
-130.563 -201.77 -1336 129 103 48
-127.963 -201.895 -1337 130 104 48
-125.266 -201.869 -1337 132 107 48
-122.387 -201.542 -1335 137 111 54
-119.787 -201.668 -1336 142 116 59
-117.095 -201.644 -1336 152 127 70
-114.49 -201.771 -1337 158 132 71
-111.715 -201.597 -1336 161 132 66
-109.108 -201.725 -1337 169 141 67
-106.179 -201.25 -1334 172 144 68
-103.341 -200.927 -1332 172 143 58
-100.512 -200.605 -1330 170 141 50
-97.7649 -200.434 -1329 166 139 41
-95.0229 -200.263 -1328 160 137 32
-92.2857 -200.093 -1327 155 132 32
-89.6884 -200.226 -1328 146 121 40
-87.2187 -200.66 -1331 126 104 39
-84.9284 -201.547 -1337 109 88 32
-82.4916 -202.133 -1341 99 77 39
-80.3371 -203.473 -1350 96 74 37
-77.802 -203.909 -1353 94 71 38
-75.422 -204.797 -1359 91 68 40
-72.6976 -204.782 -1359 88 66 38
-70.2313 -205.521 -1364 85 64 39
-67.5475 -205.658 -1365 86 65 41
-65.3826 -207.452 -1377 84 63 40
-62.7608 -207.891 -1380 77 61 36
-60.4319 -209.385 -1390 77 61 37
-57.856 -210.126 -1395 76 62 37
-55.4185 -211.47 -1404 77 61 38
-52.8704 -212.513 -1411 77 61 39
-50.2948 -213.557 -1418 75 60 40
-47.4908 -213.698 -1419 75 59 42
-44.8718 -214.742 -1426 74 57 43
-42.1663 -215.487 -1431 75 59 42
-39.4138 -216.081 -1435 80 65 48
-314.318 -210.91 -1358 167 144 68
-309.392 -209.446 -1349 176 152 74
-305.415 -208.604 -1344 177 153 74
-302.137 -208.229 -1342 177 154 74
-298.87 -207.854 -1340 177 153 74
-296.056 -207.791 -1340 177 152 69
-293.683 -208.038 -1342 175 149 66
-291.087 -208.131 -1343 174 146 63
-288.274 -208.069 -1343 175 146 59
-285.464 -208.008 -1343 175 145 57
-282.446 -207.793 -1342 174 144 60
-279.434 -207.578 -1341 175 144 61
-276.223 -207.21 -1339 175 145 61
-273.023 -206.842 -1337 172 141 59
-270.035 -206.63 -1336 171 140 59
-267.054 -206.418 -1335 171 140 58
-263.881 -206.053 -1333 167 136 52
-261.111 -205.997 -1333 159 129 44
-258.731 -206.251 -1335 154 123 41
-255.769 -206.042 -1334 148 117 38
-252.624 -205.68 -1332 141 110 35
-249.677 -205.472 -1331 138 106 36
-246.736 -205.266 -1330 138 106 37
-243.801 -205.059 -1329 135 103 35
-240.873 -204.854 -1328 131 99 32
-238.309 -204.958 -1329 126 94 28
-235.743 -205.062 -1330 125 91 29
-233 -205.013 -1330 123 89 27
-230.259 -204.964 -1330 122 90 25
-227.52 -204.916 -1330 124 92 27
-224.952 -205.022 -1331 125 93 28
-222.215 -204.975 -1331 126 94 31
-219.479 -204.929 -1331 126 95 34
-216.746 -204.883 -1331 123 93 34
-213.853 -204.684 -1330 123 93 30
-210.966 -204.485 -1329 124 94 31
-208.242 -204.441 -1329 124 94 29
-205.365 -204.244 -1328 126 96 34
-202.952 -204.509 -1330 130 100 39
-200.381 -204.621 -1331 128 95 37
-197.66 -204.579 -1331 127 95 34
-194.94 -204.538 -1331 128 99 31
-192.222 -204.497 -1331 128 99 30
-189.363 -204.304 -1330 131 102 33
-186.931 -204.572 -1332 135 105 37
-184.354 -204.686 -1333 141 112 41
-181.638 -204.648 -1333 142 113 39
-178.924 -204.61 -1333 140 110 35
-176.211 -204.573 -1333 141 111 36
-173.369 -204.383 -1332 140 111 34
-170.789 -204.501 -1333 139 110 36
-168.081 -204.466 -1333 141 112 39
-165.498 -204.584 -1334 142 113 39
-162.79 -204.55 -1334 142 113 40
-160.083 -204.516 -1334 138 110 37
-157.378 -204.483 -1334 138 109 39
-154.674 -204.451 -1334 137 107 38
-151.858 -204.266 -1333 138 109 47
-149.27 -204.388 -1334 140 111 50
-146.46 -204.204 -1333 137 109 50
-143.764 -204.174 -1333 139 111 56
-141.174 -204.297 -1334 142 114 61
-138.581 -204.421 -1335 141 114 61
-135.884 -204.393 -1335 141 114 58
-133.287 -204.518 -1336 141 113 56
-130.59 -204.49 -1336 142 114 51
-127.989 -204.617 -1337 144 116 53
-125.198 -204.437 -1336 151 122 59
-122.413 -204.259 -1335 155 127 63
-119.901 -204.539 -1337 159 131 66
-117.119 -204.362 -1336 163 135 69
-114.428 -204.338 -1336 165 136 70
-111.654 -204.162 -1335 168 138 72
-109.048 -204.292 -1336 171 142 70
-106.121 -203.811 -1333 173 144 70
-103.285 -203.483 -1331 173 142 60
-100.457 -203.156 -1329 170 142 54
-97.7114 -202.983 -1328 166 139 46
-94.8993 -202.658 -1326 158 134 38
-92.2351 -202.638 -1326 150 126 33
-89.7068 -202.925 -1328 134 110 34
-87.1711 -203.212 -1330 117 95 33
-84.8823 -204.111 -1336 105 85 31
-82.5701 -205.01 -1342 94 73 36
-80.294 -206.063 -1349 90 68 33
-77.7029 -206.352 -1351 91 68 37
-75.2154 -206.947 -1355 91 69 41
-72.552 -207.085 -1356 90 68 41
-70.0912 -207.833 -1361 87 65 40
-67.5119 -208.277 -1364 85 63 39
-65.1111 -209.333 -1371 85 63 40
-62.5917 -210.083 -1376 79 62 38
-60.2268 -211.444 -1385 80 64 40
-57.7019 -212.348 -1391 78 64 39
-55.114 -213.1 -1396 77 62 39
-52.5439 -214.004 -1402 76 60 38
-49.9503 -214.91 -1408 74 59 39
-47.2996 -215.663 -1413 74 59 41
-44.6292 -216.416 -1418 74 60 44
-41.8803 -216.865 -1421 78 63 43
-39.1197 -217.315 -1424 80 65 45
-36.4492 -218.375 -1431 84 71 55
-315.775 -214.663 -1364 168 145 64
-310.605 -213.022 -1354 179 157 70
-305.935 -211.696 -1346 180 158 71
-302.202 -211.002 -1342 180 158 71
-298.711 -210.465 -1339 179 157 70
-295.678 -210.244 -1338 178 155 63
-292.87 -210.18 -1338 175 152 60
-290.499 -210.431 -1340 174 148 62
-287.692 -210.369 -1340 173 145 57
-284.887 -210.307 -1340 175 145 56
-281.875 -210.089 -1339 176 146 61
-279.077 -210.029 -1339 177 147 62
-276.076 -209.812 -1338 178 148 63
-273.081 -209.596 -1337 176 145 64
-270.093 -209.381 -1336 171 140 59
-267.311 -209.323 -1336 162 131 49
-264.136 -208.953 -1334 152 122 37
-261.363 -208.897 -1334 145 115 28
-258.786 -208.998 -1335 143 112 30
-255.823 -208.786 -1334 140 109 30
-252.867 -208.575 -1333 133 102 29
-249.917 -208.365 -1332 130 98 29
-246.974 -208.155 -1331 130 98 29
-244.036 -207.946 -1330 130 98 31
-241.287 -207.894 -1330 129 97 31
-238.539 -207.843 -1330 126 94 29
-235.793 -207.792 -1330 128 94 32
-233.05 -207.742 -1330 130 96 33
-230.308 -207.693 -1330 130 98 33
-227.568 -207.644 -1330 128 96 31
-224.831 -207.596 -1330 128 96 31
-222.095 -207.548 -1330 128 96 33
-219.361 -207.501 -1330 126 95 34
-216.629 -207.455 -1330 124 94 35
-214.059 -207.565 -1331 127 97 34
-211.17 -207.364 -1330 129 99 36
-208.6 -207.475 -1331 128 98 33
-205.718 -207.275 -1330 127 97 34
-203.147 -207.387 -1331 129 99 38
-200.424 -207.345 -1331 128 95 37
-197.702 -207.302 -1331 130 98 37
-194.981 -207.261 -1331 132 103 34
-192.263 -207.22 -1331 134 105 36
-189.403 -207.023 -1330 138 109 40
-186.97 -207.295 -1332 138 109 40
-184.393 -207.411 -1333 145 115 45
-181.676 -207.372 -1333 149 117 46
-178.961 -207.334 -1333 150 119 44
-176.248 -207.297 -1333 149 118 43
-173.275 -206.949 -1331 151 122 41
-170.825 -207.223 -1333 154 126 46
-168.116 -207.187 -1333 153 125 46
-165.532 -207.308 -1334 151 122 47
-162.824 -207.273 -1334 152 123 48
-160.357 -207.55 -1336 151 122 46
-157.411 -207.205 -1334 154 123 51
-154.707 -207.172 -1334 152 120 50
-152.004 -207.14 -1334 148 118 56
-149.302 -207.108 -1334 149 119 55
-146.491 -206.922 -1333 148 118 52
-143.686 -206.736 -1332 148 118 57
-140.992 -206.706 -1332 150 120 60
-138.402 -206.832 -1333 151 122 64
-135.708 -206.803 -1333 153 124 62
-133.115 -206.93 -1334 153 123 59
-130.519 -207.057 -1335 155 123 54
-127.824 -207.03 -1335 157 125 57
-125.037 -206.848 -1334 163 131 64
-122.346 -206.822 -1334 164 132 63
-119.747 -206.952 -1335 165 133 63
-117.144 -207.082 -1336 168 137 64
-114.366 -206.903 -1335 169 137 68
-111.594 -206.724 -1334 173 141 78
-108.908 -206.701 -1334 174 142 75
-105.984 -206.214 -1331 175 143 74
-103.228 -206.037 -1330 171 140 63
-100.478 -205.86 -1329 165 136 55
-97.7317 -205.685 -1328 159 131 46
-94.9906 -205.51 -1327 151 125 40
-92.2543 -205.335 -1326 143 117 36
-89.7254 -205.626 -1328 128 106 40
-87.2548 -206.072 -1331 112 92 35
-84.8364 -206.673 -1335 101 82 30
-82.3412 -207.12 -1338 94 73 36
-80.0726 -208.186 -1345 89 67 33
-77.4314 -208.325 -1346 89 66 36
-74.9534 -208.928 -1350 91 68 41
-72.353 -209.222 -1352 92 70 43
-69.8482 -209.826 -1356 89 67 42
-67.2289 -210.121 -1358 89 67 43
-64.8396 -211.19 -1365 90 68 45
-62.2408 -211.641 -1368 84 66 42
-59.8044 -212.711 -1375 84 67 42
-57.2575 -213.473 -1380 80 66 41
-54.849 -214.853 -1389 78 63 40
-52.2924 -215.77 -1395 78 63 41
-49.7833 -216.997 -1403 78 63 43
-47.142 -217.76 -1408 79 65 45
-44.3551 -217.905 -1409 81 68 50
-41.6236 -218.36 -1412 85 72 50
-38.7981 -218.352 -1412 86 72 49
-36.1002 -219.117 -1417 88 75 53
-320.475 -220.675 -1384 170 144 68
-312.279 -216.939 -1361 178 155 72
-306.684 -214.958 -1349 180 157 74
-302.718 -214.095 -1344 180 157 74
-299.223 -213.551 -1341 178 155 73
-296.184 -213.327 -1340 176 153 68
-293.153 -213.103 -1339 173 150 64
-290.345 -213.039 -1339 172 146 60
-287.325 -212.817 -1338 170 142 54
-284.311 -212.596 -1337 172 142 53
-281.515 -212.534 -1337 171 141 55
-278.721 -212.473 -1337 174 145 59
-275.723 -212.253 -1336 176 147 61
-272.732 -212.035 -1335 175 145 64
-269.949 -211.976 -1335 174 143 63
-266.769 -211.6 -1333 160 130 46
-264.193 -211.701 -1334 149 119 33
-261.419 -211.643 -1334 147 117 29
-258.648 -211.587 -1334 146 116 32
-255.687 -211.372 -1333 140 110 29
-252.922 -211.317 -1333 132 101 28
-249.783 -210.946 -1331 129 97 28
-246.841 -210.733 -1330 131 99 31
-243.722 -210.363 -1328 133 101 35
-241.157 -210.469 -1329 133 101 37
-238.59 -210.576 -1330 134 101 39
-235.844 -210.524 -1330 137 103 40
-233.1 -210.473 -1330 135 102 38
-230.531 -210.582 -1331 134 102 36
-227.788 -210.532 -1331 133 101 36
-225.048 -210.483 -1331 134 102 37
-222.142 -210.277 -1330 132 100 37
-219.408 -210.229 -1330 129 98 37
-216.675 -210.182 -1330 130 100 43
-213.783 -209.978 -1329 132 102 40
-211.215 -210.09 -1330 130 100 37
-208.644 -210.203 -1331 127 97 32
-205.762 -210 -1330 126 96 33
-203.191 -210.114 -1331 128 98 37
-200.466 -210.07 -1331 128 95 36
-197.744 -210.028 -1331 131 99 37
-195.023 -209.985 -1331 135 106 36
-192.159 -209.786 -1330 142 113 43
-189.301 -209.587 -1329 147 118 49
-186.87 -209.862 -1331 144 115 46
-184.155 -209.822 -1331 151 121 50
-181.579 -209.941 -1332 155 124 50
-179.134 -210.217 -1334 158 127 50
-176.418 -210.179 -1334 157 126 49
-173.312 -209.669 -1331 156 127 44
-170.862 -209.947 -1333 160 132 51
-168.152 -209.911 -1333 161 133 53
-165.444 -209.875 -1333 160 130 50
-162.859 -209.998 -1334 160 131 50
-160.391 -210.278 -1336 158 130 47
-157.445 -209.929 -1334 161 131 53
-154.74 -209.896 -1334 161 130 54
-151.922 -209.705 -1333 164 135 66
-149.221 -209.673 -1333 166 137 65
-146.412 -209.484 -1332 164 134 60
-143.608 -209.296 -1331 162 131 64
-140.916 -209.266 -1331 162 131 65
-138.12 -209.079 -1330 163 133 69
-135.432 -209.05 -1330 163 132 66
-132.944 -209.336 -1332 162 131 62
-130.254 -209.307 -1332 166 133 60
-127.564 -209.28 -1332 166 133 62
-124.97 -209.41 -1333 170 136 68
-122.189 -209.227 -1332 171 138 68
-119.592 -209.358 -1333 173 140 69
-116.993 -209.49 -1334 175 142 71
-114.305 -209.465 -1334 172 139 71
-111.534 -209.284 -1333 177 143 79
-108.849 -209.261 -1333 176 143 75
-106.006 -208.924 -1331 173 141 71
-103.25 -208.745 -1330 168 136 56
-100.499 -208.566 -1329 162 132 50
-97.7524 -208.388 -1328 155 126 42
-95.0823 -208.368 -1328 143 115 46
-92.413 -208.348 -1328 132 105 39
-90.0147 -208.956 -1332 116 96 40
-87.4044 -209.094 -1333 105 85 38
-85.045 -209.86 -1338 98 78 36
-82.6047 -210.469 -1342 96 75 39
-80.149 -211.08 -1346 96 74 41
-77.5053 -211.22 -1347 97 73 43
-74.9693 -211.674 -1350 94 71 43
-72.4754 -212.285 -1354 96 73 45
-69.9144 -212.741 -1357 95 73 48
-67.2926 -213.04 -1359 95 73 50
-64.7582 -213.653 -1363 94 73 52
-62.2083 -214.266 -1367 91 73 48
-59.73 -215.194 -1373 88 71 46
-57.1451 -215.808 -1377 85 71 46
-54.7025 -217.05 -1385 85 71 47
-52.1535 -217.979 -1391 86 72 49
-49.5808 -218.909 -1397 86 71 51
-46.951 -219.682 -1402 86 72 51
-44.2386 -220.142 -1405 85 72 50
-41.485 -220.446 -1407 84 71 49
-38.6688 -220.438 -1407 86 73 50
-35.9803 -221.213 -1412 88 74 50
-33.3191 -222.303 -1419 98 85 68
-30.7375 -224.176 -1431 133 122 110
-314.643 -221.371 -1371 172 149 71
-307.661 -218.396 -1353 175 152 75
-304.137 -217.844 -1350 176 153 76
-299.958 -216.809 -1344 174 150 74
-296.692 -216.42 -1342 174 151 70
-293.217 -215.871 -1339 173 149 67
-290.626 -215.967 -1340 170 144 60
-287.173 -215.42 -1337 168 140 54
-283.736 -214.873 -1334 167 137 51
-280.734 -214.65 -1333 170 138 54
-277.948 -214.588 -1333 172 141 57
-274.958 -214.366 -1332 176 145 61
-272.383 -214.467 -1333 175 144 65
-269.604 -214.407 -1333 176 145 67
-266.827 -214.348 -1333 165 134 51
-264.053 -214.289 -1333 155 124 38
-261.084 -214.071 -1332 152 122 33
-258.51 -214.174 -1333 149 119 33
-255.742 -214.117 -1333 141 111 29
-252.787 -213.901 -1332 138 108 34
-249.838 -213.685 -1331 138 106 37
-247.081 -213.63 -1331 140 108 40
-244.142 -213.416 -1330 138 106 40
-241.573 -213.523 -1331 136 104 40
-238.642 -213.31 -1330 137 105 42
-236.073 -213.418 -1331 139 106 40
-233.151 -213.206 -1330 138 105 38
-230.408 -213.156 -1330 137 105 37
-227.667 -213.106 -1330 137 105 37
-224.928 -213.056 -1330 136 104 37
-222.191 -213.007 -1330 134 102 38
-219.455 -212.959 -1330 132 101 38
-216.722 -212.911 -1330 132 103 44
-213.99 -212.864 -1330 133 104 40
-211.42 -212.978 -1331 129 99 34
-208.846 -213.092 -1332 127 98 31
-205.807 -212.727 -1330 132 102 37
-203.082 -212.682 -1330 138 108 44
-200.51 -212.798 -1331 142 109 46
-197.638 -212.595 -1330 143 111 46
-194.919 -212.552 -1330 145 115 44
-192.201 -212.51 -1330 150 120 50
-189.342 -212.308 -1329 156 125 56
-186.63 -212.268 -1329 155 125 55
-184.057 -212.387 -1330 161 131 58
-181.482 -212.507 -1331 162 131 54
-178.904 -212.627 -1332 164 133 54
-176.191 -212.589 -1332 167 136 57
-173.22 -212.232 -1330 166 135 53
-170.77 -212.513 -1332 164 135 53
-168.062 -212.477 -1332 164 136 56
-165.355 -212.441 -1332 165 135 51
-162.772 -212.564 -1333 167 137 53
-160.185 -212.689 -1334 167 139 53
-157.36 -212.495 -1333 168 137 56
-154.541 -212.302 -1332 169 138 58
-151.841 -212.269 -1332 169 139 66
-149.03 -212.077 -1331 171 140 64
-146.224 -211.886 -1330 172 140 59
-143.315 -211.536 -1328 172 139 67
-140.522 -211.346 -1327 172 140 70
-137.838 -211.316 -1327 170 139 72
-135.257 -211.445 -1328 169 138 70
-132.673 -211.576 -1329 169 137 68
-130.086 -211.706 -1330 171 137 65
-127.496 -211.838 -1331 170 136 65
-124.903 -211.97 -1332 173 138 70
-122.215 -211.943 -1332 173 139 69
-119.528 -211.917 -1332 175 142 71
-116.93 -212.05 -1333 177 142 73
-114.158 -211.866 -1332 173 139 71
-111.39 -211.683 -1331 176 142 79
-108.709 -211.659 -1331 175 143 74
-105.95 -211.477 -1330 173 141 71
-103.117 -211.137 -1328 166 135 56
-100.52 -211.274 -1329 156 127 49
-97.8469 -211.252 -1329 145 117 41
-95.1742 -211.232 -1329 131 106 50
-92.6415 -211.529 -1331 118 94 40
-90.3043 -212.304 -1336 104 85 37
-87.751 -212.603 -1338 99 79 40
-85.2539 -213.061 -1341 97 77 43
-82.8071 -213.678 -1345 97 77 43
-80.2853 -214.137 -1348 99 77 44
-77.6369 -214.279 -1349 98 74 43
-75.0964 -214.739 -1352 95 72 42
-72.5979 -215.359 -1356 97 74 44
-70.0324 -215.82 -1359 95 73 48
-67.3564 -215.964 -1360 95 74 51
-64.8196 -216.585 -1364 95 75 55
-62.2216 -217.047 -1367 97 78 53
-59.7428 -217.987 -1373 93 76 50
-57.1158 -218.451 -1376 90 75 50
-54.6747 -219.709 -1384 91 76 53
-52.1271 -220.65 -1390 91 77 54
-49.4849 -221.274 -1394 91 75 55
-46.8605 -222.057 -1399 89 74 52
-44.122 -222.365 -1401 87 73 49
-41.3759 -222.673 -1403 83 71 48
-38.6496 -223.141 -1406 85 73 50
-35.9115 -223.609 -1409 87 73 47
-33.1852 -224.236 -1413 90 76 56
-30.5721 -225.816 -1423 124 111 96
-315.173 -224.538 -1373 154 129 62
-310.459 -223.16 -1365 156 132 63
-305.782 -221.783 -1357 161 137 67
-303.15 -221.878 -1358 169 144 71
-298.527 -220.503 -1350 171 146 68
-294.816 -219.783 -1346 173 147 68
-291.124 -219.065 -1342 172 145 66
-287.452 -218.347 -1338 170 141 61
-284.012 -217.793 -1335 167 136 55
-280.586 -217.241 -1332 168 134 55
-277.593 -217.015 -1331 170 136 56
-274.813 -216.953 -1331 174 139 59
-271.83 -216.729 -1330 173 141 64
-269.057 -216.669 -1330 176 145 70
-266.486 -216.772 -1331 175 144 63
-263.715 -216.712 -1331 171 140 54
-261.142 -216.817 -1332 166 136 45
-258.567 -216.921 -1333 158 131 41
-255.799 -216.864 -1333 152 124 38
-252.843 -216.645 -1332 150 121 46
-250.081 -216.589 -1332 150 120 47
-247.135 -216.371 -1331 152 121 49
-244.38 -216.316 -1331 150 118 51
-241.626 -216.262 -1331 145 114 46
-238.874 -216.209 -1331 141 111 41
-236.125 -216.156 -1331 140 108 37
-233.377 -216.104 -1331 141 108 37
-230.459 -215.89 -1330 146 113 40
-227.888 -216.001 -1331 146 113 40
-224.977 -215.789 -1330 144 111 37
-222.24 -215.739 -1330 142 110 41
-219.504 -215.69 -1330 141 110 42
-216.933 -215.804 -1331 140 113 47
-214.038 -215.594 -1330 140 112 44
-211.466 -215.709 -1331 140 111 43
-208.735 -215.663 -1331 145 116 46
-205.852 -215.455 -1330 152 123 52
-203.127 -215.41 -1330 155 126 53
-200.554 -215.527 -1331 159 126 54
-197.681 -215.321 -1330 159 126 55
-195.108 -215.44 -1331 160 127 59
-192.387 -215.397 -1331 166 132 62
-189.526 -215.193 -1330 172 138 66
-186.67 -214.99 -1329 172 140 65
-184.097 -215.111 -1330 172 140 65
-181.385 -215.071 -1330 172 141 65
-178.674 -215.031 -1330 173 142 63
-175.965 -214.992 -1330 174 143 64
-173.257 -214.954 -1330 172 142 57
-170.551 -214.916 -1330 168 138 55
-167.846 -214.879 -1330 168 137 56
-165.143 -214.842 -1330 173 139 58
-162.685 -215.129 -1332 175 142 61
-160.1 -215.255 -1333 176 145 63
-157.277 -215.059 -1332 172 140 59
-154.458 -214.863 -1331 176 144 63
-151.76 -214.83 -1331 173 140 65
-148.838 -214.474 -1329 171 139 62
-146.036 -214.28 -1328 173 141 60
-143.131 -213.926 -1326 174 141 68
-140.447 -213.895 -1326 173 140 68
-137.556 -213.542 -1324 173 140 73
-134.879 -213.512 -1324 173 140 73
-132.302 -213.644 -1325 170 138 71
-129.821 -213.938 -1327 172 141 74
-127.236 -214.071 -1328 171 140 71
-124.742 -214.365 -1330 170 139 66
-122.058 -214.339 -1330 169 137 66
-119.375 -214.312 -1330 174 141 71
-116.868 -214.609 -1332 181 143 74
-114.097 -214.422 -1331 175 139 72
-111.414 -214.398 -1331 171 139 76
-108.733 -214.374 -1331 170 139 68
-106.052 -214.35 -1331 171 140 67
-103.295 -214.166 -1330 159 132 55
-100.769 -214.466 -1332 144 120 50
-98.1627 -214.605 -1333 128 107 45
-95.6962 -215.067 -1336 115 96 49
-93.1489 -215.368 -1338 106 87 43
-90.7971 -216.153 -1343 99 81 43
-88.2947 -216.616 -1346 95 79 44
-85.8446 -217.241 -1350 92 76 43
-83.3792 -217.866 -1354 93 75 41
-80.8388 -218.331 -1357 95 76 42
-78.1143 -218.314 -1357 96 74 40
-75.557 -218.78 -1360 97 74 42
-72.9884 -219.246 -1363 97 74 43
-70.3568 -219.552 -1365 92 72 47
-67.7178 -219.859 -1367 94 73 50
-65.1663 -220.488 -1371 98 76 56
-62.5083 -220.796 -1373 98 78 54
-59.8863 -221.265 -1376 97 78 54
-57.3357 -222.056 -1381 92 75 49
-54.7656 -222.848 -1386 94 76 51
-52.1759 -223.64 -1391 94 76 51
-49.46 -223.95 -1393 93 76 54
-46.8036 -224.583 -1397 89 73 53
-44.0685 -224.895 -1399 83 68 51
-41.3553 -225.368 -1402 80 66 45
-38.6304 -225.841 -1405 80 66 45
-35.8937 -226.315 -1408 80 65 45
-33.1689 -226.951 -1412 86 71 55
-30.5358 -228.39 -1421 101 86 73
-27.9447 -230.473 -1434 140 131 134
-316.162 -228.047 -1377 122 104 58
-311.212 -226.485 -1368 125 105 56
-307.204 -225.587 -1363 126 106 55
-303.219 -224.69 -1358 134 113 53
-299.7 -224.125 -1355 148 127 58
-295.759 -223.231 -1350 153 132 60
-291.841 -222.337 -1345 165 139 63
-287.947 -221.445 -1340 168 141 62
-283.863 -220.389 -1334 169 141 58
-280.439 -219.829 -1331 166 134 52
-277.238 -219.435 -1329 165 134 52
-274.461 -219.373 -1329 167 135 53
-271.687 -219.311 -1329 168 135 56
-268.712 -219.085 -1328 171 139 61
-266.145 -219.189 -1329 173 141 59
-263.576 -219.294 -1330 174 142 55
-261.005 -219.4 -1331 173 142 49
-258.237 -219.341 -1331 171 140 47
-255.665 -219.448 -1332 170 139 49
-252.9 -219.391 -1332 160 131 53
-249.949 -219.169 -1331 158 128 51
-247.005 -218.948 -1330 158 127 50
-244.251 -218.893 -1330 159 127 56
-241.68 -219.003 -1331 155 124 52
-238.928 -218.949 -1331 151 121 48
-236.178 -218.895 -1331 150 118 46
-233.079 -218.514 -1329 151 118 46
-230.337 -218.462 -1329 155 124 49
-227.768 -218.574 -1330 155 124 48
-224.689 -218.195 -1328 152 121 44
-221.955 -218.145 -1328 153 123 52
-219.222 -218.095 -1328 155 126 55
-216.655 -218.211 -1329 155 126 56
-213.763 -217.998 -1328 157 127 56
-211.354 -218.279 -1330 160 131 60
-208.782 -218.396 -1331 161 132 58
-205.898 -218.185 -1330 164 134 59
-202.866 -217.812 -1328 167 137 60
-200.146 -217.766 -1328 172 140 63
-197.428 -217.722 -1328 171 139 64
-194.711 -217.678 -1328 173 140 71
-191.996 -217.635 -1328 176 143 71
-189.283 -217.592 -1328 178 145 72
-186.571 -217.55 -1328 178 147 70
-183.861 -217.509 -1328 176 144 68
-181.289 -217.632 -1329 174 142 66
-178.445 -217.428 -1328 177 145 66
-175.872 -217.553 -1329 179 147 67
-173.165 -217.514 -1329 174 144 58
-170.589 -217.639 -1330 170 139 55
-167.883 -217.601 -1330 171 140 58
-165.179 -217.564 -1330 177 145 63
-162.721 -217.855 -1332 176 144 63
-159.895 -217.656 -1331 176 145 65
-157.075 -217.457 -1330 174 144 65
-154.26 -217.259 -1329 174 144 66
-151.565 -217.225 -1329 169 138 60
-148.647 -216.864 -1327 171 140 62
-145.848 -216.668 -1326 175 143 65
-142.946 -216.31 -1324 174 142 70
-140.16 -216.115 -1323 169 136 66
-137.379 -215.921 -1322 170 137 71
-134.807 -216.054 -1323 173 141 76
-132.232 -216.187 -1324 170 139 73
-129.849 -216.648 -1327 170 139 71
-127.264 -216.783 -1328 171 140 71
-124.676 -216.918 -1329 170 139 66
-122.085 -217.054 -1330 168 136 67
-119.311 -216.864 -1329 171 139 71
-116.894 -217.328 -1332 175 141 72
-114.122 -217.139 -1331 171 138 70
-111.523 -217.277 -1332 166 134 69
-108.92 -217.416 -1333 164 135 66
-106.394 -217.718 -1335 164 135 65
-103.706 -217.695 -1335 148 124 55
-101.245 -218.161 -1338 129 107 46
-98.6262 -218.302 -1339 112 91 40
-96.1472 -218.77 -1342 104 85 45
-93.6568 -219.238 -1345 98 80 41
-91.1552 -219.707 -1348 96 77 45
-88.7078 -220.339 -1352 94 77 46
-86.2451 -220.971 -1356 90 74 44
-83.7054 -221.441 -1359 90 73 41
-81.1544 -221.912 -1362 94 76 45
-78.5345 -222.22 -1364 97 74 44
-75.9626 -222.692 -1367 95 72 42
-73.2722 -222.838 -1368 95 72 42
-70.63 -223.148 -1370 90 70 49
-68.0299 -223.622 -1373 91 70 52
-65.3707 -223.933 -1375 96 74 58
-62.7496 -224.407 -1378 91 74 54
-60.0299 -224.556 -1379 93 75 55
-57.5144 -225.52 -1385 87 72 49
-54.7776 -225.671 -1386 89 72 50
-52.1498 -226.31 -1390 88 72 49
-49.3644 -226.299 -1390 82 68 48
-46.6798 -226.777 -1393 74 61 42
-43.9521 -227.093 -1395 66 55 38
-41.2758 -227.734 -1399 64 53 31
-38.5563 -228.214 -1402 63 51 29
-35.8761 -229.02 -1407 67 54 35
-33.1527 -229.663 -1411 76 62 46
-30.4994 -230.958 -1419 85 71 56
-27.8729 -232.742 -1430 107 97 95
-322.618 -233.493 -1392 162 152 139
-316.235 -230.904 -1377 162 153 135
-311.738 -229.658 -1370 148 134 106
-307.95 -228.916 -1366 107 92 60
-303.958 -228.007 -1361 97 80 32
-300.212 -227.268 -1357 101 85 24
-296.484 -226.529 -1353 114 97 31
-292.125 -225.29 -1346 138 113 40
-288.227 -224.386 -1341 150 125 48
-284.353 -223.484 -1336 163 137 55
-280.924 -222.917 -1333 169 142 58
-277.51 -222.351 -1330 168 141 57
-274.317 -221.953 -1328 167 138 54
-271.34 -221.724 -1327 168 136 54
-268.369 -221.495 -1326 171 137 57
