ply
format ascii 1.0
comment Created by Open3D
element vertex 1444
property double x
property double y
property double z
property uchar red
property uchar green
property uchar blue
end_header
-125.761 -723.983 -1394 43 55 76
-122.644 -723.371 -1393 48 60 84
-119.618 -723.28 -1393 53 64 90
-117.096 -726.306 -1399 54 65 93
-113.734 -724.143 -1395 54 68 95
-110.866 -725.097 -1397 56 70 97
-108.067 -726.571 -1400 59 73 100
-105.107 -727.01 -1401 60 74 105
-102.07 -726.933 -1401 62 76 107
-99.1049 -727.376 -1402 61 75 106
-95.9308 -726.265 -1400 62 76 107
-92.9654 -726.713 -1401 59 73 103
-90.5101 -731.313 -1410 59 73 102
-88.1407 -736.951 -1421 63 74 97
-224.658 -755.588 -1440 102 102 120
-219.015 -747.024 -1424 71 75 102
-215.265 -744.76 -1420 56 70 101
-211.833 -743.549 -1418 49 61 92
-207.97 -740.767 -1413 46 57 88
-204.712 -740.086 -1412 45 55 84
-200.745 -736.787 -1406 45 55 85
-197.089 -734.54 -1402 46 57 87
-193.867 -733.868 -1401 49 60 88
-190.787 -733.721 -1401 53 60 89
-187.977 -734.624 -1403 49 57 86
-184.765 -733.96 -1402 45 55 85
-181.558 -733.297 -1401 48 57 89
-177.849 -730.544 -1396 53 63 95
-174.038 -727.271 -1390 52 65 98
-170.624 -725.57 -1387 52 64 97
-166.983 -722.827 -1382 50 64 97
-163.602 -721.132 -1379 48 62 97
-160.703 -721.532 -1380 47 61 90
-157.571 -720.889 -1379 44 57 86
-154.558 -720.771 -1379 33 45 75
-151.766 -721.7 -1381 32 43 73
-148.967 -722.631 -1383 51 61 91
-145.949 -722.52 -1383 58 67 97
-142.726 -721.366 -1381 47 56 86
-140.222 -723.87 -1386 44 53 82
-137.202 -723.765 -1386 37 46 74
-133.989 -722.618 -1384 39 48 72
-131.638 -726.172 -1391 42 51 72
-128.704 -726.596 -1392 43 53 73
-125.766 -727.022 -1393 43 55 78
-122.825 -727.45 -1394 47 58 84
-120.052 -728.924 -1397 50 61 89
-117.184 -729.878 -1399 54 66 91
-114.146 -729.79 -1399 53 67 94
-111.187 -730.227 -1400 56 70 97
-108.148 -730.144 -1400 59 73 100
-105.261 -731.106 -1402 60 74 103
-102.147 -730.507 -1401 61 75 104
-98.9671 -729.388 -1399 61 75 106
-96.003 -729.836 -1400 62 76 105
-92.9689 -729.765 -1400 58 72 101
-90.3212 -732.823 -1406 61 75 104
-87.8966 -737.968 -1416 65 74 98
-224.361 -757.717 -1437 86 88 109
-219.645 -752.275 -1427 63 69 102
-215.733 -749.472 -1422 51 64 97
-212.144 -747.727 -1419 48 61 93
-208.571 -745.986 -1416 44 56 88
-205.593 -746.354 -1417 43 54 84
-201.184 -741.458 -1408 46 57 87
-197.38 -738.673 -1403 48 59 89
-194.153 -737.997 -1402 51 62 91
-190.932 -737.323 -1401 55 64 92
-187.718 -736.652 -1400 53 63 91
-184.642 -736.51 -1400 48 59 89
-181.567 -736.37 -1400 51 61 92
-178.112 -734.655 -1397 53 64 95
-174.296 -731.366 -1391 49 62 95
-171 -730.183 -1389 50 63 96
-167.11 -726.374 -1382 51 64 97
-163.964 -725.722 -1381 50 63 97
-160.475 -723.497 -1377 50 62 92
-157.92 -725.477 -1381 46 58 88
-154.563 -723.782 -1378 38 49 79
-151.881 -725.241 -1381 38 47 79
-148.972 -725.652 -1382 54 63 93
-145.743 -724.489 -1380 52 61 90
-142.731 -724.38 -1380 44 53 81
-140.126 -726.372 -1384 41 50 79
-137.405 -727.84 -1387 40 49 77
-134.769 -729.836 -1391 42 51 75
-131.643 -729.21 -1390 45 55 77
-129.079 -731.734 -1395 45 55 76
-126.222 -732.686 -1397 44 56 79
-123.447 -734.164 -1400 48 60 86
-120.487 -734.596 -1401 51 62 90
-117.441 -734.505 -1401 52 64 89
-114.395 -734.418 -1401 55 68 95
-111.51 -735.38 -1403 58 72 100
-108.462 -735.297 -1403 61 75 103
-105.641 -736.788 -1406 63 77 106
-102.297 -734.613 -1402 64 78 108
-99.3251 -735.06 -1403 63 77 106
-96.3501 -735.51 -1404 61 75 104
-93.5044 -737.01 -1407 60 74 103
-90.7752 -739.559 -1412 64 78 107
-88.2737 -744.205 -1421 64 73 97
-224.221 -760.369 -1435 75 79 103
-219.351 -754.371 -1424 62 69 103
-216.051 -753.673 -1423 54 67 100
-212.756 -752.978 -1422 51 64 97
-208.879 -750.169 -1417 45 57 90
-205.606 -749.48 -1416 44 55 85
-201.625 -746.148 -1410 49 60 91
-197.39 -741.761 -1402 47 59 90
-194.44 -742.139 -1403 48 60 90
-190.942 -740.405 -1400 54 64 93
-187.996 -740.788 -1401 56 65 93
-184.915 -740.645 -1401 50 61 91
-181.836 -740.504 -1401 51 62 92
-177.865 -736.666 -1394 53 65 95
-174.304 -734.417 -1390 50 63 96
-170.761 -732.172 -1386 52 65 98
-167.479 -730.986 -1384 54 66 99
-164.208 -729.802 -1382 50 63 96
-160.831 -728.094 -1379 50 61 91
-158.269 -730.083 -1383 46 58 87
-154.906 -728.38 -1380 40 53 81
-151.997 -728.79 -1381 46 55 87
-148.978 -728.675 -1381 60 70 100
-146.066 -729.089 -1382 43 53 81
-143.358 -730.561 -1385 36 45 72
-140.536 -731.508 -1387 36 45 72
-137.609 -731.929 -1388 40 49 77
-135.163 -734.988 -1394 43 52 78
-131.839 -733.305 -1391 48 57 81
-129.27 -735.84 -1396 47 56 79
-126.409 -736.797 -1398 42 55 78
-123.629 -738.282 -1401 49 61 86
-120.665 -738.716 -1402 55 66 93
-117.782 -739.679 -1404 56 68 93
-114.564 -738.537 -1402 57 70 97
-111.595 -738.977 -1403 61 75 102
-108.545 -738.893 -1403 63 77 106
-105.421 -738.285 -1402 63 77 106
-102.448 -738.732 -1403 63 77 106
-99.4007 -738.655 -1403 64 78 107
-96.6293 -740.686 -1407 62 76 105
-93.5755 -740.614 -1407 62 76 105
-91.0372 -744.754 -1415 63 77 106
-88.3407 -747.844 -1421 61 71 93
-224.238 -763.552 -1434 71 76 100
-219.367 -757.524 -1423 59 68 101
-216.065 -756.823 -1422 53 68 100
-211.872 -752.932 -1415 53 66 99
-208.302 -751.173 -1412 47 58 91
-205.038 -750.481 -1411 43 54 84
-201.637 -749.26 -1409 48 61 91
-197.824 -746.447 -1404 49 63 94
-194.729 -746.296 -1404 52 66 95
-191.226 -744.552 -1401 56 67 96
-188.409 -745.468 -1403 57 66 94
-184.793 -743.199 -1399 53 64 94
-181.976 -744.119 -1401 54 65 95
-178.002 -740.263 -1394 54 65 96
-174.689 -739.065 -1392 51 64 97
-170.892 -735.746 -1386 54 66 99
-167.366 -733.493 -1382 54 66 99
-164.097 -732.304 -1380 50 63 96
-161.188 -732.709 -1381 51 62 92
-158.162 -732.586 -1381 50 62 91
-155.137 -732.465 -1381 47 61 88
-152.555 -734.468 -1385 55 64 96
-149.524 -734.352 -1385 68 77 108
-146.178 -732.648 -1382 37 48 76
-143.364 -733.596 -1384 34 43 70
-140.746 -735.607 -1388 36 45 72
-137.516 -734.441 -1386 37 46 74
-134.781 -735.925 -1389 41 50 78
-131.845 -736.353 -1390 46 55 81
-129.091 -737.842 -1393 48 57 81
-126.144 -738.273 -1394 41 55 78
-123.547 -740.825 -1399 47 60 85
-120.585 -741.261 -1400 53 66 91
-117.788 -742.758 -1403 55 67 92
-114.815 -743.198 -1404 56 69 96
-111.68 -742.582 -1403 60 74 101
-108.705 -743.026 -1404 62 76 105
-105.802 -744.003 -1406 61 75 104
-102.745 -743.923 -1406 59 73 102
-100.115 -747.019 -1412 61 74 102
-97.0468 -746.944 -1412 60 74 103
-94.1795 -748.457 -1415 60 74 103
-91.2356 -749.444 -1417 59 73 102
-88.5949 -753.077 -1424 60 70 91
-230.767 -778.153 -1454 90 94 112
-223.943 -765.668 -1431 68 75 99
-219.692 -761.75 -1424 58 69 99
-216.385 -761.045 -1423 49 66 97
-212.337 -757.67 -1417 47 62 94
-208.759 -755.902 -1414 48 59 94
-205.197 -754.138 -1411 45 56 86
-201.937 -753.445 -1410 49 61 92
-197.978 -750.084 -1404 52 66 97
-194.741 -749.397 -1403 55 69 100
-191.237 -747.645 -1400 58 70 100
-188.69 -749.633 -1404 56 67 95
-184.804 -746.285 -1398 53 64 94
-181.857 -746.676 -1399 54 65 95
-177.757 -742.267 -1391 54 65 95
-174.447 -741.063 -1389 53 67 98
-170.901 -738.796 -1385 55 68 100
-167.617 -737.598 -1383 53 66 99
-164.581 -737.469 -1383 50 63 96
-161.663 -737.876 -1384 50 61 92
-158.513 -737.219 -1383 49 61 90
-155.37 -736.564 -1382 47 61 88
-152.452 -736.978 -1383 57 66 97
-149.208 -735.796 -1381 64 74 104
-146.608 -737.812 -1385 33 44 72
-143.682 -738.232 -1386 31 42 70
-141.26 -741.318 -1392 38 49 77
-138.019 -740.145 -1390 42 51 79
-134.982 -740.04 -1390 43 52 79
-131.946 -739.936 -1390 42 52 77
-129.097 -740.9 -1392 45 55 78
-126.241 -741.866 -1394 44 58 81
-123.642 -744.43 -1399 48 62 87
-120.592 -744.336 -1399 51 65 91
-117.879 -746.372 -1403 54 66 90
-114.74 -745.75 -1402 54 68 94
-111.846 -746.727 -1404 59 73 100
-108.866 -747.173 -1405 63 77 106
-106.109 -749.217 -1409 61 75 104
-103.263 -750.732 -1412 58 72 101
-100.263 -751.185 -1413 63 74 102
-97.3965 -752.704 -1416 61 74 103
-94.2518 -752.099 -1415 61 75 104
-91.3701 -753.622 -1418 61 75 104
-88.4762 -755.147 -1421 59 70 91
-230.313 -779.785 -1450 88 92 110
-224.588 -771.003 -1434 66 74 97
-220.635 -768.141 -1429 56 70 97
-217.011 -766.357 -1426 49 64 92
-212.952 -762.964 -1420 46 61 91
-209.218 -760.65 -1416 48 61 96
-205.503 -758.339 -1412 48 61 93
-202.238 -757.643 -1411 50 63 94
-198.414 -754.802 -1406 52 66 97
-195.171 -754.111 -1405 56 67 99
-191.66 -752.35 -1402 57 68 98
-188.702 -752.738 -1403 56 67 95
-184.948 -749.91 -1398 54 65 95
-181.868 -749.767 -1398 56 67 97
-178.407 -748.018 -1395 56 67 97
-174.708 -745.199 -1390 50 65 96
-171.157 -742.92 -1386 52 67 98
-167.99 -742.252 -1385 51 65 96
-164.828 -741.586 -1384 50 63 96
-162.022 -742.53 -1386 50 62 92
-158.866 -741.87 -1385 46 57 87
-155.94 -742.283 -1386 42 53 81
-152.791 -741.627 -1385 53 62 92
-149.864 -742.045 -1386 58 68 97
-146.934 -742.465 -1387 36 47 75
-143.793 -741.817 -1386 32 43 71
-140.963 -742.776 -1388 37 47 75
-138.026 -743.203 -1389 41 50 78
-135.281 -744.702 -1392 44 53 77
-132.239 -744.598 -1392 44 54 77
-129.383 -745.566 -1394 44 56 78
-126.429 -746.002 -1395 46 60 85
-123.826 -748.578 -1400 50 64 90
-120.858 -749.018 -1401 52 66 93
-118.054 -750.529 -1404 54 66 89
-115.074 -750.973 -1405 54 67 93
-112.092 -751.419 -1406 58 72 99
-109.261 -752.937 -1409 61 75 104
-106.267 -753.388 -1410 62 76 104
-103.489 -755.444 -1414 64 77 106
-100.553 -756.433 -1416 67 79 107
-97.5407 -756.89 -1417 63 77 106
-94.7912 -759.486 -1422 61 75 104
-91.5051 -757.812 -1419 61 75 104
-88.6068 -759.344 -1422 61 71 95
-229.699 -780.864 -1445 85 90 110
-224.451 -773.661 -1432 65 74 99
-220.19 -769.704 -1425 54 66 97
-217.029 -769.532 -1425 50 64 93
-212.819 -765.583 -1418 49 63 92
-209.234 -763.798 -1415 50 64 97
-205.518 -761.476 -1411 49 62 96
-202.54 -761.855 -1412 50 62 96
-198.711 -759 -1407 55 66 98
-195.463 -758.305 -1406 55 66 96
-191.673 -755.457 -1401 54 65 95
-188.985 -756.925 -1404 50 61 89
-185.755 -756.239 -1403 50 61 91
-182.011 -753.4 -1398 55 66 97
-178.418 -751.103 -1394 56 67 98
-175.097 -749.887 -1392 52 64 94
-171.415 -747.058 -1387 46 60 90
-168.121 -745.848 -1385 45 59 90
-165.195 -746.255 -1386 49 64 95
-162.383 -747.204 -1388 51 63 93
-159.219 -746.54 -1387 43 54 82
-156.062 -745.878 -1386 37 48 78
-153.241 -746.833 -1388 55 65 93
-150.089 -746.177 -1387 59 68 96
-147.154 -746.598 -1388 39 49 78
-144.425 -748.098 -1391 34 43 73
-141.581 -749.062 -1393 35 45 74
-138.432 -748.415 -1392 37 46 74
-135.678 -749.921 -1395 40 49 75
-132.532 -749.278 -1394 44 55 81
-129.577 -749.713 -1395 46 60 87
-126.346 -748.539 -1393 47 62 91
-124.011 -752.74 -1401 50 64 92
-121.124 -753.718 -1403 51 65 90
-118.23 -754.699 -1405 54 68 91
-115.246 -755.146 -1406 56 70 94
-112.338 -756.131 -1408 60 74 99
-109.268 -756.044 -1408 60 74 101
-106.5 -758.108 -1412 61 75 102
-103.789 -760.711 -1417 62 76 103
-100.418 -758.484 -1413 62 76 105
-97.4098 -758.943 -1414 61 75 104
-94.3311 -758.869 -1414 59 74 103
-91.3825 -759.87 -1416 60 75 104
-88.4885 -761.41 -1419 63 72 100
-85.8831 -765.634 -1427 73 81 107
-230.039 -785.184 -1446 78 83 105
-224.629 -777.403 -1432 64 72 99
-220.519 -773.97 -1426 56 67 99
-217.2 -773.254 -1425 53 66 96
-212.837 -768.743 -1417 54 68 97
-209.103 -766.406 -1413 55 70 102
-205.535 -764.615 -1410 53 66 100
-202.556 -764.996 -1411 52 64 98
-199.15 -763.753 -1409 53 64 95
-195.617 -761.971 -1406 52 63 95
-192.372 -761.276 -1405 52 63 94
-188.999 -760.042 -1403 49 60 89
-185.901 -759.894 -1403 49 60 90
-182.024 -756.5 -1397 57 68 98
-178.815 -755.816 -1396 55 66 98
-175.234 -753.511 -1392 50 61 91
-171.921 -752.292 -1390 48 60 91
-168.617 -751.075 -1388 44 57 90
-165.444 -750.402 -1387 49 62 94
-162.51 -750.814 -1388 51 63 92
-159.229 -749.606 -1386 44 55 83
-156.184 -749.482 -1386 41 52 80
-153.583 -751.523 -1390 56 66 94
-150.207 -749.782 -1387 54 63 91
-147.694 -752.367 -1392 36 45 75
-144.642 -752.252 -1392 34 43 73
-141.794 -753.22 -1394 35 44 74
-138.541 -752.029 -1392 37 46 74
-136.076 -755.163 -1398 40 49 75
-132.826 -753.977 -1396 43 54 80
-130.05 -755.494 -1399 47 61 88
-127.081 -755.933 -1400 50 65 94
-124.197 -756.914 -1402 50 65 92
-121.478 -758.977 -1406 51 65 90
-118.575 -759.963 -1408 55 69 92
-115.664 -760.951 -1410 57 71 95
-112.825 -762.48 -1413 60 74 99
-109.897 -763.472 -1415 62 76 103
-106.81 -763.387 -1415 62 76 103
-103.724 -763.304 -1415 61 75 103
-100.781 -764.303 -1417 59 73 104
-97.6237 -763.686 -1416 58 73 103
-94.7386 -765.229 -1419 58 73 102
-91.6477 -765.156 -1419 58 73 102
-88.62 -765.624 -1420 61 71 98
-86.0103 -769.869 -1428 68 76 100
-229.745 -787.336 -1443 78 82 104
-224.65 -780.608 -1431 62 69 98
-220.539 -777.158 -1425 54 65 97
-217.068 -775.893 -1423 53 66 96
-213.457 -774.086 -1420 53 67 96
-209.565 -771.193 -1415 54 69 102
-206.135 -769.938 -1413 53 67 100
-202.86 -769.23 -1412 54 67 100
-199.167 -766.892 -1408 58 69 99
-195.354 -764.012 -1403 55 66 97
-192.113 -763.314 -1402 51 63 94
-188.744 -762.074 -1400 52 64 94
-185.783 -762.469 -1401 53 65 95
-182.037 -759.603 -1396 58 69 100
-178.571 -757.827 -1393 55 66 98
-175.499 -757.687 -1393 50 61 91
-171.933 -755.374 -1389 48 60 91
-168.629 -754.152 -1387 45 58 90
-165.813 -755.106 -1389 47 60 93
-162.639 -754.433 -1388 47 59 89
-159.585 -754.305 -1388 45 56 84
-156.533 -754.18 -1388 49 58 86
-153.814 -755.687 -1391 57 67 95
-150.542 -754.481 -1389 58 67 96
-148.023 -757.078 -1394 39 48 78
-145.276 -758.592 -1397 33 42 72
-142.313 -759.021 -1398 37 46 76
-139.248 -758.91 -1398 40 49 77
-136.671 -761.515 -1403 41 50 76
-133.311 -759.78 -1400 43 53 80
-130.524 -761.304 -1403 47 59 87
-127.453 -761.202 -1403 50 65 94
-124.738 -763.273 -1407 51 66 93
-121.574 -762.633 -1406 51 65 90
-118.837 -764.708 -1410 56 70 93
-115.837 -765.158 -1411 59 73 97
-112.754 -765.068 -1411 64 78 103
-110.061 -767.691 -1416 64 78 105
-106.894 -767.063 -1415 62 76 104
-103.805 -766.98 -1415 62 76 104
-100.86 -767.984 -1417 59 73 104
-97.7693 -767.906 -1417 59 73 102
-94.6794 -767.83 -1417 60 74 103
-91.7197 -768.84 -1419 56 71 100
-88.5646 -768.227 -1418 62 72 98
-86.0778 -773.576 -1428 68 76 101
-230.088 -791.673 -1444 76 80 100
-225.458 -786.557 -1435 62 70 99
-221.335 -783.09 -1429 56 67 99
-217.699 -781.271 -1426 53 66 97
-213.778 -778.359 -1421 53 67 97
-210.177 -776.546 -1418 53 68 102
-206.738 -775.284 -1416 56 69 103
-203.022 -772.931 -1412 57 70 103
-199.75 -772.223 -1411 58 70 101
-196.206 -770.423 -1408 54 66 98
-192.54 -768.079 -1404 53 65 97
-189.029 -766.286 -1401 52 66 95
-185.931 -766.137 -1401 57 71 100
-182.443 -764.349 -1398 56 69 99
-178.842 -762.019 -1394 51 63 95
-175.638 -761.331 -1393 51 62 93
-172.689 -761.738 -1394 48 60 91
-169.006 -758.87 -1389 43 57 87
-166.303 -760.376 -1392 43 56 88
-163.12 -759.699 -1391 45 57 87
-159.942 -759.024 -1390 45 56 84
-156.996 -759.444 -1391 46 55 83
-154.047 -759.866 -1392 53 62 91
-151.204 -760.836 -1394 62 71 101
-148.353 -761.809 -1396 44 53 83
-145.495 -762.784 -1398 37 46 76
-142.833 -764.851 -1402 39 48 78
-139.557 -763.648 -1400 42 51 79
-136.779 -765.175 -1403 41 50 77
-133.798 -765.613 -1404 42 52 78
-130.814 -766.053 -1405 48 59 87
-127.827 -766.496 -1406 51 66 95
-124.925 -767.486 -1408 51 66 93
-121.93 -767.933 -1409 51 65 90
-119.184 -770.017 -1413 55 69 93
-116.504 -772.648 -1418 61 75 100
-113.483 -773.102 -1419 66 80 105
-110.148 -771.379 -1416 65 79 106
-107.281 -772.927 -1419 63 77 105
-104.034 -771.754 -1417 61 75 104
-101.011 -772.218 -1418 63 77 107
-97.9846 -772.683 -1419 62 76 104
-94.9548 -773.152 -1420 62 76 103
-91.9214 -773.622 -1421 57 71 98
-88.8846 -774.095 -1422 62 72 99
-86.1458 -777.292 -1428 66 75 101
-229.635 -793.271 -1440 69 74 92
-225.167 -788.681 -1432 64 73 101
-221.203 -785.748 -1427 57 69 102
-217.11 -782.269 -1421 54 66 98
-213.798 -781.545 -1420 55 69 100
-210.345 -780.273 -1418 55 70 104
-206.903 -779.005 -1416 57 71 105
-203.184 -776.64 -1412 56 69 104
-199.768 -775.379 -1410 56 70 101
-195.945 -772.471 -1405 53 67 98
-192.145 -769.566 -1400 52 66 97
-188.64 -767.764 -1397 50 64 93
-185.548 -767.614 -1397 53 67 96
-182.197 -766.368 -1395 53 67 97
-179.241 -766.773 -1396 50 64 95
-175.652 -764.434 -1392 52 64 96
-172.827 -765.392 -1394 49 61 92
-169.506 -764.157 -1392 45 59 88
-166.197 -762.925 -1390 44 58 89
-163.25 -763.342 -1391 42 55 84
-160.185 -763.213 -1391 40 51 79
-157.008 -762.537 -1390 41 50 78
-154.281 -764.058 -1393 46 55 84
-151.433 -765.033 -1395 58 67 97
-148.578 -766.01 -1397 48 57 87
-146.027 -768.634 -1402 39 48 78
-142.947 -768.518 -1402 36 45 75
-139.968 -768.954 -1403 41 50 79
-136.888 -768.843 -1403 42 50 77
-133.904 -769.283 -1404 43 52 79
-130.918 -769.725 -1405 48 59 87
-127.656 -768.527 -1403 52 66 95
-124.936 -770.617 -1407 53 67 95
-122.027 -771.614 -1409 53 67 92
-119.194 -773.16 -1412 56 70 95
-116.432 -775.257 -1416 60 74 99
-113.413 -775.712 -1417 63 77 102
-110.469 -776.718 -1419 63 77 104
-107.139 -774.989 -1416 60 74 102
-104.264 -776.547 -1419 63 77 106
-101.02 -775.371 -1417 65 79 108
-98.1315 -776.933 -1420 65 79 107
-95.0301 -776.856 -1420 63 77 104
-92.1886 -778.97 -1424 60 74 101
-89.0175 -778.351 -1423 62 72 100
-86.2141 -781.016 -1428 65 73 100
-230.139 -798.178 -1442 68 71 90
-225.664 -793.565 -1434 63 72 100
-222.002 -791.724 -1431 55 68 101
-217.744 -787.674 -1424 54 68 100
-214.272 -786.393 -1422 53 68 100
-210.663 -784.562 -1419 56 71 103
-207.363 -783.841 -1418 57 71 106
-203.636 -781.464 -1414 54 68 105
-199.929 -779.09 -1410 57 70 103
-196.102 -776.168 -1405 56 70 101
-192.3 -773.25 -1400 55 69 100
-188.657 -770.887 -1396 50 64 93
-185.564 -770.736 -1396 51 65 94
-182.343 -770.036 -1395 52 66 95
-179.385 -770.442 -1396 51 65 96
-176.299 -770.299 -1396 52 66 97
-173.338 -770.71 -1397 51 65 95
-169.886 -768.917 -1394 46 60 89
-166.689 -768.23 -1393 43 57 88
-163.616 -768.097 -1393 39 52 82
-160.544 -767.967 -1393 37 48 76
-157.586 -768.39 -1394 42 51 78
-154.183 -766.611 -1391 50 59 88
-151.663 -769.244 -1396 63 72 102
-148.59 -769.123 -1396 55 64 94
-146.04 -771.759 -1401 46 55 85
-143.164 -772.745 -1403 40 49 79
-140.379 -774.283 -1406 42 51 81
-137.485 -775.273 -1408 43 51 80
-133.916 -772.411 -1403 45 52 81
-131.209 -774.507 -1407 49 59 87
-128.213 -774.953 -1408 53 66 95
-125.125 -774.852 -1408 53 67 95
-122.297 -776.404 -1411 52 66 91
-119.627 -779.058 -1416 53 67 92
-116.607 -779.514 -1417 58 72 97
-113.904 -782.171 -1422 59 73 98
-110.791 -782.082 -1422 61 75 102
-107.527 -780.894 -1420 63 77 105
-104.347 -780.26 -1419 65 79 108
-101.386 -781.277 -1421 64 78 107
-98.4174 -782.296 -1423 65 79 107
-95.5078 -783.868 -1426 64 78 105
-92.5213 -784.892 -1428 61 75 102
-89.4015 -784.819 -1428 64 74 101
-86.585 -787.497 -1433 66 75 101
-234.681 -806.074 -1449 92 93 107
-230.326 -801.991 -1442 66 69 88
-225.847 -797.357 -1434 61 70 98
-222.027 -794.951 -1430 57 70 102
-217.92 -791.437 -1424 56 70 102
-214.446 -790.15 -1422 55 70 102
-211.131 -789.421 -1421 58 73 105
-207.823 -788.695 -1420 56 71 105
-203.945 -785.751 -1415 60 74 111
-200.091 -782.811 -1410 62 77 111
-196.401 -780.43 -1406 59 73 105
-192.318 -776.387 -1399 59 73 104
-188.674 -774.013 -1395 55 69 100
-185.714 -774.416 -1396 50 64 94
-182.752 -774.821 -1397 48 62 91
-179.659 -774.675 -1397 49 63 94
-176.82 -775.64 -1399 53 67 98
-173.974 -776.606 -1401 53 67 98
-170.389 -774.25 -1397 45 59 88
-167.422 -774.667 -1398 45 59 90
-164.218 -773.979 -1397 43 56 86
-160.904 -772.74 -1395 40 51 79
-158.053 -773.719 -1397 52 61 87
-154.64 -771.931 -1394 57 66 95
-151.785 -772.915 -1396 51 60 92
-148.71 -772.793 -1396 40 49 79
-146.158 -775.442 -1401 37 46 76
-143.074 -775.325 -1401 40 49 79
-140.292 -776.871 -1404 43 52 82
-137.498 -778.419 -1407 44 52 81
-134.692 -779.969 -1410 47 54 83
-131.781 -780.968 -1412 51 60 88
-128.863 -781.969 -1414 53 66 95
-125.67 -781.313 -1413 52 66 94
-122.483 -780.66 -1412 50 64 89
-119.723 -782.774 -1416 51 65 90
-116.783 -783.784 -1418 56 70 95
-113.675 -783.691 -1418 57 71 96
-110.724 -784.706 -1420 60 74 101
-107.689 -785.171 -1421 64 78 105
-104.578 -785.086 -1421 63 77 106
-101.61 -786.108 -1423 63 77 108
-98.8424 -788.789 -1428 65 79 108
-95.8525 -789.816 -1430 65 79 106
-92.9196 -791.396 -1433 62 76 103
-89.8492 -791.875 -1434 64 74 101
-86.8358 -792.909 -1436 65 74 100
-234.873 -809.917 -1449 93 93 107
-230.194 -804.697 -1440 70 73 93
-226.189 -801.716 -1435 62 71 100
-222.829 -800.974 -1434 56 68 101
-218.404 -796.326 -1426 54 68 101
-214.772 -794.473 -1423 53 70 102
-211.452 -793.741 -1422 57 72 106
-207.992 -792.454 -1420 57 72 107
-204.255 -790.054 -1416 62 76 113
-200.538 -787.657 -1412 65 80 114
-196.561 -784.148 -1406 60 75 107
-192.474 -780.086 -1399 58 72 103
-189.098 -778.815 -1397 57 72 103
-185.865 -778.105 -1396 51 66 96
-182.901 -778.512 -1397 49 64 93
-179.934 -778.922 -1398 49 63 92
-176.964 -779.333 -1399 51 65 96
-174.115 -780.305 -1401 53 67 97
-170.894 -779.608 -1400 46 60 89
-167.558 -778.356 -1398 45 59 90
-164.469 -778.221 -1398 45 58 88
-161.15 -776.976 -1396 43 54 82
-158.181 -777.403 -1397 53 62 88
-155.098 -777.275 -1397 54 63 91
-152.017 -777.151 -1397 36 45 77
-148.83 -776.472 -1396 31 40 70
-145.963 -777.465 -1398 34 43 73
-143.292 -779.572 -1402 37 46 76
-140.406 -780.569 -1404 39 48 78
-137.707 -782.68 -1408 44 52 81
-134.993 -784.792 -1412 48 55 84
-131.981 -785.24 -1413 52 61 89
-128.876 -785.134 -1413 53 64 93
-126.216 -787.809 -1418 53 64 94
-123.102 -787.708 -1418 53 64 92
-119.989 -787.61 -1418 53 67 92
-117.207 -789.735 -1422 56 70 95
-114.329 -791.308 -1425 58 72 97
-111.048 -790.106 -1423 62 76 103
-108.08 -791.128 -1425 60 74 102
-104.736 -789.376 -1422 57 71 100
-101.907 -791.513 -1426 58 72 103
-98.9913 -793.097 -1429 63 77 106
-96.3322 -796.903 -1436 66 80 107
-93.1244 -796.271 -1435 64 78 103
-90.2352 -798.417 -1439 64 75 101
-86.9663 -797.235 -1437 63 72 98
-230.383 -808.524 -1440 70 73 92
-226.532 -806.09 -1436 60 70 99
-222.701 -803.66 -1432 58 70 102
-218.43 -799.551 -1425 57 70 103
-214.948 -798.251 -1423 57 73 106
-211.476 -796.954 -1421 57 73 106
-207.283 -792.857 -1414 58 73 108
-203.845 -791.566 -1412 58 74 110
-199.849 -788.038 -1406 61 76 109
-196.581 -787.315 -1405 58 72 105
-192.632 -783.794 -1399 56 69 101
-189.659 -784.197 -1400 54 69 100
-186.15 -782.363 -1397 50 65 95
-183.05 -782.211 -1397 50 65 94
-180.081 -782.623 -1398 51 65 94
-177.108 -783.036 -1399 53 67 97
-174.133 -783.453 -1400 53 67 97
-171.155 -783.871 -1401 43 57 85
-168.055 -783.732 -1401 46 60 90
-165.191 -784.715 -1403 42 56 87
-161.743 -782.903 -1400 44 55 84
-158.65 -782.773 -1400 53 62 90
-155.113 -780.408 -1396 55 64 93
-152.467 -782.518 -1400 43 52 84
-149.058 -780.718 -1397 42 51 81
-146.395 -782.833 -1401 41 50 80
-143.307 -782.715 -1401 41 50 80
-140.42 -783.717 -1403 41 50 80
-137.526 -784.721 -1405 45 53 82
-135.102 -788.519 -1412 48 55 84
-132.369 -790.643 -1416 51 60 88
-129.346 -791.095 -1417 52 62 92
-126.675 -793.782 -1422 53 64 94
-123.463 -793.122 -1421 55 66 94
-120.51 -794.139 -1423 54 68 93
-117.22 -792.926 -1421 54 68 93
-114.261 -793.948 -1423 57 71 96
-111.138 -793.856 -1423 63 77 104
-108.243 -795.441 -1426 59 73 101
-105.19 -795.912 -1427 57 71 100
-102.418 -798.616 -1432 58 72 101
-99.4183 -799.649 -1434 61 75 103
-96.6118 -802.357 -1439 64 78 105
-93.6544 -803.953 -1442 64 78 103
-90.6221 -804.993 -1444 64 75 102
-87.4607 -804.921 -1444 63 72 100
-230.413 -811.796 -1439 65 71 91
-226.561 -809.35 -1435 61 72 103
-223.04 -808.037 -1433 59 71 104
-218.917 -804.471 -1427 58 71 105
-214.973 -801.474 -1422 59 72 106
-210.906 -797.916 -1416 59 73 108
-207.454 -796.617 -1414 58 72 108
-203.579 -793.631 -1409 54 70 105
-199.729 -790.649 -1404 55 70 103
-197.303 -793.3 -1409 56 70 103
-193.066 -788.636 -1401 54 68 100
-190.357 -790.166 -1404 54 69 100
-186.703 -787.76 -1400 54 69 100
-183.856 -788.733 -1402 53 67 97
-180.744 -788.583 -1402 51 65 95
-177.634 -788.435 -1402 51 65 95
-174.649 -788.853 -1403 50 64 94
-171.54 -788.711 -1403 43 57 85
-168.433 -788.571 -1403 41 55 85
-165.091 -787.31 -1401 43 57 88
-162.107 -787.737 -1402 45 56 84
-159.233 -788.729 -1404 51 60 87
-156.019 -788.038 -1403 54 63 91
-153.137 -789.034 -1405 50 59 90
-150.248 -790.033 -1407 49 58 88
-147.038 -789.349 -1406 46 55 86
-143.936 -789.23 -1406 44 53 84
-141.136 -790.797 -1409 44 53 84
-138.324 -792.366 -1412 43 52 81
-135.309 -792.815 -1413 46 55 83
-132.664 -795.511 -1418 49 59 88
-130.182 -799.33 -1425 50 60 89
-127.046 -799.225 -1425 53 63 92
-124.259 -801.365 -1429 55 67 91
-121.117 -801.265 -1429 55 67 94
-118.059 -801.728 -1430 53 66 92
-114.675 -799.95 -1427 56 70 95
-112.01 -803.221 -1433 60 74 100
-108.787 -802.57 -1432 60 74 102
-105.57 -801.922 -1431 60 72 102
-99.7074 -805.116 -1437 62 76 106
-97.0264 -808.958 -1444 64 78 103
-94.4458 -813.921 -1453 66 78 106
-91.1355 -812.725 -1451 64 75 103
-87.6532 -809.852 -1446 62 72 100
-230.444 -815.072 -1438 63 68 92
-226.749 -813.182 -1435 57 68 101
-223.692 -813.561 -1436 58 70 104
-219.559 -809.978 -1430 58 71 106
-215.757 -807.532 -1426 60 73 106
-211.975 -805.09 -1422 60 73 110
-207.625 -800.387 -1414 58 72 109
-203.748 -797.386 -1409 55 69 104
-199.752 -793.824 -1403 54 69 103
-196.906 -794.791 -1405 56 71 104
-193.501 -793.498 -1403 54 69 100
-190.786 -795.035 -1406 54 69 100
-186.991 -792.052 -1401 54 69 100
-184.008 -792.463 -1402 53 67 98
-180.635 -791.182 -1400 50 64 95
-177.653 -791.599 -1401 47 61 92
-174.295 -790.324 -1399 49 63 93
-171.559 -791.875 -1402 45 59 89
-168.451 -791.735 -1402 41 55 85
-165.817 -793.856 -1406 39 53 84
-162.24 -791.462 -1402 39 50 78
-159.478 -793.022 -1405 43 53 79
-156.258 -792.328 -1404 45 54 81
-153.481 -793.893 -1407 46 55 85
-149.944 -791.511 -1403 51 60 90
-147.368 -794.209 -1408 50 59 89
-143.952 -792.397 -1405 45 54 86
-140.851 -792.279 -1405 44 53 85
-137.947 -793.292 -1407 43 52 82
-135.228 -795.435 -1411 47 56 84
-132.492 -797.579 -1415 48 59 88
-130.198 -802.544 -1424 51 61 88
-127.24 -803.565 -1426 54 63 90
-124.448 -805.715 -1430 54 66 90
-121.217 -805.051 -1429 57 67 93
-118.321 -806.642 -1432 58 68 95
-115.091 -805.983 -1431 58 71 96
-112.18 -807.579 -1434 58 72 99
-109.181 -808.615 -1436 56 70 98
-106.026 -808.526 -1436 59 71 102
-103.159 -810.692 -1440 59 74 107
-100.275 -812.86 -1444 60 75 105
-97.5095 -816.156 -1450 65 79 106
-94.393 -816.64 -1451 68 79 109
-91.4616 -818.815 -1455 64 75 103
-88.1496 -817.616 -1453 57 68 95
-229.995 -816.644 -1434 63 69 90
-227.096 -817.592 -1436 56 67 100
-224.19 -818.542 -1438 56 68 102
-219.895 -814.372 -1431 58 71 107
-216.391 -813.052 -1429 58 71 104
-212.45 -810.028 -1424 58 71 108
-207.798 -804.165 -1414 56 70 109
-203.917 -801.15 -1409 55 69 106
-200.345 -799.276 -1406 54 69 104
-196.929 -797.974 -1404 55 70 104
-193.662 -797.243 -1403 54 69 100
-190.672 -797.651 -1404 55 70 101
-187.28 -796.358 -1402 55 70 101
-184.292 -796.771 -1403 53 67 98
-180.785 -794.916 -1400 51 65 96
-177.801 -795.334 -1401 48 62 93
-174.44 -794.053 -1399 46 60 91
-171.701 -795.612 -1402 42 56 87
-168.35 -794.336 -1400 44 58 89
-165.246 -794.197 -1400 41 55 86
-162.143 -794.061 -1400 38 49 77
-159.496 -796.196 -1404 42 52 78
-156.833 -798.333 -1408 46 55 82
-154.045 -799.905 -1411 42 51 81
-151.031 -800.346 -1412 46 55 85
-147.909 -800.222 -1412 46 55 85
-144.891 -800.667 -1413 45 54 86
-141.469 -798.849 -1410 45 54 86
-138.454 -799.299 -1411 43 52 82
-135.723 -801.451 -1415 46 55 83
-132.883 -803.039 -1418 48 59 87
-130.397 -806.894 -1425 52 62 89
-127.523 -808.486 -1428 55 64 90
-124.987 -812.345 -1435 52 64 89
-121.656 -811.11 -1433 55 65 90
-118.914 -813.841 -1438 61 70 96
-115.428 -811.48 -1434 63 75 99
-112.742 -814.781 -1440 59 72 99
-109.423 -813.558 -1438 55 69 97
-106.261 -813.469 -1438 56 70 101
-103.172 -813.948 -1439 61 75 106
-100.427 -817.257 -1445 63 77 107
-97.4551 -818.872 -1448 66 80 110
-94.4708 -820.49 -1451 68 79 109
-91.474 -822.109 -1454 64 76 102
-230.187 -820.492 -1434 61 67 87
-227.444 -822.016 -1437 55 66 99
-224.222 -821.826 -1437 54 66 100
-220.387 -819.352 -1433 58 71 108
-216.723 -817.454 -1430 60 73 106
-212.627 -813.844 -1424 58 72 108
-208.707 -810.81 -1419 56 70 109
-204.232 -805.495 -1410 55 69 106
-200.37 -802.47 -1405 54 68 103
-196.953 -801.161 -1403 54 69 103
-193.685 -800.427 -1402 56 71 103
-190.832 -801.407 -1404 57 72 103
-187.436 -800.108 -1402 55 70 101
-184.446 -800.523 -1403 51 66 97
-181.194 -799.799 -1402 48 62 93
-178.076 -799.649 -1402 45 59 90
-174.335 -796.65 -1397 42 56 87
-171.844 -799.357 -1402 41 55 86
-168.37 -797.505 -1399 42 56 87
-165.62 -799.075 -1402 43 57 88
-162.51 -798.938 -1402 46 57 85
-159.856 -801.083 -1406 49 58 85
-156.741 -800.951 -1406 47 56 83
-153.845 -801.961 -1408 46 55 85
-150.942 -802.973 -1410 46 55 85
-147.717 -802.279 -1409 44 53 83
-144.704 -802.727 -1410 44 53 83
-141.687 -803.176 -1411 46 55 87
-138.667 -803.629 -1412 45 54 84
-136.124 -806.929 -1418 47 56 84
-133.275 -808.524 -1421 47 57 85
-130.688 -811.828 -1427 48 58 85
-127.808 -813.427 -1430 51 60 86
-124.916 -815.028 -1433 52 64 89
-121.842 -815.494 -1434 56 66 92
-118.848 -816.532 -1436 60 70 96
-115.604 -815.865 -1435 61 73 96
-112.679 -817.476 -1438 58 71 97
-109.285 -815.679 -1435 57 71 98
-106.201 -816.158 -1436 57 70 101
-103.186 -817.207 -1438 59 72 100
-100.371 -819.964 -1443 63 76 106
-97.4685 -822.155 -1447 66 78 110
-94.549 -824.348 -1451 67 78 108
-91.2349 -823.134 -1449 68 79 105
-230.703 -825.5 -1436 62 68 90
-227.794 -826.456 -1438 56 66 98
-224.723 -826.839 -1439 55 66 100
-220.572 -823.204 -1433 57 70 105
-216.754 -820.722 -1429 60 73 106
-212.806 -817.67 -1424 58 72 107
-208.588 -813.473 -1417 56 70 109
-204.259 -808.707 -1409 55 69 106
-200.824 -807.389 -1407 54 68 104
-197.259 -805.5 -1404 54 68 103
-194.124 -805.335 -1404 54 69 103
-191.128 -805.746 -1405 56 71 103
-187.459 -803.293 -1401 53 68 99
-184.6 -804.284 -1403 48 63 94
-181.605 -804.703 -1404 43 58 89
-178.352 -803.979 -1403 40 55 86
-174.856 -802.111 -1400 41 55 86
-171.743 -801.966 -1400 42 56 87
-168.27 -800.105 -1397 43 57 88
-165.404 -801.11 -1399 44 57 89
-162.646 -802.69 -1402 46 57 85
-160.104 -805.417 -1407 51 61 89
-157.095 -805.857 -1408 51 60 88
-154.083 -806.299 -1409 46 55 85
-151.175 -807.315 -1411 45 54 84
-148.155 -807.762 -1412 44 53 83
-145.03 -807.639 -1412 45 54 84
-142.006 -808.091 -1413 46 55 85
-139.372 -810.832 -1418 44 53 83
-136.334 -811.289 -1419 46 55 84
-133.574 -813.463 -1423 48 57 85
-130.797 -815.639 -1427 47 56 83
-127.646 -815.531 -1427 48 57 84
-125.02 -818.854 -1433 52 63 89
-121.774 -818.179 -1432 56 67 94
-118.698 -818.65 -1433 57 68 96
-115.62 -819.123 -1434 59 71 95
-112.459 -819.028 -1434 60 72 96
-109.224 -818.364 -1433 59 71 97
-106.142 -818.846 -1434 60 71 101
-103.2 -820.471 -1437 61 73 99
-100.246 -822.099 -1440 66 78 105
-97.3474 -824.3 -1444 67 78 110
-94.432 -826.503 -1448 66 77 106
-91.1848 -825.855 -1447 67 77 104
-231.059 -829.95 -1437 64 69 94
-228.146 -830.91 -1439 58 68 98
-224.757 -830.141 -1438 54 66 98
-220.759 -827.065 -1433 54 67 100
-217.393 -826.303 -1432 53 66 99
-213.435 -823.235 -1427 54 68 103
-209.207 -819.018 -1420 56 70 109
-205.012 -814.806 -1413 56 70 107
-201.279 -812.328 -1409 54 68 105
-197.566 -809.853 -1405 53 67 104
-194.427 -809.687 -1405 52 67 101
-191.153 -808.948 -1404 54 69 102
-188.019 -808.788 -1404 52 67 99
-184.756 -808.054 -1403 43 58 89
-181.499 -807.323 -1402 40 55 86
-178.121 -806.02 -1400 39 54 85
-175.003 -805.871 -1400 39 53 84
-172.01 -806.3 -1401 43 57 88
-168.774 -805.581 -1400 45 59 90
-165.543 -804.864 -1399 44 57 90
-163.015 -807.602 -1404 46 57 85
-160.011 -808.041 -1405 53 63 91
-157.227 -809.633 -1408 48 57 85
-154.103 -809.501 -1408 45 54 84
-151.088 -809.948 -1409 43 52 81
-147.86 -809.247 -1408 43 52 80
-144.843 -809.698 -1409 43 52 82
-141.824 -810.153 -1410 46 55 85
-139.194 -812.907 -1415 50 59 88
-136.544 -815.663 -1420 48 57 85
-133.592 -816.698 -1422 47 56 86
-130.815 -818.884 -1426 50 59 88
-127.843 -819.924 -1428 50 59 87
-124.863 -820.966 -1430 51 60 86
-121.705 -820.863 -1430 53 63 91
-118.632 -821.335 -1431 56 67 95
-115.474 -821.237 -1431 60 72 95
-112.318 -821.141 -1431 59 71 96
-109.163 -821.049 -1431 58 70 96
-106.008 -820.958 -1431 59 70 101
-103.071 -822.592 -1434 64 75 101
-100.191 -824.801 -1438 64 75 103
-97.024 -824.718 -1438 67 78 110
-94.1194 -826.932 -1442 67 78 106
-90.8826 -826.281 -1441 66 76 102
-230.29 -830.354 -1431 63 68 93
-227.705 -832.479 -1435 57 66 96
-224.636 -832.866 -1436 57 68 100
-220.638 -829.777 -1431 56 69 102
-217.122 -828.431 -1429 56 69 102
-213.017 -824.769 -1423 58 72 106
-208.942 -821.113 -1417 57 71 112
-204.896 -817.46 -1411 56 70 107
-201.307 -815.549 -1408 56 70 106
-197.734 -813.642 -1405 55 70 104
-194.869 -814.633 -1407 53 68 102
-191.724 -814.469 -1407 50 65 98
-188.447 -813.728 -1406 50 65 97
-184.913 -811.833 -1403 47 62 93
-182.171 -813.413 -1406 44 59 90
-178.526 -810.946 -1402 42 57 88
-175.527 -811.374 -1403 44 58 89
-172.279 -810.648 -1402 44 58 89
-169.399 -811.66 -1404 46 60 91
-165.801 -809.205 -1400 46 59 92
-163.385 -812.534 -1406 50 61 91
-160.374 -812.975 -1407 46 56 85
-157.472 -813.995 -1409 30 39 67
-154.343 -813.863 -1409 30 39 69
-151.43 -814.889 -1411 35 44 73
-147.985 -813.03 -1408 42 51 79
-145.48 -816.37 -1414 45 54 84
-142.245 -815.671 -1413 45 54 84
-139.509 -817.861 -1417 47 56 85
-136.756 -820.052 -1421 48 56 82
-133.798 -821.092 -1423 49 58 88
-130.925 -822.711 -1426 53 62 91
-127.861 -823.179 -1427 52 61 89
-124.793 -823.649 -1428 51 60 86
-121.723 -824.121 -1429 51 62 88
-118.649 -824.596 -1430 55 67 92
-115.572 -825.074 -1431 60 72 95
-112.255 -823.825 -1429 58 70 95
-109.254 -824.884 -1431 54 66 92
-106.098 -824.793 -1431 55 69 100
-102.942 -824.706 -1431 61 71 99
-99.996 -826.349 -1434 65 75 103
-97.1056 -828.57 -1438 62 73 103
-93.6759 -826.185 -1434 63 74 105
-230.326 -833.65 -1430 65 70 94
-227.424 -834.619 -1432 58 66 95
-224.201 -834.426 -1432 54 65 97
-220.21 -831.322 -1427 56 69 102
-217.003 -831.135 -1427 58 71 104
-213.199 -828.621 -1423 59 72 107
-209.416 -826.111 -1419 57 71 113
-205.361 -822.441 -1413 55 69 108
-201.765 -820.521 -1410 57 71 109
-198.043 -818.022 -1406 57 71 107
-195.035 -818.436 -1407 52 67 101
-192.024 -818.852 -1408 51 66 99
-188.876 -818.689 -1408 50 65 99
-185.466 -817.367 -1406 48 63 94
-182.585 -818.372 -1408 48 63 94
-178.933 -815.893 -1404 45 60 91
-176.052 -816.904 -1406 45 60 91
-173.04 -817.336 -1407 48 62 93
-170.147 -818.351 -1409 46 60 92
-166.891 -817.627 -1408 46 59 92
-163.873 -818.066 -1409 50 61 91
-160.624 -817.348 -1408 47 57 86
-157.605 -817.792 -1409 35 44 72
-154.255 -816.499 -1407 39 48 78
-151.666 -819.27 -1412 40 49 78
-148.321 -817.982 -1410 43 52 80
-145.191 -817.857 -1410 46 55 85
-142.467 -820.055 -1414 47 56 86
-139.627 -821.675 -1417 45 54 84
-136.872 -823.877 -1421 45 52 81
-134.006 -825.501 -1424 47 56 86
-130.852 -825.388 -1424 50 59 89
-127.79 -825.858 -1425 54 63 91
-124.637 -825.751 -1425 55 64 91
-121.485 -825.646 -1425 52 63 89
-118.417 -826.124 -1426 52 64 89
-115.427 -827.183 -1428 56 65 89
-112.272 -827.086 -1428 56 67 92
-109.118 -826.993 -1428 55 67 92
-106.113 -828.059 -1430 54 68 98
-103.029 -828.55 -1431 61 71 99
-99.6619 -826.727 -1428 63 72 100
-96.5795 -827.223 -1429 60 71 99
-230.041 -835.779 -1427 65 71 93
-226.983 -836.167 -1428 58 67 94
-223.454 -834.802 -1426 53 64 96
-219.627 -832.27 -1422 55 68 101
-216.429 -832.082 -1422 56 69 101
-212.633 -829.557 -1418 59 73 105
-209.152 -828.206 -1416 57 71 113
-205.101 -824.518 -1410 55 69 107
-202.081 -824.928 -1411 56 70 107
-198.354 -822.418 -1407 55 69 106
-195.341 -822.833 -1408 52 66 102
-192.188 -822.666 -1408 51 65 101
-189.44 -824.255 -1411 49 64 98
-186.021 -822.925 -1409 45 60 91
-182.871 -822.767 -1409 45 60 91
-179.341 -820.86 -1406 45 60 91
-176.453 -821.875 -1408 45 60 91
-173.312 -821.725 -1408 45 59 90
-170.292 -822.161 -1409 44 58 89
-167.152 -822.017 -1409 46 59 92
-164.013 -821.875 -1409 52 63 94
-160.99 -822.319 -1410 60 70 99
-157.852 -822.183 -1410 53 62 90
-154.606 -821.465 -1409 51 60 90
-151.581 -821.918 -1410 45 54 82
-148.553 -822.372 -1411 42 51 79
-145.728 -823.995 -1414 46 55 85
-142.588 -823.871 -1414 48 57 87
-139.647 -824.916 -1416 46 55 85
-136.796 -826.546 -1419 45 52 82
-133.743 -827.012 -1420 45 54 84
-130.596 -826.899 -1420 50 59 88
-127.719 -828.536 -1423 53 62 89
-124.48 -827.846 -1422 53 62 89
-121.503 -828.905 -1424 51 60 87
-118.435 -829.385 -1425 50 61 89
-115.606 -831.613 -1429 53 65 88
-112.525 -832.098 -1430 55 65 90
-109.287 -831.421 -1429 56 65 91
-106.278 -832.493 -1431 54 66 96
-103.044 -831.822 -1430 59 69 96
-99.8862 -831.735 -1430 61 70 96
-96.4586 -829.325 -1426 58 70 96
-229.917 -838.49 -1425 65 72 95
-226.543 -837.703 -1424 57 65 92
-222.863 -835.744 -1421 54 66 98
-219.507 -834.964 -1420 54 68 100
-216.311 -834.776 -1420 51 65 97
-212.516 -832.239 -1416 58 72 103
-209.185 -831.469 -1415 59 72 110
-205.715 -830.114 -1413 55 69 107
-202.399 -829.35 -1412 52 66 104
-198.525 -826.24 -1407 54 68 104
-195.787 -827.831 -1410 53 67 103
-193.037 -829.425 -1413 50 64 100
-189.738 -828.673 -1412 45 61 95
-186.181 -826.75 -1409 42 57 88
-183.029 -826.591 -1409 46 61 92
-180.134 -827.607 -1411 46 61 92
-176.354 -824.521 -1406 43 58 89
-173.83 -827.302 -1411 44 58 90
-170.56 -826.567 -1410 45 57 89
-167.533 -827.008 -1411 47 59 90
-164.27 -826.279 -1410 51 62 92
-161.128 -826.139 -1410 58 68 98
-157.651 -824.244 -1407 43 52 80
-154.739 -825.281 -1409 41 50 80
-151.603 -825.15 -1409 42 51 80
-148.785 -826.777 -1412 42 51 79
-145.646 -826.65 -1412 43 52 81
-142.71 -827.697 -1414 45 54 84
-139.767 -828.747 -1416 47 56 86
-136.816 -829.798 -1418 45 54 83
-133.764 -830.267 -1419 46 56 84
-130.8 -831.324 -1421 50 59 88
-127.649 -831.213 -1421 54 63 89
-124.587 -831.69 -1422 53 62 90
-121.436 -831.584 -1422 48 59 86
-118.619 -833.82 -1426 47 61 86
-115.624 -834.889 -1428 52 64 87
-112.542 -835.376 -1429 55 66 90
-109.61 -837.034 -1432 56 67 93
-106.369 -836.357 -1431 56 67 94
-102.988 -834.514 -1428 56 66 95
-99.2027 -829.168 -1419 59 68 99
-229.955 -841.791 -1424 60 68 92
-226.422 -840.409 -1422 55 65 91
-222.9 -839.032 -1420 54 68 99
-219.543 -838.248 -1419 55 70 102
-216.041 -836.877 -1417 53 67 99
-212.55 -835.51 -1415 54 68 99
-209.366 -835.327 -1415 58 71 107
-205.31 -831.604 -1409 58 72 110
-202.718 -833.788 -1413 52 66 105
-199.686 -834.203 -1414 47 62 96
-196.512 -834.031 -1414 47 62 95
-193.614 -835.041 -1416 49 65 98
-189.902 -832.516 -1412 45 62 95
-187.136 -834.121 -1415 41 56 87
-183.707 -832.781 -1413 44 59 91
-180.418 -832.034 -1412 46 61 93
-176.632 -828.934 -1407 44 59 90
-173.734 -829.96 -1409 43 56 88
-170.465 -829.222 -1408 48 60 92
-167.44 -829.664 -1409 50 61 91
-164.296 -829.521 -1409 55 66 96
-161.267 -829.969 -1410 45 56 85
-158.012 -829.242 -1409 38 47 75
-155.202 -830.872 -1412 40 49 79
-151.949 -830.15 -1411 45 54 83
-148.808 -830.021 -1411 45 54 83
-145.772 -830.482 -1412 43 52 81
-142.833 -831.533 -1414 46 55 85
-139.789 -831.999 -1415 48 57 87
-136.741 -832.468 -1416 45 54 82
-133.69 -832.939 -1417 50 59 87
-130.544 -832.825 -1417 54 63 91
-127.669 -834.476 -1420 52 61 88
-124.519 -834.368 -1420 53 62 90
-121.541 -835.436 -1422 51 61 89
-118.638 -837.095 -1425 49 63 90
-115.723 -838.757 -1428 53 65 91
-112.718 -839.833 -1430 55 67 93
-109.551 -839.737 -1430 58 69 97
-106.534 -840.818 -1432 57 68 95
-102.932 -837.205 -1426 56 67 97
-230.641 -847.472 -1427 65 73 98
-226.938 -845.49 -1424 61 70 97
-222.78 -841.731 -1418 59 73 104
-219.735 -842.131 -1419 57 72 104
-216.382 -841.346 -1418 51 66 97
-213.036 -840.565 -1417 51 65 96
-209.697 -839.787 -1416 55 68 105
-205.927 -837.234 -1412 56 70 108
-203.182 -838.834 -1415 53 67 106
-199.86 -838.065 -1414 48 63 97
-196.823 -838.484 -1415 48 63 96
-193.783 -838.906 -1416 49 64 96
-190.336 -837.554 -1414 44 61 93
-187.431 -838.574 -1416 43 58 89
-183.867 -836.635 -1413 44 59 90
-180.702 -836.477 -1413 44 59 91
-177.288 -835.137 -1411 43 58 90
-174.132 -834.984 -1411 42 55 87
-170.128 -830.692 -1404 48 59 91
-167.347 -832.32 -1407 48 59 89
-164.088 -831.584 -1406 65 76 106
-161.178 -832.625 -1408 58 69 99
-158.149 -833.078 -1409 51 60 88
-155.336 -834.715 -1412 42 51 81
-151.865 -832.808 -1409 42 51 81
-148.937 -833.859 -1411 42 51 81
-146.105 -835.504 -1414 41 50 80
-142.755 -834.197 -1412 44 53 83
-139.91 -835.846 -1415 46 55 86
-136.956 -836.908 -1417 47 56 85
-133.712 -836.2 -1416 53 62 91
-130.473 -835.495 -1415 58 67 96
-127.599 -837.154 -1418 52 61 89
-124.626 -838.225 -1420 51 60 89
-121.475 -838.118 -1420 52 62 91
-118.741 -840.965 -1425 50 62 92
-115.823 -842.634 -1428 55 66 95
-112.815 -843.715 -1430 64 75 104
-109.722 -844.209 -1431 68 79 108
-106.477 -843.525 -1430 64 75 103
-231.167 -852.582 -1429 65 74 98
-227.297 -849.994 -1425 64 73 99
-223.29 -846.814 -1420 59 73 104
-220.083 -846.619 -1420 56 71 102
-216.419 -844.638 -1417 51 65 97
-212.621 -842.065 -1413 51 65 96
-209.288 -841.284 -1412 56 69 106
-206.545 -842.889 -1415 54 68 105
-203.647 -843.9 -1417 50 64 102
-200.742 -844.913 -1419 48 63 96
-197.83 -845.929 -1421 49 64 97
-194.774 -846.352 -1422 49 64 96
-191.042 -843.803 -1418 45 62 94
-187.33 -841.257 -1414 44 60 91
-183.898 -839.904 -1412 44 59 90
-180.604 -839.15 -1411 42 57 88
-176.814 -836.02 -1406 40 55 86
-173.666 -835.867 -1406 43 56 88
-169.913 -832.744 -1401 49 60 92
-167.255 -834.974 -1405 53 64 94
-164.231 -835.423 -1406 53 64 94
-161.319 -836.469 -1408 39 49 79
-158.511 -838.111 -1411 42 51 79
-155.692 -839.756 -1414 42 51 80
-152.429 -839.027 -1413 40 49 79
-149.067 -837.708 -1411 39 48 78
-146.025 -838.173 -1412 41 50 80
-142.778 -837.453 -1411 41 50 81
-139.933 -839.11 -1414 41 51 83
-136.688 -838.396 -1413 44 53 83
-133.828 -840.058 -1416 52 61 92
-130.494 -838.756 -1414 56 65 96
-127.62 -840.423 -1417 54 63 92
-124.471 -840.313 -1417 56 65 94
-121.58 -841.985 -1420 57 67 97
-118.76 -844.252 -1424 63 74 106
-115.924 -846.521 -1428 71 82 114
-112.992 -848.2 -1431 79 89 121
-109.895 -848.696 -1432 77 87 118
-106.57 -847.416 -1430 70 80 108
-231.372 -856.515 -1429 63 71 96
-227.977 -855.713 -1428 62 70 94
-224.274 -853.715 -1425 56 70 99
-221.208 -854.117 -1426 54 68 98
-217.375 -851.528 -1422 51 65 96
-213.411 -848.344 -1417 52 66 97
-210.066 -847.558 -1416 55 68 103
-207.019 -847.972 -1417 56 69 105
-203.97 -848.389 -1418 49 63 100
-200.636 -847.613 -1417 43 58 90
-197.865 -849.231 -1420 44 59 92
-194.808 -849.656 -1421 47 62 96
-191.075 -847.094 -1417 45 62 94
-187.494 -845.134 -1414 44 59 91
-184.19 -844.373 -1413 43 58 89
-180.891 -843.614 -1412 42 57 88
-177.347 -841.665 -1409 41 56 87
-174.437 -842.704 -1411 45 58 90
-170.79 -840.164 -1407 53 64 97
-167.521 -839.418 -1406 56 67 97
-164.142 -838.078 -1404 39 49 79
-161.575 -840.919 -1409 29 38 68
-158.313 -840.182 -1408 36 45 73
-155.718 -843.027 -1413 40 48 78
-152.347 -841.699 -1411 41 49 80
-149.198 -841.567 -1411 42 51 81
-146.257 -842.63 -1413 45 54 85
-143.004 -841.907 -1412 45 54 85
-140.055 -842.975 -1414 41 52 84
-136.905 -842.854 -1414 45 56 86
-133.945 -843.926 -1416 58 68 99
-130.7 -843.215 -1415 63 72 104
-127.642 -843.697 -1416 62 71 102
-124.668 -844.778 -1418 69 78 108
-121.858 -847.053 -1422 72 81 112
-118.948 -848.735 -1425 74 85 118
-116.188 -851.609 -1430 77 88 121
-113.486 -855.082 -1436 80 90 122
-110.221 -854.389 -1435 76 85 117
-106.738 -851.912 -1431 68 77 105
-234.982 -861.269 -1430 69 78 108
-231.739 -861.061 -1430 62 70 98
-228.499 -860.857 -1430 62 70 96
-225.103 -860.053 -1429 55 69 98
-221.714 -859.252 -1428 52 66 97
-217.873 -856.65 -1424 52 66 97
-214.052 -854.052 -1420 52 66 97
-210.4 -852.06 -1417 54 67 102
-207.495 -853.077 -1419 54 67 103
-204.439 -853.495 -1420 48 62 99
-201.38 -853.916 -1421 41 56 88
-198.458 -854.941 -1423 41 56 89
-195.118 -854.165 -1422 43 58 92
-191.379 -851.592 -1418 48 63 95
-187.66 -849.022 -1414 46 61 93
-183.961 -846.456 -1410 45 60 91
-180.666 -845.694 -1409 43 58 89
-177.126 -843.735 -1406 44 58 89
-174.219 -844.78 -1408 44 58 90
-170.82 -843.428 -1406 50 61 94
-167.908 -844.478 -1408 64 75 106
-164.403 -842.531 -1405 57 67 99
-161.603 -844.186 -1408 49 58 90
-158.678 -845.244 -1410 51 60 89
-155.635 -845.705 -1411 45 54 84
-152.265 -844.37 -1409 44 53 83
-149.223 -844.836 -1410 46 55 86
-146.178 -845.305 -1411 52 61 93
-142.826 -843.979 -1409 56 66 98
-139.98 -845.651 -1412 56 66 98
-137.025 -846.727 -1414 55 65 97
-133.968 -847.206 -1415 64 73 105
-130.723 -846.491 -1414 69 78 110
-127.844 -848.173 -1417 68 76 109
-124.601 -847.463 -1416 72 81 113
-121.879 -850.347 -1421 80 88 121
-119.052 -852.634 -1425 78 86 120
-116.615 -857.916 -1434 74 82 116
-113.744 -860.207 -1438 73 82 115
-110.471 -859.51 -1437 66 75 107
-106.906 -856.424 -1432 57 66 91
-236.014 -868.252 -1435 64 73 105
-232.757 -868.043 -1435 63 72 101
-229.822 -869.045 -1437 62 70 96
-226.092 -867.027 -1434 58 70 100
-222.689 -866.222 -1433 54 67 97
-218.527 -862.399 -1427 54 68 97
-214.394 -858.58 -1421 55 69 100
-210.439 -855.369 -1416 52 65 101
-207.241 -855.183 -1416 52 65 102
-204.332 -856.207 -1418 48 62 99
-200.992 -855.423 -1417 40 55 87
-198.356 -857.659 -1421 39 54 86
-195.291 -858.087 -1422 42 57 89
-191.549 -855.502 -1418 46 61 92
-188.092 -854.126 -1416 46 61 92
-184.385 -851.548 -1412 46 61 92
-181.083 -850.782 -1411 44 59 90
-177.787 -850.019 -1410 42 56 87
-174.745 -850.465 -1411 44 57 88
-171.214 -848.504 -1408 45 56 88
-168.295 -849.558 -1410 67 78 108
-164.315 -845.193 -1403 48 58 89
-161.516 -846.855 -1406 47 56 88
-158.142 -845.509 -1404 49 58 88
-155.441 -847.778 -1408 44 53 83
-152.183 -847.04 -1407 48 57 87
-149.143 -847.508 -1408 55 64 96
-146.204 -848.581 -1410 58 67 99
-143.054 -848.452 -1410 57 66 98
-140.104 -849.53 -1412 57 66 98
-137.049 -850.009 -1413 59 68 100
-134.086 -851.092 -1415 63 72 105
-130.931 -850.975 -1415 70 78 112
-128.047 -852.664 -1418 71 79 113
-125.064 -853.755 -1420 72 80 114
-121.987 -854.246 -1421 79 87 121
-119.743 -860.752 -1432 75 83 117
-116.799 -862.45 -1435 73 82 114
-114.082 -865.954 -1441 69 78 109
-110.877 -865.855 -1441 58 67 96
-236.555 -873.45 -1437 67 75 107
-233.291 -873.239 -1437 64 72 104
-230.348 -874.245 -1439 63 70 98
-226.768 -872.825 -1437 57 68 98
-223.2 -871.408 -1435 56 69 98
-218.876 -866.96 -1428 54 68 97
-214.435 -861.909 -1420 53 67 98
-210.181 -857.47 -1413 50 63 99
-207.426 -859.103 -1416 50 63 100
-204.082 -858.312 -1415 48 62 99
-201.171 -859.343 -1417 45 60 91
-198.393 -860.983 -1420 45 60 91
-195.191 -860.807 -1420 45 60 92
-191.45 -858.209 -1416 43 58 89
-187.728 -855.616 -1412 43 58 89
-184.419 -854.843 -1411 43 58 89
-180.346 -850.439 -1404 44 59 90
-177.567 -852.096 -1407 45 59 90
-174.653 -853.15 -1409 48 62 93
-171.245 -851.785 -1407 52 63 95
-168.206 -852.238 -1408 74 85 116
-164.813 -850.879 -1406 47 57 89
-161.89 -851.944 -1408 47 56 88
-158.508 -850.59 -1406 48 57 87
-155.359 -850.451 -1406 42 53 83
-152.211 -850.313 -1406 49 60 90
-149.064 -850.179 -1406 60 71 103
-146.022 -850.652 -1407 61 72 105
-142.978 -851.128 -1408 54 65 98
-140.129 -852.815 -1411 53 64 96
-137.074 -853.296 -1412 59 67 101
-134.205 -854.988 -1415 64 72 107
-131.047 -854.87 -1415 69 77 113
-128.251 -857.171 -1419 72 80 114
-125.351 -858.87 -1422 73 81 115
-122.525 -861.175 -1426 75 83 117
-119.765 -864.087 -1431 74 81 114
-117.229 -868.812 -1439 73 82 112
-114.421 -871.728 -1444 64 73 102
-110.667 -867.402 -1437 46 55 83
-237.757 -881.112 -1443 66 74 107
-233.988 -879.067 -1440 63 71 104
-230.716 -878.857 -1440 64 72 98
-227.289 -878.04 -1439 58 69 97
-223.868 -877.226 -1438 55 66 95
-219.533 -872.756 -1431 53 64 94
-215.233 -868.291 -1424 49 63 94
-210.966 -863.831 -1417 51 64 98
-207.759 -863.642 -1417 52 65 100
-204.555 -863.457 -1417 47 61 98
-201.778 -865.101 -1420 46 60 92
-198.851 -866.139 -1422 46 61 93
-195.366 -864.744 -1420 47 62 96
-191.892 -863.352 -1418 48 63 94
-188.296 -861.354 -1415 48 63 94
-184.977 -860.578 -1414 49 64 95
-181.793 -860.413 -1414 47 62 93
-177.6 -855.384 -1406 48 62 92
-174.934 -857.659 -1410 51 65 94
-171.52 -856.287 -1408 59 70 103
-168.476 -856.742 -1409 68 79 111
-164.96 -854.768 -1406 55 65 97
-161.805 -854.622 -1406 53 62 94
