ply
format ascii 1.0
comment Created by Open3D
element vertex 731
property double x
property double y
property double z
property double nx
property double ny
property double nz
property uchar red
property uchar green
property uchar blue
end_header
-236.38 -1168.59 -1663.07 -0.302638 -0.732031 0.0484244 93 78 77
-236.749 -1157.73 -1661.63 -0.421251 -0.508392 0.109469 91 79 80
-245.075 -1132.3 -1663.66 -0.616465 0.301522 -0.0750917 118 105 98
-232.145 -1149.22 -1663.55 -0.194323 -0.0185381 -0.0148686 98 89 85
-229.766 -1147.97 -1663.72 -0.143926 0.139096 -0.0757913 105 96 89
-237.593 -1131.78 -1663.98 -0.230647 0.17511 -0.0997404 124 111 98
-301.381 -543.714 -1663.22 0.62729 -0.0461765 0.773913 157 161 178
-303.644 -531.239 -1659.84 0.633888 -0.117666 0.763106 158 163 180
-286.967 -544.352 -1658.9 0.583621 0.00441226 0.804851 159 159 178
-280.834 -549.715 -1663.52 0.634092 0.0179997 0.772455 153 156 174
-283.219 -536.973 -1661.28 0.618332 0.0668991 0.767643 157 157 176
-281.474 -534.425 -1662.44 0.642187 0.129173 0.739734 156 156 174
-271.024 -535.179 -1660.8 0.613847 0.228053 0.739465 158 156 175
-300.378 -518.38 -1662.58 0.747762 0.084646 0.651855 155 157 175
-302.279 -514.008 -1661.05 0.783556 0.123559 0.603125 155 158 176
-303.398 -506.215 -1662.36 0.826303 0.186326 0.540686 155 157 175
-278.481 -523.488 -1659.69 0.747348 0.104403 0.657696 164 163 182
-276.867 -529.651 -1658.61 0.690696 0.221273 0.687078 166 163 182
-278.714 -516.37 -1664.11 0.70551 0.096048 0.691163 166 165 184
-270.909 -511.018 -1664.49 0.483747 -0.0986913 0.837897 174 175 193
-271.392 -506.138 -1663.33 0.328027 -0.178632 0.879315 175 176 194
-303.519 -497.893 -1664.64 0.831476 0.136249 0.538628 154 156 174
-305.705 -484.908 -1662.57 0.926994 0.0955251 0.342828 158 160 178
-285.079 -489.941 -1664.5 0.279477 -0.0475098 0.876577 166 167 186
-276.531 -500.261 -1662.87 0.281747 -0.0977142 0.890951 173 174 192
-275.6 -491.498 -1661.45 0.0774789 -0.174324 0.8913 168 169 187
-286.229 -476.827 -1660.51 0.373216 -0.0958023 0.865506 164 166 184
-275.829 -486.145 -1659.73 0.0236863 -0.253609 0.891983 166 167 185
-251.712 -582.725 -1659.87 0.452401 0.254311 0.839623 159 157 174
-252.387 -571.761 -1662.93 0.564958 0.10554 0.807837 154 151 169
-254.405 -564.541 -1659.5 0.661622 -0.13865 0.741025 156 151 172
-253.146 -559.261 -1660.4 0.617464 -0.0797556 0.763026 155 151 170
-238.774 -583.125 -1664.46 0.285795 0.311584 0.89236 156 154 171
-253.841 -551.647 -1660.67 0.53153 0.256639 0.758274 152 150 169
-254.54 -545.808 -1664.53 0.303637 0.283286 0.860613 166 165 184
-265.443 -537.93 -1664.05 0.492716 0.374786 0.765139 159 157 176
-115.222 -1069 -1660.13 -0.837243 0.153263 -0.223039 142 100 73
-115.484 -1060.92 -1659.73 -0.87703 0.0747212 -0.233845 130 90 67
-116.508 -1051.93 -1660.96 -0.786226 -0.0104288 -0.344489 127 87 66
-117.211 -1044.69 -1664.39 -0.629201 -0.00857563 -0.489474 144 101 75
-117.903 -1031.89 -1663.44 -0.706112 0.00435572 -0.523378 144 102 75
-119.846 -1018.73 -1663.66 -0.403976 -0.0580124 -0.639494 137 98 74
-92.4358 -1061.54 -1658.48 0.155309 0.203111 0.576864 189 141 104
-96.5019 -1054.58 -1660.62 -0.0213768 0.352714 0.635468 190 142 106
-97.8562 -1049.41 -1659.97 -0.0936004 0.392342 0.373388 183 136 102
-91.8976 -1047.74 -1665.39 -0.259072 0.491981 0.367697 181 133 99
-76.9989 -1060.59 -1658.42 -0.103099 0.144273 -0.2316 146 105 80
-67.0132 -1057.81 -1662.18 0.449954 -0.059594 -0.482639 139 102 81
-66.697 -1057.55 -1662.38 0.456752 -0.0606241 -0.482408 140 102 81
-55.7856 -1052.68 -1664.85 0.73144 -0.116399 -0.506315 141 105 87
-92.7743 -1043.07 -1662.49 -0.273352 0.329837 -0.0858872 176 128 96
-90.7881 -1036.76 -1662.41 -0.413187 0.17863 -0.574872 165 118 88
-93.6161 -1028.63 -1658.72 -0.154129 -0.00931064 -0.84512 169 123 94
-86.5763 -1020.88 -1663.81 -0.0672952 0.046088 -0.893986 168 123 95
-76.7849 -1037.83 -1659.98 -0.892723 0.372427 -0.130139 155 108 77
-72.2821 -1026.9 -1663.05 -0.876266 0.218655 -0.0488155 163 115 84
-123.184 -1009.14 -1662.22 0.0249487 -0.0875761 -0.815937 139 102 80
-121.053 -1011.55 -1659.36 -0.123424 -0.0959523 -0.767596 132 96 76
-128.783 -998.722 -1663.41 0.153189 -0.0384215 -0.837334 142 105 83
-135.882 -767.68 -1663.1 0.483055 0.191975 -0.604721 122 92 78
-126.975 -773.836 -1658.51 0.73832 0.259118 -0.578945 92 74 69
-93.1217 -762.127 -1664.15 -0.845937 0.12218 -0.492742 202 157 119
-96.7226 -760.967 -1662.39 -0.869944 0.125575 -0.458936 198 153 113
-91.8027 -757.878 -1662.56 -0.833482 0.167872 -0.500061 203 158 121
-91.4986 -749.879 -1658.72 -0.811955 0.178336 -0.509529 202 157 120
-160.251 -702.501 -1664.87 0.298462 0.0386053 0.769861 150 112 93
-145.411 -701.198 -1659.81 -0.0261854 -0.0587609 0.587808 87 64 62
-145.082 -699.13 -1662.09 -0.0405616 -0.0786825 0.775057 87 63 62
-40.4895 -687.597 -1658.82 -0.727861 -0.0435944 0.418361 207 156 120
-33.2614 -681.207 -1660.49 -0.371265 0.0364389 0.748409 183 139 108
-37.9498 -673.905 -1664.42 -0.152524 -0.202331 0.914792 187 140 108
-32.5101 -678.374 -1661.61 -0.281718 -0.129439 0.795848 179 135 106
-40.5422 -664.736 -1661.71 -0.445893 -0.202077 0.80564 180 135 106
-42.7426 -654.948 -1663.95 -0.54472 0.0887668 0.764866 176 135 114
-34.5212 -654.285 -1658.82 -0.40922 0.105266 0.843082 170 128 105
-27.1751 -646.137 -1659.81 -0.235564 0.141215 0.903687 167 131 114
-36.8446 -642.803 -1664.72 -0.573155 0.394798 0.663908 169 133 120
-23.9346 -643.98 -1658.24 -0.301493 0.0893061 0.823582 163 134 123
-26.7902 -636.507 -1660.8 -0.373523 0.0818297 0.894125 162 128 114
-31.9335 -627.274 -1665.01 -0.416807 0.243086 0.817045 162 122 108
-23.108 -630.79 -1660.09 -0.314988 0.178887 0.914021 149 119 110
-9.65201 -624.677 -1662.78 0.0185003 0.519922 0.8315 138 132 137
-22.3883 -624.738 -1662.94 -0.20985 0.329439 0.892907 133 105 98
-10.316 -623.855 -1663.39 0.0463135 0.517873 0.837458 134 127 132
-82.4266 -402.588 -1661.95 -0.257737 0.0089629 -0.419611 114 116 132
-89.5991 -399.254 -1664.19 -0.355236 0.00736305 -0.276926 114 117 134
-100.577 -389.886 -1658.42 -0.728942 -0.189381 -0.44692 126 129 146
17.5865 -449.662 -1664.52 -0.0213082 -0.173635 0.952705 160 165 179
31.9928 -467.743 -1662.13 -0.520293 -0.1215 0.652102 168 173 187
33.1591 -456.787 -1661.41 -0.469214 -0.175894 0.707062 167 171 186
35.0082 -454.36 -1663.46 -0.288185 -0.117682 0.83868 161 167 182
17.7429 -445.549 -1664.06 -0.08332 -0.102962 0.951672 159 164 178
27.875 -441.544 -1663.65 -0.0161806 -0.0955335 0.851435 152 157 171
27.3156 -435.842 -1661.2 -0.184375 -0.135985 0.795765 155 159 173
12.2717 -421.827 -1663.98 -0.48846 -0.0957793 0.87198 162 167 181
24.7979 -429.916 -1660.02 -0.335746 -0.152114 0.79568 159 164 178
15.4278 -421.483 -1662.25 -0.44506 -0.110204 0.891872 164 168 183
29.7285 -447.593 -1659 -0.642792 -0.0239498 0.596257 171 175 188
31.7437 -440.328 -1659.68 -0.311271 -0.130897 0.718574 158 163 176
39.979 -429.466 -1658.68 -0.060593 -0.205919 0.864209 145 150 165
37.2433 -427.588 -1658.75 0.132371 -0.258042 0.876096 136 142 156
-272.37 -144.859 -1659.91 0.40978 -0.420388 0.738119 40 39 51
-300.294 -49.348 -1662.82 0.659337 0.657685 0.0180377 21 20 31
-303.182 -47.7809 -1662.99 0.711421 0.642422 0.0935442 22 21 32
-280.594 -54.8787 -1661.02 0.486282 0.791427 -0.188959 19 20 28
-270.118 -58.9652 -1663.44 0.564429 0.762411 -0.225756 18 19 27
-286.592 -54.428 -1658.99 0.475637 0.800938 -0.335022 18 18 26
-277.044 -53.3767 -1662.71 0.504973 0.768403 -0.0456241 20 20 29
-277.161 -44.418 -1664.32 0.515898 0.714329 0.244968 20 20 30
-265.561 -138.795 -1660.95 0.45686 -0.319219 0.785982 82 81 90
-259.773 -130.727 -1660.21 0.522125 -0.493598 0.676817 77 76 86
-250.912 -123.198 -1663.47 0.61344 -0.468451 0.631725 45 44 55
-241.6 -145.795 -1664.48 -0.322778 0.227824 0.913608 87 85 92
-231.997 -141.123 -1663.62 -0.121319 0.287536 0.873239 25 22 32
-226.029 -138.06 -1664.2 -0.0169326 0.211648 0.840925 26 23 33
-219.202 -134.988 -1663.88 0.0137881 0.140508 0.867606 24 21 31
-248.461 -118.033 -1660.81 0.625703 -0.503592 0.608941 43 41 52
-243.505 -105.847 -1661.54 0.822869 0.0785657 0.359885 21 20 30
-240.762 -110.701 -1661.09 0.573146 -0.32405 0.578217 28 26 36
-237.931 -112.469 -1663.05 0.44422 -0.452526 0.628489 30 28 38
-220.932 -110.188 -1663.09 0.257325 -0.667668 0.63031 36 33 43
-242.193 -100.369 -1660.7 0.771 0.278645 0.391698 19 17 27
-308.427 207.644 -1660.25 0.59929 0.0993995 0.776745 171 13 15
-304.492 213.053 -1663.8 0.635732 0.0834803 0.755801 192 9 11
-312.095 218.614 -1659.34 0.546538 0.115613 0.82559 221 5 5
-309.095 221.179 -1661.99 0.589047 0.124293 0.795587 216 5 7
-318.525 235.622 -1659.08 0.508468 0.040111 0.698561 90 32 50
-321.256 241.27 -1659.77 0.468097 0.0458815 0.656441 73 38 46
-312.16 234.533 -1663.42 0.580898 0.125233 0.756952 88 30 41
-318.332 246.546 -1662.28 0.568825 0.135223 0.72568 44 41 48
-316.586 254.248 -1661.3 0.582395 0.00929463 0.689926 31 37 78
-309.777 261.49 -1657.99 0.555244 -0.432775 0.542848 14 14 190
-299.597 265.741 -1658.97 0.542374 -0.631826 0.540735 0 0 255
-285.326 268.796 -1663.57 0.157237 -0.807642 0.55981 0 0 255
-279.426 272.794 -1660.88 0.17817 -0.734122 0.581062 12 12 248
-130.062 -77.285 -1662.09 -0.0901596 -0.137766 1.00007 27 25 39
-125.5 -79.4379 -1662.15 -0.0273338 -0.221861 0.991459 33 31 45
-121.579 -73.2729 -1662.05 0.0221612 -0.062925 0.998596 30 29 43
-111.893 -77.8139 -1664.44 0.346705 -0.112278 0.91752 49 47 62
-110.536 -68.2445 -1664.56 0.359975 -0.014093 0.931255 25 23 38
-121.055 -66.36 -1663.02 0.0139407 0.186768 0.958187 17 16 30
-110.929 -66.2906 -1664.85 0.282759 0.0790066 0.914627 22 21 36
-39.3445 -138.956 -1660.32 -0.595177 -0.147891 0.781705 34 34 44
-26.0093 -148.13 -1663.3 -0.533988 -0.352202 0.741513 69 69 78
-29.8885 -138.453 -1661.83 -0.514213 -0.184973 0.808634 62 63 72
-38.3853 -129.426 -1660.93 -0.48734 -0.160872 0.825025 32 31 42
-29.1549 -129.81 -1658.95 -0.437853 -0.153071 0.84635 35 34 45
-33.3389 -126.377 -1660 -0.299826 -0.164854 0.902047 26 25 37
-23.9179 -137.592 -1658.4 -0.485742 -0.269504 0.793148 125 125 131
-7.09868 -146.071 -1659.92 -0.452127 -0.620139 0.603215 158 157 163
-11.6642 -139.002 -1659.85 -0.610975 -0.293924 0.710635 255 255 255
-12.1988 -122.722 -1659.34 -0.6765 -0.0339971 0.742153 255 255 255
58.0249 45.9995 -1663.79 -0.652438 0.342757 0.627666 31 31 38
61.2029 55.4335 -1660.43 -0.590452 0.264136 0.677118 31 32 39
64.0893 61.6277 -1663.89 -0.349836 0.0496606 0.759758 28 31 36
10.0177 251.536 -1665.57 -0.556932 0.00526844 0.765235 37 34 42
58.5685 74.5189 -1664.52 0.096865 -0.428152 0.900726 85 23 91
60.1762 76.5023 -1663.7 0.122673 -0.415478 0.914846 73 24 78
62.4058 79.7904 -1662.55 0.146361 -0.37356 0.936767 57 23 64
66.5925 82.5679 -1661.46 0.163056 -0.346521 0.953409 41 27 48
60.4505 93.345 -1659.88 0.0553677 -0.19443 0.985754 67 21 73
60.3562 96.1759 -1659.33 0.0156672 -0.157517 0.988928 56 22 62
68.8843 103.335 -1659.14 -0.0863764 -0.0963092 0.961431 28 28 34
60.7489 119.077 -1659.28 -0.37087 0.225219 0.904018 48 48 54
60.9549 123.655 -1661.15 -0.365708 0.238231 0.90373 61 61 67
66.2634 122.273 -1660.77 -0.390434 0.254869 0.884699 27 25 33
64.2008 128.506 -1662.89 -0.331042 0.240436 0.909692 39 38 45
-88.2178 298.014 -1661.53 -0.755778 -0.520111 0.383663 74 77 86
-96.43 305.233 -1659.73 -0.67115 -0.662796 0.327147 146 147 156
-98.9112 307.362 -1658.71 -0.649048 -0.666395 0.314883 151 152 160
-299.065 -1161.32 -1658.77 -0.203426 0.719891 -0.157271 86 81 79
-294.663 -1158.17 -1661.26 -0.204448 0.726879 -0.157424 85 81 79
-294.757 -1168.08 -1660.63 -0.206665 0.730502 -0.160987 86 81 79
-285.871 -1158.71 -1666.22 -0.210852 0.731694 -0.15806 85 81 79
-287.54 -1144.09 -1660.54 -0.178235 0.74178 -0.159084 83 80 78
-289.024 -1142.69 -1659.56 -0.16786 0.7507 -0.1592 83 79 78
-270.689 -1145.43 -1668.79 -0.612419 0.420523 -0.107453 112 101 95
-279.45 -1149.27 -1667.06 -0.356318 0.615682 -0.160527 92 85 83
-284.813 -1153.25 -1665.25 -0.245913 0.701389 -0.158822 87 82 80
-283.984 -1148.85 -1663.92 -0.245753 0.69169 -0.159 87 82 80
-275.861 -1139.9 -1662.3 -0.358534 0.532718 -0.140325 103 94 89
-261.492 -1212.19 -1671.41 -0.0141407 0.0210458 0.130949 105 87 83
-250.195 -1212.22 -1665.54 -0.00882214 -0.0210507 0.139027 98 81 77
-257.342 -1214.62 -1670.43 -0.0564791 0.0892842 0.102362 116 96 90
-244.448 -1213.92 -1666.78 -0.0875347 -0.0343097 0.10265 130 106 100
-242.501 -1220.8 -1670.48 -0.199257 0.146999 0.0293942 163 132 123
-230.385 -1220.94 -1671.57 -0.185105 0.0870427 0.0437325 166 135 125
-236.974 -1216.22 -1668.08 -0.109519 -0.386483 0.125421 161 129 123
-228.31 -1209.96 -1668.46 -0.0296071 -0.67975 0.186176 168 136 131
-259.11 -1133.75 -1661.83 -0.661852 0.358386 -0.098232 119 106 99
-263.042 -1136.87 -1664.03 -0.634799 0.371548 -0.102543 118 104 98
-259.841 -1140.03 -1670.07 -0.770486 0.339552 -0.076834 122 108 102
-361.744 181.242 -1658.33 0.205419 0.00244121 0.944657 242 14 15
-363.938 205.875 -1659.27 0.208421 -0.0183267 0.939784 248 1 1
-313.261 259.742 -1658.4 0.534831 -0.323122 0.556684 23 24 148
-8.59915 263.107 -1664.18 -0.277829 -0.472789 0.261322 44 41 57
-7.8436 267.941 -1663.87 -0.233468 -0.467381 0.0747558 43 39 59
-16.1055 276.22 -1661.03 -0.250468 -0.553942 0.174211 41 39 55
-16.6969 278.217 -1660.07 -0.237631 -0.569258 0.16859 45 43 58
-3.0475 274.32 -1659.8 -0.225674 -0.438302 0.130415 46 39 57
17.3548 254.446 -1670.53 -0.519089 -0.0374461 0.692694 40 33 46
1.78807 266.629 -1662.72 -0.372375 -0.266723 0.394076 39 32 48
75.8951 76.2039 -1660.11 0.103418 -0.325795 0.858576 28 33 35
74.9128 89.9796 -1662.05 0.109377 -0.247946 0.893196 27 30 35
80.593 86.0778 -1661.17 0.121387 -0.277964 0.861297 28 32 35
68.7112 94.3596 -1660.43 0.0793416 -0.218957 0.978205 26 30 33
94.2018 77.4931 -1659.45 0.0206079 -0.170237 0.60093 37 30 43
94.2722 91.1722 -1666.44 0.00160378 -0.145137 0.543746 37 30 43
84.236 88.0651 -1662.16 0.0848627 -0.243223 0.800034 30 32 37
71.7998 104.586 -1660.14 -0.103168 -0.0742285 0.927233 28 28 35
81.6258 96.5177 -1663.53 0.00474548 -0.160086 0.794653 30 30 37
71.5027 101.234 -1660.15 -0.0422191 -0.13019 0.941209 28 29 34
77.5186 110.365 -1663.09 -0.206506 0.0384361 0.809012 30 27 36
81.0326 112.61 -1665.65 -0.204168 0.0442903 0.757035 31 27 37
71.7248 116.664 -1661.06 -0.335918 0.177651 0.871628 25 23 32
83.9177 95.1197 -1664.3 0.0200555 -0.170602 0.760803 31 31 38
92.7287 100.925 -1669.49 -0.0655739 -0.0799726 0.526931 36 29 43
89.4097 114.464 -1670.66 -0.163677 0.0130295 0.616351 37 30 44
83.9506 119.771 -1668.78 -0.219802 0.0708061 0.740364 35 30 41
81.1428 133.501 -1670.58 -0.273796 0.167439 0.914724 50 49 58
74.9652 127.816 -1666.29 -0.29179 0.18519 0.860095 29 27 36
80.7751 138.655 -1671.3 -0.272235 0.152828 0.936947 65 58 67
70.1149 136.869 -1666.23 -0.263242 0.188964 0.944478 37 38 47
71.3786 146.631 -1667.92 -0.286512 0.118227 0.950398 89 59 67
77.5704 156.044 -1671.66 -0.373749 0.139013 0.85974 139 81 87
71.7447 157.612 -1668.65 -0.419962 0.124937 0.897635 162 61 65
71.5264 167.39 -1669.92 -0.493238 0.149548 0.855099 223 151 153
-281.082 -1182.12 -1654.94 0.133471 0.244478 0.0386541 48 46 45
-292.871 -1175.9 -1654.87 -0.187819 0.732553 -0.166525 81 77 76
-296.98 -1172.77 -1656.49 -0.210678 0.726876 -0.169091 84 80 79
-258.695 -1189.53 -1656.58 0.0975903 0.233528 0.201087 49 43 41
-262.351 -1187.09 -1654.96 0.351922 0.486182 0.340039 41 36 34
-252.597 -1194.49 -1655.03 0.128181 0.347202 0.211125 88 72 70
-241.592 -1193.43 -1655.91 -0.132853 -0.168889 0.0931953 159 127 124
-230.982 -1186.72 -1657.21 -0.458886 0.351169 -0.219459 218 179 164
-163.093 -1192.62 -1654.07 0.542057 0.188416 0.258978 74 60 50
-252.091 -1177.79 -1657.93 -0.504426 0.349128 -0.172368 95 82 79
-245.617 -1170.98 -1656.45 -0.407353 0.476212 -0.173262 93 82 79
-243.758 -1167.66 -1657.82 -0.407379 0.449481 -0.148154 89 79 77
-225.264 -1175.6 -1656.61 -0.589536 0.267653 -0.506127 113 91 85
-221.548 -1170.07 -1655.64 -0.554864 0.423581 -0.616975 170 137 121
-250.751 -1128.98 -1653.64 -0.692478 0.49249 -0.0630846 117 104 95
-249.138 -1130.33 -1655.41 -0.642537 0.464781 -0.0369665 120 106 97
-206.69 -700.097 -1654.46 0.289611 -0.173062 0.960851 209 153 120
-204.094 -696.042 -1654.49 0.217635 -0.171809 0.976659 210 153 120
-201.135 -702.238 -1655.8 0.208975 -0.207739 0.97243 209 153 119
-196.529 -698.705 -1654.98 0.0689587 -0.216881 0.954127 208 150 117
-185.368 -715.158 -1657.92 -0.206581 -0.210718 0.630371 214 162 126
-178.822 -707.549 -1656.46 0.0872376 -0.0139756 0.467505 192 143 112
-179.468 -706.934 -1654.54 0.0745856 -0.0191663 0.285 193 142 110
-171.225 -704.182 -1657.96 0.171078 0.0791835 0.453491 179 135 107
-164.542 -700.024 -1656.7 0.0125802 0.0129111 0.294479 163 121 96
-275.353 -643.641 -1653.76 0.427447 0.792983 0.419227 169 169 184
-299.86 -625.118 -1656.38 0.496324 0.468319 0.710425 164 164 181
-308.581 -620.495 -1652.85 0.521491 0.397122 0.730794 162 162 179
-305.481 -612.428 -1656.07 0.492867 0.218017 0.826369 161 161 178
-295.827 -632.187 -1652.38 0.509674 0.597327 0.598013 166 167 183
-296.638 -626.02 -1657.66 0.498071 0.426077 0.738603 164 165 182
-271.139 -619.868 -1654.23 0.340777 0.299241 0.852417 157 157 173
-273.972 -617.266 -1652.44 0.319664 0.313736 0.870914 164 163 179
-311.414 -600.582 -1653.15 0.509702 0.00184063 0.854719 162 164 181
-303.433 -606.838 -1657 0.481103 0.0985052 0.862232 159 161 178
-302.132 -601.91 -1657.71 0.487648 0.0383806 0.871777 157 159 177
-304.633 -592.569 -1656.67 0.534474 0.0255286 0.844192 159 161 179
-310.366 -585.951 -1653.39 0.500067 0.0367018 0.86357 160 163 181
-288.204 -605.987 -1654.9 0.479089 0.0520455 0.848169 161 160 178
-290.771 -600.8 -1654.63 0.465732 -0.0364426 0.862988 164 162 181
-309.301 -524.067 -1652.24 0.692255 -0.15229 0.705588 158 163 180
-306.514 -520.481 -1654.9 0.725897 -0.075751 0.672524 158 162 179
-304.297 -514.981 -1657.66 0.781671 0.0742454 0.608305 157 160 177
-291.062 -526.853 -1654.7 0.694416 0.0519165 0.696876 163 162 181
-288.736 -519.002 -1655.45 0.721505 0.106747 0.670608 161 160 179
-279.619 -529.563 -1654.65 0.699451 0.161591 0.688087 167 164 183
-289.954 -515.261 -1652.24 0.751597 0.114837 0.635526 166 164 182
-308.253 -503.206 -1655.7 0.740645 0.0845643 0.638671 159 161 179
-309.667 -494.379 -1654.37 0.813491 0.0369331 0.56182 159 162 180
-307.348 -485.221 -1658.23 0.906888 0.0311051 0.384358 159 160 179
-271.583 -484.472 -1657.88 -0.128649 -0.309694 0.873305 162 163 181
-273.307 -480.603 -1656.34 -0.109657 -0.352242 0.880558 162 163 181
-261.186 -571.22 -1653.48 0.657695 0.0822031 0.744012 158 155 173
-262.565 -564.846 -1652.45 0.567423 0.0164871 0.809014 161 157 176
-260.779 -561.94 -1653.93 0.567774 0.0059899 0.799144 160 156 175
-269.895 -554.455 -1651.97 0.35085 0.159605 0.911365 162 157 177
-260.933 -556.877 -1655.01 0.514538 0.0598587 0.811353 159 154 174
-268.878 -548.919 -1654.02 0.383191 0.213578 0.872028 159 155 174
-171.867 -579.796 -1657.79 -0.458221 -0.0440896 0.888307 153 146 159
-169.087 -570.8 -1655.18 -0.497812 -0.0478727 0.864755 153 146 160
-166.104 -571.309 -1653.46 -0.516556 -0.0433825 0.853432 152 147 160
-86.0707 -1001.08 -1657.86 -0.0572121 0.199864 -0.771967 166 120 91
-81.4497 -994.023 -1657.44 -0.206565 0.24733 -0.643809 164 118 89
-71.805 -1009.6 -1653.82 -0.922453 0.078366 -0.176826 162 116 84
-70.9041 -1002.54 -1657.17 -0.856037 0.172195 -0.24278 163 117 85
-78.4436 -986.236 -1658.35 -0.169579 0.124056 -0.718446 164 118 88
-65.7907 -990.788 -1653.37 -0.777184 0.344748 -0.175251 164 117 86
-59.3585 -980.56 -1655.77 -0.654474 0.241469 -0.180128 162 115 85
-77.4628 -966.891 -1654.77 -0.379649 0.223674 -0.582353 164 118 90
-58.142 -977.666 -1657.26 -0.658351 0.227178 -0.159289 162 114 84
-56.2284 -966.191 -1653.55 -0.943913 0.179089 0.032459 167 119 88
-153.479 -937.856 -1653.43 0.167305 -0.239639 0.242275 93 70 65
-135.57 -949.68 -1657.46 0.174608 0.0499877 -0.713294 106 81 70
-124.317 -962.086 -1653.83 -0.568634 0.0765221 -0.532113 126 93 75
-130.929 -953.644 -1655.99 -0.0831995 -0.0102808 -0.55618 121 90 75
-157.395 -936.47 -1654.54 0.38233 -0.0669301 -0.0920561 100 74 64
-144.726 -936.281 -1655.3 0.172923 -0.168168 -0.214009 96 74 66
-158.752 -911.257 -1651.82 0.517407 -0.178841 -0.838695 146 106 91
-138.923 -914.511 -1654.46 0.407362 -0.0742501 -0.539744 104 81 71
-76.736 -963.089 -1654.6 -0.298476 0.238911 -0.648827 165 120 90
-141.857 -688.104 -1653.59 -0.11942 -0.248158 0.674357 94 67 63
-136.913 -682.619 -1653.01 -0.146386 -0.255993 0.649261 98 71 66
-111.087 -681.425 -1651.92 -0.417752 -0.03376 -0.915426 209 160 126
-132.422 -669.842 -1655.11 -0.271949 -0.0566906 0.0826348 143 107 91
-108.519 -668.817 -1654.86 -0.536249 -0.0358559 -0.827177 214 165 133
-131.585 -661.788 -1657.21 -0.422548 0.00600357 -0.165665 163 123 102
-109.631 -661.509 -1654.56 -0.648706 0.0223477 -0.782701 219 170 138
-108.979 -656.518 -1654.88 -0.695381 0.0247657 -0.74574 219 170 139
-129.972 -640.026 -1656.99 -0.533465 0.0391628 -0.376979 178 138 117
-108.985 -644.257 -1652.85 -0.687465 0.106643 -0.725932 211 164 133
-100.582 -691.157 -1657.29 -0.475155 -0.0658445 -0.872098 209 156 121
-81.8523 -689.125 -1652.77 -0.454178 0.0487438 -0.74479 208 159 125
-106.576 -675.73 -1655.01 -0.503178 -0.0456364 -0.846036 211 161 128
-105.681 -667.377 -1656.99 -0.610458 -0.096242 -0.78152 214 165 133
-91.033 -664.995 -1657.41 -0.413176 -0.0756086 -0.292597 209 160 128
-107.233 -653.253 -1656.37 -0.715159 0.0530972 -0.74848 220 171 139
-91.9895 -656.224 -1657.95 -0.363038 0.00647889 -0.0489515 210 161 129
-105.446 -650.202 -1657.79 -0.73657 0.085902 -0.752071 219 170 139
-92.2857 -646.843 -1653.58 -0.356226 0.0737089 -0.0885265 208 161 129
-92.4356 -641.664 -1651.99 -0.356454 0.0791991 -0.136336 206 160 130
-136.948 -405.918 -1652.32 -0.637194 0.147032 0.520878 85 85 98
-139.434 -399.054 -1654.7 -0.637794 0.138235 0.659039 91 90 104
-132.137 -412.483 -1656.89 -0.723136 -0.0892035 -0.578029 98 99 116
-116.917 -415.178 -1653.5 -0.812154 -0.128284 -0.598365 103 104 121
-134.042 -403.049 -1655.85 -0.688259 0.0253229 0.00351263 94 94 110
-118.908 -405.763 -1651.29 -0.76411 -0.1783 -0.616082 90 91 108
-115.998 -399.574 -1656.85 -0.780601 -0.082236 -0.599878 83 84 101
-138.003 -388.767 -1655.79 -0.562957 0.198983 0.631357 88 87 101
-134.608 -391.964 -1655.96 -0.549285 0.148223 0.360943 90 89 103
-121.678 -386.658 -1653.82 -0.265925 -0.443528 -0.748749 87 87 101
-118.731 -386.313 -1654.4 -0.328188 -0.38422 -0.690079 88 88 103
-96.3925 -396.236 -1653.33 -0.453321 -0.0288462 -0.456766 121 124 140
-99.8625 -391.68 -1652.95 -0.463193 -0.0516371 -0.453698 122 125 141
32.8491 -474.35 -1656.63 -0.740231 -0.0727587 0.495403 164 169 182
32.0308 -462.366 -1652.73 -0.862515 -0.199269 0.373468 173 176 189
30.5587 -447.794 -1651.45 -0.879973 -0.0881984 0.417509 179 182 195
-255.082 -121.399 -1656.15 0.657546 -0.499256 0.564734 80 79 88
-247.682 -110.233 -1655.38 0.707755 -0.337223 0.559134 42 40 50
-232.026 -108.351 -1656.78 0.0310884 -0.772391 0.643248 38 35 44
-237.947 -102.984 -1651.84 0.265501 -0.519856 0.564901 30 28 37
-228.933 -106.432 -1655.21 0.103604 -0.697736 0.683263 38 35 44
-220.189 -105.867 -1657.26 0.267784 -0.645347 0.674487 37 34 44
-220.032 -99.3986 -1653.94 0.229233 -0.30728 0.847959 38 35 43
-213.956 -97.2157 -1654.69 0.268701 -0.200475 0.8706 39 35 44
-261.464 -76.9474 -1652.13 0.663059 0.293858 0.63354 16 15 23
-259.906 -69.2333 -1654.11 0.479362 0.30071 0.479289 20 19 27
-246.582 -75.1067 -1654.63 0.26335 0.311144 0.7743 28 25 35
-248.947 -69.7672 -1655.57 0.176518 0.190961 0.794037 30 27 37
-225.632 -91.9383 -1651.32 0.318732 -0.0869866 0.916685 32 29 37
-223.131 -85.7663 -1654.61 0.318543 0.240683 0.888238 30 27 35
-238.516 -76.0605 -1654.75 0.229073 0.383603 0.835843 30 27 36
-232.014 -79.2938 -1654.72 0.317438 0.365423 0.838483 29 26 34
-235.322 -74.1805 -1656.32 0.270874 0.38134 0.857575 28 25 34
-268.266 -63.1724 -1651.79 0.574056 0.397057 0.226903 16 14 22
-267.985 -57.5705 -1652.26 0.413153 0.381659 0.20853 31 29 37
-261.086 -56.0373 -1654.05 0.284261 0.24498 0.558424 36 33 43
-246.034 -61.6241 -1656.36 0.302198 0.212108 0.824635 29 26 36
-248.064 -55.5406 -1657.31 0.412641 0.344012 0.752451 27 24 34
-269.292 -54.1788 -1652.52 0.350059 0.427292 0.0475576 57 56 63
-268.243 -44.673 -1653.93 0.372841 0.305285 0.700179 112 110 116
-255.334 -48.7091 -1657.52 0.404824 0.378954 0.772646 24 21 31
-34.8415 -149.159 -1654.44 -0.641697 -0.209539 0.738403 35 34 44
-34.7555 -142.866 -1653.03 -0.65819 -0.173504 0.729408 36 34 44
-40.8836 -126.769 -1656.76 -0.639895 -0.174848 0.735134 38 37 47
-38.1487 -127.533 -1652.67 -0.706926 -0.179254 0.689025 39 37 47
-16.6629 -149.2 -1657.9 -0.464119 -0.46998 0.687106 154 153 158
-18.6599 -140.203 -1655.86 -0.546006 -0.346889 0.723943 146 146 150
-1.03972 -145.976 -1654.58 -0.427631 -0.640058 0.600236 78 77 87
-6.53734 -140.945 -1655.09 -0.592681 -0.390906 0.674156 164 163 168
-22.0812 -130.773 -1655.19 -0.554599 -0.249328 0.749682 67 66 75
-25.0056 -125.38 -1655.36 -0.526377 -0.211992 0.767015 46 45 55
-10.8998 -135.457 -1658.06 -0.671717 -0.180963 0.719958 255 255 255
-8.56738 -124.858 -1654.24 -0.737184 -0.0691285 0.682137 255 255 255
-41.3394 -110.347 -1652.19 -0.663571 -0.265875 0.681908 32 31 43
-27.378 -115.245 -1654.28 -0.554431 -0.261364 0.724381 61 60 70
-28.7373 -112.852 -1654.55 -0.576838 -0.273691 0.710021 57 56 66
-41.485 -103.619 -1653.36 -0.62148 -0.192816 0.709724 39 38 49
-38.8216 -106.052 -1658.89 -0.487023 -0.299411 0.762493 32 31 42
-30.9749 -109.04 -1655.05 -0.571509 -0.304215 0.711626 45 44 55
-29.1092 -97.8023 -1652.44 -0.680438 -0.00373027 0.614014 39 38 48
-22.0104 -120.762 -1652.41 -0.597712 -0.275535 0.704598 70 69 78
-219.841 -1008.54 -1651.1 0.967798 0.347408 0.101721 155 110 89
-222.091 -1002.41 -1647.53 0.968602 0.345726 -0.0101115 157 110 88
-224.347 -995.742 -1646.89 0.971726 0.284545 -0.0659814 154 107 85
-227.262 -981.713 -1644.5 0.949238 0.214659 -0.104943 153 105 81
-231.402 -971.866 -1652.06 0.831384 0.159158 -0.27752 155 109 86
-196.734 -1007.69 -1651.06 0.394596 0.0575874 0.906008 154 106 79
-196.298 -1005.43 -1651.09 0.402991 0.049914 0.909274 154 105 78
-201.189 -995.881 -1650.72 0.415498 0.0894888 0.818774 157 108 81
-177.529 -1017.11 -1648.3 0.00303204 0.00030389 -0.769123 165 118 93
-169.217 -1018.43 -1647.51 0.233147 0.0101391 -0.967427 156 113 90
-175.063 -1011.25 -1647.81 0.0713809 -0.00930414 -0.619402 161 116 92
-178.517 -1004.06 -1646.31 0.115585 0.0576901 -0.00967481 155 110 87
-171.423 -1000.36 -1649.16 0.328733 -0.00578755 -0.428663 150 107 86
-174.172 -997.624 -1651.03 0.248212 0.015276 -0.377732 150 106 84
-166.27 -995.416 -1646.44 0.59054 -0.0569432 -0.787057 140 101 82
-190.654 -969.51 -1649.05 0.210806 -0.140006 -0.525063 164 115 90
-181.75 -987.225 -1650.48 0.29338 -0.0823561 0.479929 156 109 86
-186.903 -979.214 -1647.47 0.17124 -0.0887319 0.939052 163 116 91
-167.199 -986.211 -1648.67 0.485551 -0.00860998 -0.952727 143 104 85
-164.459 -981.349 -1647.93 0.378938 -0.0127244 -0.925656 136 99 82
-184.25 -975.767 -1650.96 0.12948 -0.294048 0.71524 160 112 89
-186.174 -965.707 -1649.37 0.227202 -0.118581 -0.801531 159 111 88
-176.839 -969.7 -1648.84 0.158489 0.020176 -0.800474 154 109 87
-164.953 -978.86 -1648.38 0.304389 0.0149025 -0.941439 135 99 82
-170.609 -964.698 -1648.4 0.0957969 -0.0268329 -1.031 145 104 85
-231.544 -961.358 -1645.87 0.580016 0.157515 0.314058 158 112 86
-233.158 -954.743 -1646.28 0.473518 0.19831 0.596543 160 115 88
-313.264 -473.739 -1646.67 0.803958 -0.0394823 0.587721 164 166 186
-310.519 -463.18 -1649.65 0.830004 -0.0256444 0.544324 164 165 185
-313.955 -454.303 -1644.97 0.823979 -0.0627277 0.556819 167 169 189
-272.434 -466.329 -1649.89 -0.152159 -0.272832 0.929545 157 158 176
-289.049 -450.912 -1651.23 0.250978 -0.240902 0.86954 165 164 183
-276.96 -461.032 -1649.82 -0.173241 -0.224039 0.948971 156 157 175
-270.729 -450.905 -1647.07 0.149069 -0.124598 0.92733 158 160 178
-312.171 -437.309 -1646.44 0.87581 -0.0669608 0.478125 166 168 188
-311.398 -431.315 -1646.87 0.871178 -0.0866677 0.482465 168 170 190
-309.443 -423.129 -1648.4 0.851716 -0.119537 0.491992 169 171 191
-286.113 -441.96 -1645.85 0.0108918 -0.419081 0.889713 150 151 170
-288.429 -440.111 -1645.8 0.0680544 -0.377926 0.897491 153 154 172
-271.987 -441.901 -1645.27 0.249147 -0.133986 0.868476 158 159 177
-293.403 -430.747 -1650.25 0.12692 -0.280178 0.9061 153 154 173
-309.293 -413.853 -1645.65 0.87196 -0.101014 0.465792 167 169 189
-307.726 -412.271 -1648.64 0.881085 -0.0677988 0.455643 167 169 189
-306.652 -395.289 -1649.76 0.920716 -0.0650659 0.341884 170 172 192
-293.123 -418.374 -1647.23 0.232986 -0.167694 0.881925 147 148 167
-271.816 -418.217 -1647.62 0.657499 0.0597944 0.656836 162 163 181
-272.456 -411.35 -1649.42 0.737887 0.104469 0.611171 164 165 183
-291.799 -399.638 -1648.35 0.302552 -0.124451 0.85424 145 147 165
-273.83 -404.12 -1651.12 0.794385 0.0983298 0.574747 165 166 184
-275.729 -399.336 -1650.27 0.787407 0.0561548 0.578686 164 166 183
-305.093 -385.216 -1647.28 0.888225 -0.288939 0.334844 171 173 193
-298.161 -376.577 -1650.74 0.740146 -0.399604 0.530403 172 174 195
-292.54 -390.216 -1645.47 0.500477 -0.0764325 0.722386 154 156 174
-289.254 -384.561 -1646.01 0.535543 -0.0661383 0.695174 155 156 173
-279.279 -390.482 -1646.83 0.76405 0.0687363 0.541571 165 167 184
-296.334 -373.109 -1650.66 0.729992 -0.326945 0.585937 170 173 194
-268.019 -464.022 -1649.09 0.0466473 -0.182978 0.941239 158 160 178
-145.909 -816.309 -1651.14 0.438291 0.397529 -0.783454 89 73 72
-154.517 -809.503 -1647.42 0.604668 0.514313 -0.61148 149 111 96
-153.154 -806.824 -1643.86 0.62882 0.507262 -0.584747 134 101 89
-137.364 -814.215 -1646.3 0.328757 0.437129 -0.672089 92 76 74
-127.006 -809.288 -1650.06 -0.610353 0.337236 -0.38717 106 82 69
-90.7264 -852.27 -1650.17 0.437943 0.0411334 -0.88834 170 124 96
-83.661 -850.014 -1646.57 0.373955 -0.0720007 -0.91183 175 128 101
-82.6394 -843.675 -1646.54 0.366832 -0.061868 -0.920896 173 127 99
-89.2397 -839.368 -1649.09 0.4364 0.039477 -0.889271 167 121 94
-91.1856 -831.943 -1649.19 0.432144 0.132273 -0.887923 165 120 93
-81.4708 -835.853 -1646.51 0.312626 0.00353863 -0.940925 170 124 95
-69.5458 -836.763 -1644.9 0.124127 -0.269712 -0.937294 175 128 98
-68.8369 -835.338 -1645.42 0.0867865 -0.261463 -0.935283 174 128 98
-66.402 -831.17 -1645.36 0.0205944 -0.0374246 -0.944793 175 128 99
-54.398 -830.678 -1645.61 -0.233519 -0.034477 -0.938371 184 136 106
-89.0299 -824.572 -1646.5 0.422445 0.137101 -0.891715 164 119 91
-93.0714 -818.069 -1649.19 0.546398 0.0475659 -0.839619 155 111 86
-95.6486 -802.81 -1647.08 0.527188 0.281631 -0.79168 153 111 89
-89.5237 -810.906 -1645.14 0.540155 0.143084 -0.825436 158 112 87
-54.0387 -827.054 -1645.33 -0.24722 0.0569404 -0.95147 182 133 104
-43.1703 -903.16 -1647.88 -0.902903 0.242564 0.0256241 171 122 92
-42.6229 -894.222 -1644.56 -0.883888 0.277787 -0.144556 170 122 91
-40.9321 -882.27 -1647.28 -0.838614 0.102796 -0.397089 177 128 96
-40.4335 -873.163 -1650.16 -0.602695 0.0295082 -0.595267 178 131 98
-42.698 -867.697 -1645.12 -0.676616 -0.0260396 -0.523061 180 133 101
34.1608 -512.121 -1650.64 -0.832619 0.0550359 0.544077 172 174 187
34.0702 -508.581 -1650.75 -0.845353 0.0375756 0.520128 172 174 187
37.1147 -500.979 -1645.78 -0.818559 -0.116725 0.53528 180 180 193
35.6317 -491.623 -1644.84 -0.828735 -0.105241 0.519869 176 178 190
34.4617 -476.244 -1648.05 -0.897234 0.0481421 0.388355 162 167 177
-149.934 -466.022 -1650.73 -0.696619 0.102948 0.704514 138 139 155
-145.665 -463.163 -1646.75 -0.632459 0.164412 0.762013 135 137 152
-145.016 -455.99 -1649.03 -0.586293 0.245311 0.782972 135 136 151
-136.652 -451.231 -1647.55 -0.501034 0.205006 0.508908 125 127 141
-130.879 -472.021 -1650.49 -0.539484 0.00774763 -0.365081 121 120 138
-129.436 -466.211 -1647.8 -0.440878 0.0115372 -0.248961 112 111 128
-118.562 -471.746 -1649.42 -0.67864 -0.0151941 -0.491654 127 125 143
-127.893 -460.798 -1645.88 -0.425501 0.00622497 -0.302392 107 106 123
-134.409 -452.603 -1645.9 -0.449992 0.222208 0.555562 125 126 141
-123.335 -451.56 -1647.45 -0.571399 -0.00961391 -0.65002 112 111 128
-118.669 -450.374 -1651.25 -0.685113 -0.020184 -0.763236 121 120 139
-136.522 -440.326 -1648.99 -0.575976 0.0668038 0.532484 116 117 132
-139.438 -434.872 -1649.87 -0.648972 -0.0192533 0.665796 115 115 130
-140.526 -423.483 -1649.12 -0.728209 -0.0851777 0.485186 106 105 121
-123.457 -445.033 -1646.44 -0.566298 0.00511465 -0.698413 107 107 124
-120.664 -444.312 -1649.51 -0.641259 0.00826048 -0.663438 113 113 130
-132.61 -432.89 -1649.57 -0.62845 -0.0589573 -0.0292132 107 107 124
-123.031 -426.735 -1645.44 -0.698911 -0.00282002 -0.648021 95 95 112
-119.716 -425.1 -1649.66 -0.752701 -0.0571183 -0.618688 104 103 121
-136.505 -412.302 -1650.15 -0.695018 0.0226469 0.0806649 86 85 100
-327.292 116.596 -1645.12 0.528673 0.261449 0.803735 50 48 55
-320.385 94.8179 -1644.5 0.634008 0.311708 0.685557 44 45 50
-307.33 87.9295 -1648.71 0.373386 0.48832 0.76544 234 198 235
-300.68 81.8163 -1648.25 0.51785 0.457735 0.694872 214 94 215
-294.087 72.7318 -1649.55 0.623566 0.388593 0.671418 119 14 123
-320.032 95.3559 -1644.94 0.632073 0.296865 0.694002 48 49 53
-319.298 108.766 -1647.66 0.515682 0.172123 0.831403 143 140 146
-317.407 102.756 -1648.05 0.57137 0.15521 0.793923 111 111 115
-316.9 110.234 -1649.24 0.492699 0.168896 0.845874 166 165 168
-333.051 128.893 -1646.15 0.393506 0.134568 0.90465 64 67 72
-328.067 126.202 -1647.01 0.457833 0.177153 0.861051 83 85 90
-328.513 129.019 -1647.57 0.405801 0.132846 0.897101 97 101 105
-327.32 140.055 -1648.98 0.352322 0.0883498 0.928864 190 172 173
-335.538 149.692 -1648.9 0.288004 0.115088 0.943688 197 109 110
-345.539 150.378 -1650.06 0.239495 0.0965925 0.953035 222 106 107
-334.185 151.765 -1649.46 0.281429 0.15069 0.940419 188 101 103
-336.364 156.967 -1650.9 0.236163 0.167278 0.947487 198 97 99
-322.439 134.574 -1650.22 0.379922 0.0781456 0.917805 213 211 212
-6.15217 -50.1407 -1646.06 -0.654774 0.156692 0.574155 24 22 30
-4.91411 -44.3897 -1648.56 -0.369676 0.104325 0.666755 22 21 30
-1.28631 -45.0325 -1650.41 -0.251742 0.217862 0.624675 55 54 62
-15.8125 -34.6352 -1648.17 -0.566391 0.115339 0.689829 19 19 24
-13.1484 -30.1345 -1645.97 -0.597576 0.186822 0.685967 19 19 23
-1.15745 -41.292 -1650.63 -0.272788 0.24627 0.615754 65 64 71
-13.4774 -23.9978 -1647.14 -0.678401 0.377277 0.482058 17 17 21
-11.404 -18.6403 -1649.62 -0.718763 0.560137 0.226937 17 17 21
0.207565 -7.38323 -1650.62 -0.653836 0.748044 -0.0401804 18 19 22
7.78332 -37.7149 -1649.52 -0.608216 0.396632 0.620004 205 205 207
13.2721 -27.5989 -1648.08 -0.632995 0.369811 0.659717 163 163 165
10.9165 -25.9425 -1648.97 -0.628167 0.360412 0.666377 160 160 163
15.5527 -26.8292 -1647.66 -0.630847 0.373694 0.661924 153 153 156
17.4511 -18.807 -1647.68 -0.612331 0.383087 0.64157 75 75 80
28.0885 -18.7425 -1649.07 -0.579192 0.439151 0.676221 41 40 47
2.03126 -5.56937 -1645.08 -0.733947 0.690363 0.0424563 18 19 21
26.828 -7.4797 -1648.6 -0.574293 0.319115 0.722776 32 31 38
-309.099 -1170.84 -1647.52 -0.205254 0.717743 -0.159316 85 81 79
-298.952 -1170.3 -1657.24 -0.210217 0.721067 -0.164064 85 81 79
-300.342 -1179.27 -1644.44 -0.21337 0.739681 -0.190463 83 80 78
-305.671 -1168.99 -1651.6 -0.205322 0.717849 -0.158503 86 81 79
-275.847 -1134.34 -1656.67 -0.104863 0.475768 -0.188015 110 97 88
-263.938 -1129.29 -1653.26 -0.127096 0.288677 -0.189986 131 111 97
-325.367 260.023 -1653.24 0.396368 -0.543248 0.38008 38 29 143
-139.987 341.582 -1645.64 0.119554 -0.129735 0.521975 134 111 100
-142.175 344.727 -1655.08 -0.266888 -0.411044 0.421364 120 106 103
-142.942 349.889 -1655.11 -0.512382 -0.229587 0.276786 129 106 99
-69.8796 389.304 -1645.24 -0.741944 -0.0251956 0.0776991 123 96 88
-65.4488 390.591 -1645.17 -0.74374 -0.0102771 0.0615865 122 95 87
-9.60583 285.485 -1646.45 0.228845 -0.71952 -0.237283 147 149 155
-243.954 -919.254 -1643.73 -0.426582 0.455373 -0.706474 151 115 93
-196.321 -961.839 -1643.04 0.364355 -0.0741666 -0.201489 161 112 85
-194.602 -957.27 -1639.53 0.375631 -0.0568506 0.0556877 159 111 83
-194.867 -946.472 -1639.04 0.371581 -0.0749044 0.0624827 159 111 83
-162.129 -941.365 -1643.87 0.111778 -0.335712 0.57234 131 95 82
-251.043 -896.993 -1640.77 0.806937 0.382201 -0.217657 166 118 93
-252.06 -895.54 -1642.51 0.799134 0.42319 -0.146116 169 120 94
-257.859 -767.993 -1638.22 0.884373 -0.196644 0.155682 167 125 100
-256.681 -766.571 -1641.58 0.870572 -0.171444 0.278668 171 127 100
-251.713 -748.299 -1641.91 0.930372 -0.150487 0.245477 160 118 91
-193.832 -797.088 -1641.87 -0.699856 0.304837 -0.647064 162 113 83
-190.944 -793.205 -1643.31 -0.748014 0.29391 -0.611883 159 111 81
-193.62 -776.402 -1638.75 -0.529732 -0.156537 -0.832721 134 90 63
-191.494 -768.731 -1640.98 -0.536927 -0.0398537 -0.824129 130 87 61
-189.3 -761.84 -1641.4 -0.546989 0.125877 -0.778314 131 87 62
-187.17 -769.663 -1643.99 -0.542068 -0.0316109 -0.817093 133 88 62
-185.433 -760.066 -1644.7 -0.530688 0.134255 -0.693939 128 84 61
-180.472 -748.302 -1644.12 -0.438502 0.434505 -0.644232 141 95 72
-251.401 -745.767 -1640.67 0.947422 -0.150119 0.201478 162 120 93
-248.647 -737.03 -1643.22 0.941683 -0.0798315 0.159018 178 130 100
-247.501 -722.026 -1637.91 0.885327 -0.0428834 0.109616 186 135 104
-324.1 -489.918 -1639.37 0.647515 -0.2033 0.732159 168 173 192
-304.725 -496.299 -1639.24 0.702852 0.0390559 0.698555 171 170 189
-300.881 -493.726 -1638.06 0.720061 0.0795893 0.680139 172 169 188
-317.383 -486.901 -1643.83 0.683105 -0.15205 0.707791 164 167 187
-298.133 -498.98 -1639.56 0.74493 0.0982313 0.649376 169 167 186
-316.759 -468.621 -1642.27 0.777427 -0.0466165 0.623852 167 169 189
-40.814 -1170.46 -1641.19 0.512478 0.712564 -0.44951 199 168 137
-37.6494 -1174.54 -1643.35 0.569711 0.655997 -0.461002 206 174 146
-47.9827 -1164.07 -1641.79 0.647219 0.503709 -0.505557 189 158 126
-52.8967 -1158.1 -1641.61 0.680931 0.432236 -0.453387 180 151 121
-151.282 -1116.29 -1638.03 0.851703 0.276917 -0.443882 101 78 69
-151.877 -1112.64 -1638.61 0.855114 0.268272 -0.46313 105 79 70
-152.8 -1106.23 -1638.71 0.852042 0.255732 -0.460566 106 78 67
-129.395 -1105.01 -1640.11 -0.643111 0.211218 -0.17506 120 91 73
-115.913 -1112.46 -1639.92 -0.275549 0.206881 0.52504 176 134 99
-110.952 -1110.74 -1643.09 0.0386878 0.266502 0.738948 196 150 110
-155.961 -1095.95 -1640.73 0.811479 0.222565 -0.513996 121 87 71
-161.077 -1080.21 -1643.82 0.427833 0.286108 -0.820628 156 115 93
-158.145 -1074.41 -1636.41 0.627329 0.155196 -0.534023 121 88 72
-127.735 -1096.84 -1642.98 -0.850176 0.259533 -0.137007 124 94 75
-125.018 -1085.03 -1639.63 -0.979993 0.332662 -0.238765 105 79 66
-122.614 -1075.01 -1639.36 -0.90536 0.303852 -0.0877107 106 80 67
-54.7083 -872.079 -1641.02 -0.118494 0.254656 -0.938257 183 136 104
-68.3736 -855.562 -1640.68 0.144984 0.2645 -0.92591 181 134 104
-56.9227 -866.306 -1643.78 -0.0993898 0.302839 -0.941598 186 139 107
-62.2707 -859.883 -1641.45 0.00183693 0.360997 -0.939545 186 139 108
-150.126 -803.316 -1638.62 0.737935 0.373703 -0.544459 117 90 82
-148.048 -811.634 -1644.79 0.579506 0.501601 -0.63642 109 86 80
-134.123 -809.11 -1639.05 0.313368 0.41855 -0.615228 118 92 82
-130.869 -804.731 -1637.48 -0.0977613 0.36616 -0.521983 116 89 77
-74.6331 -851.569 -1642.38 0.311273 0.0247898 -0.91663 178 131 103
-75.9851 -848.485 -1643.05 0.336865 -0.0560656 -0.918038 178 130 103
-65.9402 -851.589 -1639.5 0.112214 0.172544 -0.928821 183 136 106
-59.9814 -844.773 -1640.65 -0.0706619 -0.164568 -0.916241 187 139 108
-66.8718 -842.224 -1641.98 0.156652 -0.18917 -0.926913 179 132 103
-56.136 -841.84 -1643.05 -0.21902 -0.245639 -0.886227 189 141 109
-80.98 -817.253 -1640.66 0.323215 0.265533 -0.885542 171 125 97
-80.7529 -815.517 -1639.92 0.344309 0.257224 -0.879871 171 125 96
-82.1664 -807.208 -1638.79 0.46203 0.166685 -0.872928 166 119 91
19.3891 -625.085 -1639.13 -0.462381 0.787184 0.323282 185 185 199
29.7208 -619.111 -1640.74 -0.53774 0.761068 0.328165 185 185 198
36.4446 -614.723 -1639.57 -0.596836 0.732836 0.320415 180 181 196
43.1307 -607.927 -1641.64 -0.694642 0.558753 0.421058 179 180 193
50.1378 -599.068 -1639.34 -0.806356 0.347108 0.446992 182 180 195
51.5528 -589.902 -1641.68 -0.786336 0.249543 0.481723 176 176 190
-151.84 -581.699 -1640.84 -0.720757 0.0205202 0.689824 143 140 154
-148.385 -573.674 -1638.02 -0.728614 0.0256078 0.690969 135 134 149
-135.11 -575.898 -1644.42 -0.71146 -0.00960184 0.728863 135 134 149
-148.608 -562.912 -1638.51 -0.75974 -0.0189559 0.645639 135 135 150
-135.205 -566.092 -1643.94 -0.713552 -0.0166271 0.772784 136 134 149
-134.578 -582.547 -1641.59 -0.740883 -0.0238135 0.475338 137 136 150
-121.381 -570.754 -1639.53 -0.905051 0.0906324 -0.477247 152 149 163
-118.103 -564.318 -1643.16 -0.889159 0.117947 -0.457792 153 152 166
-118.863 -558.995 -1640.45 -0.898041 0.0851761 -0.465386 150 149 164
-151.442 -549.356 -1641.44 -0.709294 0.0754816 0.698222 143 141 156
-134.237 -555.952 -1639.26 -0.776659 0.0119105 0.497897 137 137 152
-149.427 -532.034 -1643.05 -0.689297 0.173545 0.709936 143 142 158
-134.237 -554.557 -1639.83 -0.781197 0.00735397 0.383249 139 139 154
-134.254 -549.274 -1642.4 -0.779244 -0.0102057 0.022177 144 144 160
-118.273 -547.644 -1642.79 -0.889409 -0.051569 -0.46653 150 149 165
-126.255 -538.235 -1637.48 -0.706551 -0.192254 -0.359597 134 135 151
-122.726 -535.713 -1642.62 -0.726908 -0.170931 -0.391103 144 144 161
-148.518 -526.569 -1643.31 -0.670461 0.173974 0.728126 147 146 163
-145.128 -521.591 -1640.33 -0.682435 0.12103 0.722135 135 136 152
-323.733 -7.91817 -1639.16 0.4943 0.635931 -0.479513 20 20 24
-355.277 22.6509 -1638.89 0.771311 0.522949 0.186796 23 22 30
-357.214 30.2649 -1641.59 0.707085 0.349101 0.426976 26 25 33
-355.721 34.8665 -1644.24 0.64203 0.152057 0.702531 29 27 35
-352.062 20.1822 -1643.34 0.787806 0.422194 0.373601 23 22 30
-329.622 33.7917 -1637.91 0.542436 0.140029 0.795486 35 35 42
-337.096 39.9045 -1643 0.202428 0.194065 0.792294 33 32 40
-361.621 47.0963 -1640.75 0.692382 0.18297 0.662133 28 27 35
-361.585 49.6031 -1641.44 0.671561 0.172678 0.699283 28 27 35
-370.562 60.0779 -1638.03 0.741663 0.263476 0.639003 27 26 34
-369.387 64.3149 -1640.49 0.713926 0.245299 0.675032 28 27 35
-363.169 57.1299 -1641.71 0.661977 0.189648 0.725474 28 27 34
-353.613 66.3311 -1643.27 0.508113 0.156367 0.823689 29 27 35
-334.908 43.3682 -1638.91 0.194462 0.146019 0.741141 34 34 41
-340.614 59.4303 -1640.73 0.292895 0.236236 0.827751 31 30 37
-348.164 62.3968 -1644.37 0.363786 0.196473 0.855215 30 29 36
-318.277 16.2606 -1644.25 0.603456 0.108218 0.73977 36 34 41
-315.751 24.6861 -1643.74 0.392611 -0.0273932 0.844736 27 26 34
-319.182 30.12 -1642.02 0.390324 -0.0367304 0.856036 30 29 36
-321.342 38.9851 -1638.64 0.298424 -0.176227 0.913391 33 33 40
-315.756 34.9227 -1641.11 0.245919 -0.173624 0.914987 29 30 36
-301.52 29.0869 -1643.39 0.114567 -0.333922 0.923844 132 130 136
-311.444 38.4849 -1640.3 0.120734 -0.267104 0.946998 39 41 45
47.4035 44.1204 -1642.82 -0.675513 0.433435 0.560175 29 31 37
54.2665 49.3119 -1637.93 -0.691758 0.435285 0.512067 27 30 35
61.9625 8.22463 -1638.56 -0.57849 0.269658 0.763682 25 24 32
57.1549 14.5619 -1643.99 -0.50897 0.24185 0.831013 24 23 31
68.6351 17.8758 -1637.59 -0.529929 0.238991 0.806018 26 24 33
64.6363 22.9242 -1639.68 -0.529415 0.236771 0.799144 25 23 31
66.5222 31.7739 -1637.56 -0.517191 0.257073 0.810513 25 23 31
74.5411 37.7193 -1638.66 -0.395769 0.356942 0.840717 24 23 32
72.8963 40.7891 -1637.62 -0.438265 0.402519 0.797653 24 23 31
58.9934 62.4833 -1643.24 -0.6041 0.239931 0.646568 31 33 40
67.2707 67.5714 -1644.28 -0.360191 0.149811 0.463746 35 30 42
32.2321 -1199.22 -1632.11 0.116303 0.40101 -0.523994 47 38 33
37.4816 -1198.47 -1632.98 0.147871 0.595879 -0.349448 75 62 53
-401.558 69.6926 -1633.62 0.208519 0.714794 -0.223068 30 28 36
-379.641 76.5889 -1642.34 0.348985 0.128663 -0.00524432 60 44 59
-387.687 71.0562 -1636.96 0.18923 0.496271 -0.351096 40 34 44
-382.352 80.7799 -1644.19 0.189152 0.0161773 -0.272849 78 54 73
-367.704 72.7544 -1642 0.669287 0.230254 0.6562 34 30 39
-373.493 77.5033 -1643.18 0.460402 0.121193 0.253567 55 41 55
-376.844 76.3547 -1642.95 0.422291 0.11102 0.146442 58 43 57
-357.572 79.5063 -1639.93 0.606058 0.212796 0.710206 35 30 39
-357.514 74.7159 -1641.11 0.604407 0.1973 0.747609 32 29 37
-372.825 84.6776 -1644.18 0.411219 0.107237 0.227325 61 44 59
-369.408 84.4356 -1643.62 0.515038 0.167118 0.443521 51 39 51
-359.857 90.3476 -1641.16 0.611206 0.24032 0.726895 39 32 41
-364.18 84.9674 -1642.4 0.613602 0.227291 0.673177 40 33 42
-342.703 74.7648 -1632.08 0.508099 0.167361 0.745302 29 28 34
-344.846 78.6283 -1632.63 0.519802 0.148757 0.759842 30 29 35
-350.874 77.2391 -1638.01 0.487543 0.190648 0.767973 33 30 38
-345.771 88.354 -1633.42 0.6386 0.227992 0.703796 30 28 34
-351.967 90.7822 -1637.38 0.63136 0.243683 0.712889 35 30 38
-353.88 94.5587 -1638.66 0.635866 0.253895 0.710187 37 31 40
-358.282 104.078 -1642.32 0.621352 0.253188 0.711041 41 34 43
-364.278 99.45 -1644.19 0.617114 0.253991 0.735769 43 34 44
-358.776 111.988 -1644.61 0.607433 0.249466 0.715039 42 34 44
-345.522 96.7036 -1634.42 0.671918 0.260936 0.679923 31 28 35
-353.572 98.5382 -1638.97 0.642748 0.262152 0.704431 37 32 40
-339.715 106.809 -1636.37 0.664214 0.276532 0.68487 26 25 32
-345.802 112.04 -1640.38 0.600836 0.256592 0.730471 37 32 40
-343.095 112.755 -1640.13 0.589984 0.25517 0.742259 36 32 39
42.2528 -214.442 -1624.43 -0.754499 -0.0590679 -0.531746 72 76 87
44.8302 -210.269 -1626.14 -0.583643 0.0848512 -0.492492 70 73 84
0.642553 -200.228 -1628.68 -0.987182 0.00494824 0.0966941 27 29 36
1.09914 -190.024 -1626.93 -0.992009 0.102888 -0.00907639 28 29 37
26.564 -201.54 -1628.06 -0.880414 -0.0681651 0.303801 31 32 40
2.088 -183.611 -1626.07 -0.988643 0.0921587 -0.0256599 28 29 37
25.2206 -185.535 -1627.64 -0.889538 -0.0446633 0.303097 30 31 39
25.0173 -180.673 -1627.99 -0.887888 -0.0611778 0.299893 30 31 39
53.062 -201.613 -1628.63 -0.429798 0.260729 -0.567183 44 45 57
39.5537 -180.919 -1630.02 -0.847427 -0.103642 0.548714 36 35 47
46.1003 -178.295 -1630.16 -0.787956 -0.136598 0.456866 37 36 48
3.14798 -174.601 -1627.71 -0.998876 0.021237 -0.000623034 29 30 38
23.7381 -170.556 -1626.27 -0.884861 -0.121533 0.253969 30 31 39
23.2298 -168.162 -1625.96 -0.881594 -0.137431 0.246333 30 31 39
2.18592 -155.016 -1629.75 -0.866924 -0.19954 0.119406 33 33 41
21.9973 -163.23 -1628.31 -0.86892 -0.156523 0.228211 31 31 40
41.7419 -173.765 -1627.07 -0.629415 -0.0612091 0.177385 44 45 57
44.2893 -175.934 -1627.62 -0.645231 -0.110725 0.187872 42 42 54
42.3189 -162.653 -1627.46 -0.585664 0.223683 0.427767 43 43 55
55.7728 -200.08 -1630.05 -0.523405 0.319438 -0.670816 38 40 52
-203.825 -1084.1 -1622.21 0.876263 0.0559028 -0.111471 167 119 90
-186.46 -1100.18 -1618.35 0.440341 0.211262 0.776941 163 130 101
-185.984 -1082.35 -1623.6 0.333934 0.187653 0.287894 157 120 91
-182.469 -1076.6 -1623.59 0.264819 0.193175 0.46468 156 121 93
-216.772 -1031.74 -1618.12 0.959721 0.266706 -0.0246349 164 116 89
-207.521 -1067.4 -1619.06 0.973622 0.194237 -0.0701112 163 115 87
-210.59 -1054.12 -1619.09 0.938194 0.161492 -0.202135 158 112 84
-211.57 -1051.06 -1622.15 0.955079 0.148228 -0.0745138 156 110 83
-176.533 -1065.6 -1621.43 0.336876 0.041514 -0.282151 156 117 92
-172.463 -1056.61 -1621.6 0.358664 0.0117735 -0.40977 152 113 90
-168.553 -1049.2 -1618.22 0.35482 0.0576446 -0.2989 157 117 92
-214.049 -1038.32 -1619.02 0.940402 0.2312 -0.0762717 161 114 87
-167.809 -1042.13 -1618.57 0.538289 0.110701 -0.250396 156 114 89
-167.293 -1037.37 -1617.57 0.654561 0.139823 -0.240459 152 111 86
-173.567 -1023.78 -1619.79 0.659061 0.15778 -0.300487 154 111 85
-222.068 -1014.99 -1619.23 0.91703 0.245765 -0.0451841 166 118 90
-224.711 -1000.54 -1622.32 0.91851 0.251758 -0.0599018 159 112 84
-225.226 -993.573 -1619.3 0.873133 0.257042 -0.278253 157 110 82
-317.923 -531.695 -1623.59 0.568368 -0.0926798 0.811129 174 173 191
-337.966 -518.172 -1617.07 0.976649 -0.130756 -0.00259115 174 173 194
