ply
format ascii 1.0
comment Created by Open3D
element vertex 734
property double x
property double y
property double z
property double nx
property double ny
property double nz
property uchar red
property uchar green
property uchar blue
end_header
304.444 109.837 -1904.87 0.254208 -0.16269 0.928914 228 199 185
317.49 107.784 -1908.13 0.447853 -0.0176547 0.875043 230 205 194
-317.258 -989.662 -1895.77 -0.69641 -0.0671669 -0.714358 32 35 35
-315.459 -983.418 -1898.13 -0.678033 -0.0369203 -0.733814 33 35 35
-367.508 -975.008 -1895.45 -0.618946 0.29224 -0.715176 38 41 37
-364.918 -965.169 -1893.73 -0.647847 0.21253 -0.72548 38 41 37
-362.111 -956.002 -1893.76 -0.633991 0.135005 -0.761285 38 41 38
-361.229 -950.265 -1893.27 -0.61897 0.098476 -0.777939 38 41 38
-359.869 -941.523 -1894.15 -0.60949 0.0287252 -0.79158 38 41 38
-358.417 -935.065 -1895.75 -0.622969 0.0106883 -0.779935 38 41 38
-337.23 -971.677 -1896.77 -0.621758 0.165597 -0.764405 39 42 37
-339.389 -970.38 -1894.49 -0.621876 0.166658 -0.764698 39 42 37
-336.715 -962.188 -1896.41 -0.622849 0.166799 -0.763352 39 42 37
-318.893 -972.896 -1895.07 -0.668673 -0.0235223 -0.739585 34 36 36
-315.632 -966.613 -1897.46 -0.640893 0.0301664 -0.765164 35 37 36
-315.249 -963.191 -1897.33 -0.645933 0.0537922 -0.759171 34 37 36
-339.738 -946.897 -1892.98 -0.643845 0.0528849 -0.758199 39 42 37
-337.452 -945.079 -1894.99 -0.648486 0.0417839 -0.755683 39 42 37
-334.459 -940.002 -1897.64 -0.662144 0.00664791 -0.748143 39 42 37
-315.736 -951.576 -1893.59 -0.711998 0.133786 -0.68523 34 37 36
-313.872 -943.834 -1895.48 -0.739312 0.0262732 -0.67317 34 37 36
-311.35 -934.863 -1897.74 -0.73857 0.0615692 -0.669914 32 34 34
-317.896 -741.279 -1892.59 -0.745308 -0.0274401 -0.659788 33 37 36
-315.414 -731.376 -1894.2 -0.744071 0.0467638 -0.665314 34 37 36
-247.896 -822.51 -1897.33 0.554153 -0.00846474 -0.830262 35 38 38
-246.188 -815.587 -1895.35 0.537697 0.0520657 -0.83835 32 36 35
-243.678 -806.923 -1894.48 0.456565 -0.0206508 -0.885762 32 36 35
-243.43 -810.122 -1894.1 0.476009 -0.00743065 -0.874792 31 36 35
-247.597 -797.722 -1896.89 0.428944 -0.0623115 -0.89965 33 37 36
-241.326 -795.897 -1893.65 0.507675 -0.0260073 -0.852953 35 39 38
-248.796 -781.565 -1898.16 0.390113 0.0506064 -0.922576 35 39 38
-240.362 -780.63 -1893.5 0.588115 0.15141 -0.7789 36 40 39
-233.503 -614.678 -1895.39 0.682029 -0.234393 -0.687778 33 35 35
-230.215 -609.335 -1893.14 0.708791 -0.169611 -0.677567 33 35 36
-231.846 -593.887 -1896.44 0.628864 -0.0519447 -0.774389 31 34 36
-230.976 -595.516 -1895.54 0.644806 -0.0615988 -0.758746 32 34 36
-227.019 -583.96 -1892.01 0.695556 0.013042 -0.717043 30 31 33
-230.84 -577.439 -1895.26 0.687351 -0.0170768 -0.724578 30 33 34
-227.344 -566.199 -1894.71 0.622705 -0.257063 -0.731108 32 33 35
-222.499 -561.185 -1893.96 0.571073 -0.360255 -0.737688 33 33 35
-220.58 -551.99 -1897.41 0.566298 -0.293885 -0.763459 32 32 34
-213.565 -546.986 -1893.26 0.655535 -0.152693 -0.730435 30 30 32
-160.271 -1168.69 -1894.09 -0.794383 0.111274 -0.603242 76 68 55
-158.84 -1148.77 -1892.96 -0.833354 0.114206 -0.542051 29 29 26
-157.616 -1145.95 -1894.34 -0.820489 0.117734 -0.556993 29 29 27
-155.549 -1134.71 -1894.75 -0.770239 0.156707 -0.615809 29 29 27
-150.718 -1126.12 -1897.33 -0.609355 0.221576 -0.748339 33 32 31
24.0403 -1185.57 -1898.11 0.613972 0.663854 -0.391327 33 31 29
-7.21968 -1170.96 -1895.41 -0.0788564 1.02748 -0.0926628 43 38 37
2.70649 -1171.87 -1896.93 0.238547 0.941411 -0.102166 49 43 41
-136.085 -1020.59 -1893.2 -0.841103 0.0160742 -0.520833 28 33 30
-133.727 -1008.21 -1895.07 -0.850512 0.129626 -0.507176 29 33 30
-131.523 -1000.12 -1894.57 -0.837696 0.209428 -0.497598 29 33 30
-129.142 -989.45 -1894.45 -0.750333 0.184018 -0.591753 30 33 32
-127.911 -980.941 -1896.44 -0.770305 0.0592904 -0.613334 29 31 31
-126.977 -974.431 -1897.7 -0.692091 -0.00143903 -0.710652 29 31 32
-129.643 -962.094 -1897.44 -0.737945 -0.161666 -0.652466 32 34 35
-56.9652 -875.826 -1893.18 0.983915 -0.000583953 -0.0329965 33 35 32
-57.5557 -865.989 -1897.21 0.960174 0.00582717 -0.217961 33 36 33
-52.6471 -850.653 -1893.86 0.91759 -0.204457 -0.298438 33 36 33
-52.0449 -838.018 -1895.19 0.914533 -0.0235895 -0.371383 33 36 33
-130.408 -825.339 -1894.81 -0.752464 0.0480782 -0.656577 32 34 34
-129.602 -817.767 -1895.14 -0.700034 0.0717486 -0.705467 32 34 34
-128.858 -807.157 -1896.63 -0.639269 -0.00701996 -0.757321 32 35 34
-127.605 -796.607 -1897.46 -0.67699 0.118627 -0.715598 33 35 34
-126.586 -787.945 -1896.05 -0.725634 0.154817 -0.66453 34 36 35
-127.7 -778.553 -1892.48 -0.75039 0.144035 -0.643229 33 36 35
-124.195 -768.066 -1893.95 -0.74736 0.120665 -0.651081 33 36 33
-122.792 -759.695 -1894.47 -0.769878 0.103813 -0.631752 31 34 31
-122.266 -748.273 -1893.79 -0.745213 0.10468 -0.658968 30 33 30
-222.65 -280.775 -1893.9 -0.249956 0.109125 -0.962131 49 52 51
-219.629 -284.98 -1894.96 -0.234241 0.104309 -0.96784 49 52 50
-214.421 -279.23 -1895.38 -0.205938 0.144483 -0.962718 49 52 50
-222.528 -273.267 -1892.27 -0.202498 0.260616 -0.935196 51 54 53
-286.803 0.951348 -1892.99 -0.651643 0.0154536 -0.739896 221 215 168
-283.59 9.32056 -1894.44 -0.564608 -0.0365512 -0.796994 221 214 167
-273.25 -10.8451 -1897.1 -0.139064 -0.114807 -0.953976 225 220 177
-268.238 -10.5793 -1897.64 -0.103096 -0.175339 -0.952147 227 222 177
-285.633 14.2204 -1892.67 -0.482393 -0.0453786 -0.840447 222 216 167
-285.602 22.6706 -1893.24 -0.552945 0.00917925 -0.81151 222 217 174
-286.176 32.7913 -1894.57 -0.464242 -0.0656877 -0.871276 212 211 188
-284.57 38.7163 -1895.86 -0.518871 -0.0281851 -0.83141 209 207 181
-284.338 45.1932 -1895.81 -0.399546 0.0270639 -0.895511 211 210 186
-284.314 50.6121 -1898.3 -0.462802 0.000873329 -0.841006 215 211 188
-157.937 -245.697 -1895.97 -0.0152246 0.108344 -0.981381 47 49 49
-154.239 -243.405 -1895.59 0.0501051 0.152241 -0.972673 49 51 51
-143.768 -247.959 -1894.07 0.159564 0.102219 -0.971589 47 49 49
-140.447 -239.227 -1892.49 0.148658 0.088765 -0.978857 47 49 48
-131.826 -258.597 -1893.72 -0.0174357 0.218919 -0.961552 45 47 47
-130.525 -254.313 -1893.2 -0.0292871 0.14581 -0.974181 44 46 46
-118.705 -259.076 -1894.21 -0.0149747 0.309197 -0.941132 45 47 47
-120.269 -252.445 -1892.74 0.0167488 0.184592 -0.967683 41 43 43
-126.993 -245.924 -1892.24 0.0420512 0.125617 -0.984284 48 50 50
-69.5113 -311.878 -1896.51 0.33178 0.290344 -0.89635 49 51 49
-72.6403 -306.145 -1896.37 0.353914 0.221464 -0.902249 50 52 50
-68.3003 -307.313 -1894.75 0.336308 0.278583 -0.896199 49 51 50
-71.2908 -299.207 -1895.06 0.378951 0.0927781 -0.911039 49 51 50
-75.2816 -297.3 -1896.96 0.330726 0.0581184 -0.933328 49 51 49
-66.9579 -298.621 -1892.89 0.402955 0.0950804 -0.907619 51 53 53
-52.5113 -336.296 -1896.68 0.596016 0.243272 -0.753133 46 48 46
-53.4117 -329.502 -1895.79 0.550991 0.188281 -0.788029 47 49 47
-58.5321 -320.233 -1896.24 0.288151 0.282821 -0.879184 49 51 49
-77.9724 -38.8328 -1896.43 0.567555 -0.065911 -0.801542 178 178 130
-70.9531 -34.912 -1892.7 0.432795 -0.119925 -0.894047 184 184 141
-63.6035 -34.0849 -1893.5 0.467088 -0.226195 -0.804681 184 182 134
-67.3063 -24.1329 -1896.49 0.515628 -0.309168 -0.782479 177 176 129
-52.6566 -39.8581 -1895.62 0.680896 -0.344995 -0.628199 186 178 122
-48.2191 -25.978 -1896.4 0.779312 -0.278211 -0.542072 183 175 117
-44.2459 -18.609 -1895.15 0.77188 -0.382741 -0.482248 184 176 118
-40.5355 -13.0545 -1896.81 0.731286 -0.492444 -0.460614 186 178 120
-33.277 -1.19062 -1897.64 0.776909 -0.264855 -0.559246 190 182 125
-91.0572 273.301 -1895.93 0.87301 0.256511 -0.23215 28 25 29
-101.256 286.142 -1895.2 0.653208 0.430816 -0.492256 33 30 34
-100.07 289.68 -1893.87 0.596836 0.222236 -0.665852 35 31 35
-101.209 298.389 -1894.43 0.499745 -0.193163 -0.819006 38 34 37
-104.895 301.034 -1896.12 0.55285 -0.296526 -0.640471 38 35 39
-96.0641 304.585 -1893.7 0.456278 -0.0994079 -0.793389 39 34 38
-98.1396 306.443 -1893.98 0.405895 0.0921801 -0.786222 37 34 37
-100.226 311.15 -1893.45 0.333402 0.438911 -0.721989 36 32 35
197.159 38.6255 -1893.81 0.194988 -0.640491 0.662851 177 140 124
216.322 40.0864 -1893.27 0.229352 -0.771211 0.548834 159 127 111
224.819 41.4043 -1896.81 0.232708 -0.823086 0.505598 152 122 106
240.347 44.5652 -1895.99 0.374659 -0.701504 0.578106 163 130 115
-326.653 -987.289 -1885.94 -0.726099 -0.079258 -0.681784 33 35 35
-322.949 -981.598 -1891.01 -0.713406 -0.0885527 -0.696185 33 35 35
-373.882 -966.78 -1886.77 -0.764311 0.16383 -0.623682 39 42 39
-369.488 -962.323 -1889.35 -0.688339 0.153854 -0.703682 39 42 39
-366.137 -960.875 -1891.62 -0.652391 0.162739 -0.736008 38 41 38
-368.981 -941.682 -1887.17 -0.625395 0.0391096 -0.777822 39 42 38
-362.67 -942.8 -1891.66 -0.605596 0.0298781 -0.794785 38 41 38
-364.668 -938.33 -1890.52 -0.614559 0.0171771 -0.78837 38 41 38
-342.653 -972.28 -1891.28 -0.625491 0.160705 -0.76228 39 42 37
-342.036 -972.147 -1891.9 -0.622287 0.165486 -0.764794 39 42 37
-343.116 -953.954 -1889.81 -0.634486 0.124456 -0.75725 39 41 37
-328.42 -973.124 -1886.33 -0.735275 0.0023329 -0.672368 33 35 35
-322.412 -968.08 -1891.86 -0.686441 0.021941 -0.722283 34 36 36
-319.914 -955.702 -1890.31 -0.691898 0.156694 -0.700969 35 37 37
-347.03 -940.955 -1886.61 -0.660996 -0.0226739 -0.742436 38 40 38
-346.075 -938.157 -1887.69 -0.657551 -0.0180458 -0.746965 38 41 37
-342.456 -939.595 -1891.12 -0.654647 -0.00777488 -0.754303 39 42 37
-320.068 -942.821 -1888.69 -0.690081 -0.00219393 -0.721511 35 37 37
-320.16 -936.305 -1889.56 -0.655828 0.0104446 -0.74999 34 37 36
-317.373 -937.868 -1891.53 -0.692931 -0.00391144 -0.719578 33 36 36
-340.437 -676.575 -1889.44 -0.645908 -0.0465022 -0.761017 39 43 40
-343.842 -669.26 -1887.48 -0.651385 -0.0343237 -0.75489 39 43 41
-340.665 -666.57 -1890.82 -0.681768 -0.0852004 -0.722774 40 44 42
-326.72 -669.783 -1887.99 -0.670571 0.0644403 -0.719255 36 39 36
-323.105 -667.425 -1887.05 -0.671083 0.201844 -0.684369 34 38 35
-330.845 -656.835 -1887.16 -0.685909 -0.0814583 -0.732033 41 45 44
-343.71 -656.009 -1890.81 -0.721451 -0.01374 -0.691949 39 43 42
-341.652 -654.021 -1891.92 -0.697664 0.0209236 -0.713486 39 43 42
-343.461 -633.295 -1887.85 -0.715503 0.0487787 -0.696033 40 44 43
-325.944 -650.938 -1888.99 -0.769256 -0.0272427 -0.611736 37 41 40
-325.124 -648.685 -1889.02 -0.788666 -0.0418178 -0.588943 37 41 40
-315.504 -656.359 -1891.78 -0.711657 0.197255 -0.633187 34 38 36
-325.404 -641.73 -1886.66 -0.803753 -0.0704372 -0.572849 36 40 39
-249.105 -719.787 -1890.71 0.845002 -0.0769488 -0.52758 30 34 33
-247.583 -709.298 -1887.68 0.829225 -0.0312195 -0.556546 31 34 33
-207.791 -526.621 -1891.84 0.683593 -0.292374 -0.661418 30 30 35
-193.627 -1194.1 -1891.28 0.43056 0.70735 -0.523512 3 3 3
-203.865 -1185 -1886.48 0.426864 0.575409 -0.64599 17 16 16
-174.129 -1193.77 -1888.4 -0.64325 0.587625 -0.414097 27 25 23
-167.274 -1183.9 -1888.23 -0.764891 0.422226 -0.451063 54 48 41
7.44934 -1175.05 -1886.93 0.575104 0.536926 -0.265738 43 39 37
25.1544 -1185.05 -1889.99 0.50476 0.804942 -0.187513 38 35 34
-9.76855 -1172.05 -1889.6 -0.183557 0.933511 -0.20728 35 31 30
5.94884 -1174.16 -1888.86 0.487261 0.630502 -0.221747 43 39 37
-138.952 -1017.2 -1887.13 -0.869587 0.0227099 -0.487378 29 33 30
-136.774 -1007.04 -1887.73 -0.868076 0.154675 -0.468225 29 32 30
-133.696 -993.466 -1886.1 -0.866899 0.216622 -0.447785 29 32 31
-131.363 -989.159 -1889.96 -0.813814 0.173151 -0.511628 29 33 32
-135.162 -976.077 -1885.09 -0.815198 0.0324122 -0.508847 26 29 29
-136.167 -959.997 -1887.91 -0.82996 -0.143678 -0.538974 29 31 32
-133.11 -965.614 -1891.41 -0.803015 -0.128849 -0.580089 28 30 32
-128.789 -735.523 -1886.81 -0.727837 0.0553198 -0.678538 28 31 28
-50.7 -826.829 -1888.4 0.962592 -0.114293 -0.204021 32 35 31
-46.7289 -811.041 -1889.8 0.903564 -0.153394 -0.296497 32 35 32
-46.2833 -803.597 -1887.83 0.932439 -0.106657 -0.104673 32 35 32
-45.9966 -791.106 -1890.75 0.965972 -0.0476216 -0.176187 33 36 33
-45.594 -779.456 -1890.38 0.970156 -0.0776951 -0.165294 33 36 33
-39.9637 -764.992 -1889.09 0.948137 -0.216477 -0.0907035 34 37 34
-326.882 -434.904 -1887.99 -0.766144 0.0517545 -0.623805 51 55 55
-323.667 -426.55 -1891.54 -0.76766 -0.160743 -0.596774 53 57 58
-325.723 -412.496 -1886.73 -0.803258 0.243261 -0.516642 50 55 54
-320.158 -403.829 -1888.31 -0.763921 0.421131 -0.47208 50 55 54
-317.142 -397.167 -1887.36 -0.819493 0.396362 -0.317665 51 55 54
-315.177 -387.623 -1889.94 -0.839999 0.0438261 -0.501182 49 54 52
-314.78 -379.011 -1890.17 -0.762728 0.121317 -0.632573 49 53 51
-313.88 -368.848 -1889.57 -0.799493 0.100275 -0.577409 50 54 51
-314.632 -359.636 -1886.46 -0.841328 0.135136 -0.514041 51 55 51
-306.963 -349.214 -1889.92 -0.681629 0.281814 -0.650013 51 55 53
-297.735 60.5808 -1888 -0.649906 0.141268 -0.737079 202 165 138
-294.618 68.0248 -1887.81 -0.649265 0.22167 -0.720544 216 195 159
-291.184 71.331 -1889.89 -0.640503 0.230935 -0.725991 223 211 169
-292.725 85.105 -1885.9 -0.721898 0.0858509 -0.681333 231 228 182
-289.244 93.8256 -1891.27 -0.639019 0.00562735 -0.760855 250 249 216
-42.334 -363.365 -1892.43 0.714619 0.254649 -0.60457 42 45 42
-30.8826 -379.668 -1886.69 0.79156 0.109919 -0.574374 40 44 41
-42.3552 -359.81 -1891.37 0.773315 0.146915 -0.574766 42 45 42
-39.8142 -348.484 -1886.57 0.802332 0.0433965 -0.587992 42 45 42
-41.7906 -338.343 -1886.91 0.703638 0.243996 -0.655578 42 45 42
-200.563 -160.433 -1890.37 -0.275079 -0.083903 -0.956321 221 218 164
-197.604 -156.277 -1891.36 -0.249787 -0.0407596 -0.96776 215 212 157
-189.65 -153.754 -1891.6 -0.0814062 0.066318 -0.991922 212 209 152
-197.468 -148.839 -1890.77 -0.0932187 -0.0632475 -0.971761 196 192 130
-195.844 -140.511 -1891.4 0.0606304 -0.192422 -0.957973 182 178 115
-186.892 -145.592 -1891.29 -0.0323397 -0.0259529 -0.995338 198 194 133
-181.781 -159.244 -1891.7 0.0819499 0.122789 -0.996728 221 218 166
-177.997 -154.451 -1890.75 0.0702177 0.0877624 -0.99506 218 215 160
-165.932 -157.963 -1892.07 -0.19014 0.140575 -0.976236 239 235 191
-181.012 -149.945 -1890.88 0.0331617 0.0265322 -0.995936 210 206 148
-173.664 -143.997 -1891.63 0.0203057 -0.150934 -0.981347 207 204 147
-156.527 -184.038 -1888.79 -0.0229382 -0.0504749 -0.989545 121 121 91
-153.752 -177.027 -1890.79 0.00872216 -0.293555 -0.950453 179 175 125
-142.193 -184.324 -1887.35 0.0983492 0.0477517 -0.989305 178 172 124
-144.496 -179.712 -1888.7 0.0859099 -0.116013 -0.968378 184 179 128
-145.176 -173.407 -1891.43 0.115537 -0.358223 -0.921681 200 194 136
-139.035 -175.45 -1888.52 0.162419 -0.232182 -0.926841 198 191 131
-123.993 -187.074 -1887.39 0.0190746 0.137124 -0.985299 184 180 126
-114.348 -187.257 -1886.63 0.208017 0.156877 -0.967175 186 181 127
-133.085 -171.157 -1889.75 0.163785 -0.508325 -0.839479 209 204 142
-122.612 -169.071 -1889.45 0.165529 -0.377109 -0.857386 208 203 141
-120.818 -166.371 -1890.96 0.200053 -0.42176 -0.848914 206 201 140
-150.986 -146.08 -1891.85 0.0629968 -0.168321 -0.965688 212 210 155
-108.532 -161.091 -1887.04 0.367356 -0.451207 -0.807416 229 225 172
-103.349 -233.939 -1889.8 0.00976306 0.308064 -0.928986 49 50 50
-104.558 -226.65 -1886.29 0.107436 0.435006 -0.852976 53 55 55
-94.2737 -237.361 -1889.06 0.230751 0.226771 -0.910835 47 48 47
-353.256 -1019.62 -1890.44 -0.610589 -0.0544019 -0.777308 37 40 36
-348.989 -1025.72 -1896.11 -0.564854 -0.0848055 -0.80854 36 40 36
-353.252 -1018.46 -1890.16 -0.612226 -0.0540017 -0.77653 37 40 36
-352.035 -1004.38 -1886.94 -0.652556 0.048844 -0.747461 32 34 34
-347.299 -1009.41 -1893.12 -0.625847 -0.0412433 -0.765495 34 37 35
-349.07 -990.972 -1887.01 -0.637875 0.0903813 -0.744138 36 38 36
-346.711 -995.839 -1890.33 -0.644594 0.056992 -0.739812 35 37 35
-5.54894 61.8564 -1896.37 0.281454 -0.288903 0.25705 202 183 152
-2.03703 64.263 -1897.78 0.231199 -0.33198 0.518524 202 179 153
-5.19331 74.768 -1897.92 0.202605 -0.282817 0.304564 205 184 157
-6.84183 89.9778 -1897.39 0.250323 -0.275719 -0.145009 211 197 161
-9.68149 106.767 -1892.56 0.525366 0.374133 -0.269705 238 230 208
-4.76724 95.0213 -1896.38 0.215157 -0.309047 -0.0151417 210 193 160
5.34448 109.994 -1885.4 0.0516415 -0.40546 0.853704 198 167 150
-173.005 175.537 -1890.45 0.355891 0.221249 -0.256505 31 26 27
-175.315 182.879 -1894.48 0.392382 0.198802 -0.243156 35 30 31
-169.49 177.313 -1896.69 0.401834 0.181149 -0.220315 32 26 27
-219.939 -1098.94 -1885.2 0.632159 0.179735 -0.751465 30 34 33
-217.138 -1098.42 -1882 0.646021 0.21014 -0.732343 30 33 32
-221.981 -1077.1 -1882.92 0.666686 0.0898432 -0.736813 32 35 35
-225.733 -1074.39 -1885.73 0.705638 0.121905 -0.696042 33 36 35
-224.536 -1065.28 -1881.97 0.639802 0.167763 -0.744862 31 34 33
-225.643 -1058.54 -1881.87 0.635617 0.11871 -0.754005 31 34 34
-227.706 -1049.52 -1883.8 0.648979 0.00786771 -0.75674 30 34 33
-226.323 -1044.17 -1882.74 0.642746 -0.0109089 -0.765931 29 33 32
-223.079 -1034.49 -1879.71 0.613349 0.0301455 -0.787745 29 32 31
-224.654 -1032.89 -1880.87 0.624904 0.0375092 -0.777008 29 32 32
-386.709 -1016.97 -1882.37 -0.749694 0.110138 -0.646537 37 42 38
-384.206 -1010.32 -1884.16 -0.77353 0.164399 -0.60545 36 41 37
-380.865 -996.916 -1883.06 -0.854615 0.161619 -0.485314 38 42 39
-379.617 -978.356 -1880.97 -0.795149 0.0566695 -0.594816 37 41 38
-343.335 -853.869 -1881.17 -0.73104 0.0374992 -0.671183 34 37 36
-337.777 -846.331 -1885.54 -0.685457 0.064846 -0.718651 39 41 40
-341.238 -840.911 -1881.32 -0.727439 0.0222598 -0.679348 34 37 36
-324.24 -852.268 -1882.93 -0.756454 0.086255 -0.631579 31 35 34
-324.684 -837.045 -1883.16 -0.837169 -0.00155727 -0.538961 30 34 33
-324.165 -834.574 -1884.84 -0.844165 -0.0198008 -0.53032 29 33 32
-235.957 -918.061 -1883.02 0.626357 0.198588 -0.750701 30 34 33
-239.944 -909.757 -1882.48 0.632959 0.224629 -0.740526 31 35 34
-241.534 -907.694 -1883.4 0.638759 0.182068 -0.740227 32 36 35
-237.648 -900.839 -1879.87 0.634646 -0.0146769 -0.755606 34 37 37
-238.987 -889.142 -1885.64 0.628831 -0.217815 -0.744432 35 39 38
-232.055 -883.008 -1881.49 0.676403 -0.205781 -0.701452 33 37 36
-233.377 -864.759 -1885.32 0.604064 -0.0295721 -0.792482 32 36 35
-81.6181 296.846 -1884.94 0.634888 -0.48743 -0.597171 41 35 40
-87.1158 310.589 -1884.7 0.36404 0.541192 -0.710872 36 32 35
-89.0604 311.783 -1884.23 0.359486 0.593144 -0.71423 35 31 35
-104.514 327.244 -1881.5 0.644988 0.517654 -0.501244 33 29 32
-78.7518 308.174 -1879.93 0.559155 0.32879 -0.44764 37 33 36
197.047 42.2526 -1880.94 0.0878779 -0.806761 0.516981 156 121 107
207.415 41.0976 -1884.85 0.188228 -0.737364 0.56652 166 130 115
216.731 42.5578 -1885.72 0.254812 -0.720623 0.577486 165 131 115
227.077 48.7264 -1879.97 0.281247 -0.696615 0.638255 166 132 114
238.671 49.8533 -1882.02 0.26688 -0.695409 0.648905 170 136 119
249.781 51.6512 -1885.95 0.436781 -0.674405 0.588723 166 133 118
104.589 113.905 -1874.2 0.0200859 -0.0985302 0.935686 234 201 189
116.211 114.087 -1880.17 0.0439099 -0.0456461 0.936792 237 205 193
123.749 111.985 -1879.14 0.0881403 0.0357057 0.934729 239 209 198
131.381 109.255 -1877.37 0.0965753 0.181068 0.930919 245 216 206
151.736 108.496 -1880.91 -0.122292 0.208592 0.931181 246 217 207
176.077 108.722 -1884.63 0.0343787 -0.0774691 0.930245 236 203 190
-198.517 162.555 -1875.47 0.0684375 0.242629 -0.385424 99 95 89
-183.409 172.974 -1873.57 0.218694 0.341146 -0.353226 33 28 29
-183.747 179.505 -1880.7 0.335477 0.268741 -0.296533 34 29 29
-179.314 171.401 -1881.92 0.130586 0.419248 -0.408034 32 28 29
-186.493 184.405 -1878.75 0.314873 0.186765 -0.297997 35 30 30
-206.534 204.371 -1876.07 -0.470917 -0.387585 -0.621381 28 28 29
-400.584 -1203.68 -1866.82 -0.590285 0.082708 -0.347164 33 30 29
-397.608 -1194.76 -1867.49 -0.784554 -0.227522 -0.281311 31 29 28
-400.469 -1181.01 -1869.62 -0.872617 -0.417391 -0.269176 37 36 34
-373.91 -1175.27 -1871.7 -0.735992 0.145909 -0.425058 23 21 21
-361.275 -1181.8 -1872.54 -0.78943 0.23126 -0.394154 21 18 18
-355.214 -1175.07 -1873.18 -0.750307 0.189695 -0.537412 24 21 21
-374.219 -1167.68 -1867.8 -0.569431 -0.451187 -0.68518 38 38 36
-363.673 -1169.97 -1868.79 -0.64399 -0.170618 -0.651772 30 29 28
-365.232 -1162.5 -1871.79 -0.558175 -0.401713 -0.724871 37 38 36
-366.711 -1160.81 -1872.38 -0.540144 -0.419895 -0.734332 38 39 37
-384.277 -1128.01 -1869.95 -0.725068 0.147118 -0.655334 37 40 36
-220.605 -867.621 -1871.59 0.773096 -0.0682916 -0.629835 30 32 32
-219.879 -858.981 -1871.04 0.763506 -0.019516 -0.639833 30 33 31
-220.997 -851.947 -1872.22 0.731445 0.0369439 -0.672882 30 33 31
-223.581 -836.757 -1873.02 0.746068 0.0746443 -0.659856 30 33 32
-222.719 -833.76 -1872.07 0.747827 0.0630608 -0.659155 30 33 31
-373.35 -824.247 -1871.47 -0.747975 0.0269397 -0.656046 40 43 40
-373.593 -811.943 -1867.77 -0.835195 0.0680877 -0.53726 38 43 40
-371.575 -806.912 -1872.22 -0.820508 0.0198647 -0.565207 39 42 40
-371.117 -793.016 -1871.79 -0.745899 0.0190187 -0.653494 38 42 40
-370.082 -788.578 -1871.92 -0.734498 0.031378 -0.661957 38 42 40
-367.83 -780.374 -1871.66 -0.663612 0.144336 -0.722239 39 44 41
-353.062 -819.946 -1868.42 -0.795749 -0.00113745 -0.604692 35 39 37
-330.737 -825.722 -1871.45 -0.807258 -0.015921 -0.586264 31 35 34
-351.615 -815.947 -1869.56 -0.798418 -0.00904866 -0.600286 35 38 37
-330.772 -816.354 -1872.19 -0.809662 -0.0309728 -0.585956 32 35 35
-334.104 -805.246 -1869.01 -0.792313 -0.0135486 -0.603948 33 37 36
-343.139 -449.861 -1870.79 -0.802929 0.214456 -0.550679 47 53 53
-342.669 -442.213 -1869.36 -0.76248 0.188902 -0.619749 49 55 54
-184.138 -1170.54 -1870.79 0.0724225 0.43828 -0.752044 30 27 28
-189.499 -1166.86 -1870.93 0.424789 0.436364 -0.731093 28 25 25
-194.683 -1153.82 -1868.78 0.705338 0.303144 -0.628684 27 24 24
-179.439 -1171.55 -1872.84 -0.347691 0.290324 -0.787637 32 29 30
-174.541 -1159.7 -1870.28 -0.752542 0.30184 -0.599245 30 28 28
-171.948 -1149.22 -1869.83 -0.82558 0.224395 -0.513197 26 25 24
-195.109 -1142.15 -1867.86 0.760776 0.156227 -0.629522 27 24 25
-202.555 -1130.39 -1873.48 0.668866 0.161576 -0.715748 30 31 31
-170.446 -1140.1 -1867.9 -0.883274 0.298437 -0.385003 28 28 27
-62.5943 -966.369 -1870.25 0.876292 -0.128968 -0.416494 29 30 29
-61.9987 -963.865 -1869.61 0.870302 -0.111084 -0.44044 29 30 29
-61.6309 -952.285 -1871.26 0.939253 -0.0709763 -0.338012 30 31 29
-58.8806 -936.818 -1870.28 0.897007 -0.146396 -0.393622 28 30 29
-44.4958 -790.932 -1870.41 0.953201 -0.167499 -0.183457 33 35 32
-42.954 -774.831 -1868.19 0.95756 -0.0856829 -0.194209 33 35 33
-39.3783 -762.033 -1869.01 0.917828 -0.226517 -0.192687 31 34 32
-38.3916 -751.216 -1871.7 0.970739 -0.0206611 -0.113613 32 35 32
-36.1261 -738.267 -1869.81 0.906462 -0.172983 -0.31021 31 33 30
-33.8537 -733.367 -1867.8 0.862168 -0.197735 -0.424949 31 34 31
-135.421 -722.311 -1870.39 -0.807477 0.177656 -0.543958 27 29 26
-9.73745 -516.438 -1869.64 0.888503 -0.153297 -0.348456 35 38 37
-4.90585 -503.907 -1872.96 0.852877 -0.291007 -0.381446 35 37 37
-3.22373 -501.12 -1871.74 0.820776 -0.246575 -0.474007 35 37 36
-3.00282 -489.423 -1871.43 0.819057 0.0168395 -0.55969 34 37 35
-2.16092 -475.55 -1868.68 0.906942 0.0116827 -0.373267 38 39 39
-1.83433 -462.011 -1867.6 0.911308 0.0361604 -0.244414 39 40 40
-298.115 -137.119 -1872.08 -0.862118 -0.014192 -0.486272 220 220 182
-285.174 -137.911 -1872.48 -0.578736 -0.275055 -0.731386 203 200 155
-295.931 -123.78 -1874.25 -0.89071 0.105945 -0.431325 221 221 184
-280.087 -133.622 -1872.9 -0.450391 -0.379395 -0.80961 199 193 142
-299.552 -107.949 -1871.04 -0.746349 -0.147875 -0.616796 210 210 169
-304.355 -100.607 -1868.41 -0.772417 -0.125789 -0.590636 218 218 177
-300.657 -86.749 -1871.86 -0.907724 -0.000599078 -0.395309 224 224 185
-299.697 -82.0555 -1873.2 -0.905147 -0.0584261 -0.390884 224 223 183
-301.447 -64.2641 -1872.78 -0.908072 -0.00454997 -0.366249 219 217 175
-29.0029 -351.532 -1873.86 0.789204 0.123873 -0.563048 41 44 42
-25.7925 -346.715 -1866.23 0.834185 0.211648 -0.457598 42 45 42
-35.2964 -329.602 -1871.29 0.81798 0.384667 -0.381412 41 44 41
-40.3303 -321.279 -1873.2 0.707258 0.498285 -0.454918 41 44 41
-33.7483 -333.841 -1872.1 0.797212 0.300238 -0.460581 42 45 42
-38.5933 -309.628 -1866.66 0.773857 0.208435 -0.516813 42 45 42
-46.2866 -294.836 -1872.41 0.767334 0.143838 -0.547601 46 47 46
-59.2944 -257.914 -1867.78 0.654124 0.548187 -0.442739 43 43 42
155.466 45.8381 -1871.99 -0.0548476 -0.669479 0.655779 167 131 116
148.412 49.041 -1869.97 0.0431367 -0.616648 0.726177 178 140 123
153.229 47.8451 -1870.6 -0.0178643 -0.626664 0.701603 173 137 120
164.336 45.5706 -1868.99 -0.0912244 -0.660225 0.669655 168 131 117
164.705 46.4534 -1867.51 -0.102768 -0.613043 0.705034 172 135 120
-5.22855 118.879 -1871.54 0.384607 0.133621 0.405581 219 202 179
13.0691 119.515 -1873.28 0.100767 -0.335295 0.745649 201 172 154
15.6879 119.521 -1873.45 0.106253 -0.326033 0.74005 201 172 155
-405.817 -1049.65 -1862.53 -0.913342 0.16176 -0.351769 36 43 37
-402.103 -1202.7 -1863.87 -0.632062 0.00329889 -0.28756 33 31 30
-399.832 -1190.02 -1864.57 -0.828323 -0.334114 -0.193313 32 30 29
-401.855 -1181.44 -1866.66 -0.859328 -0.416067 -0.220234 36 36 34
-368.01 -1172.24 -1866.68 -0.652979 -0.120359 -0.579822 29 27 27
-375.979 -850.269 -1862.14 -0.872137 0.126651 -0.404228 40 44 41
-356.73 -848.364 -1864.48 -0.761959 0.0349665 -0.597036 38 41 39
-376.471 -837.436 -1865.43 -0.837479 -0.165333 -0.511746 40 44 40
-355.475 -839.413 -1866.89 -0.778342 0.019368 -0.597176 38 42 39
-357.421 -832.128 -1864.69 -0.766383 0.0359642 -0.598966 39 43 40
-341.215 -874.452 -1866.68 -0.770437 0.163292 -0.617824 33 36 36
-337.883 -862.313 -1865.3 -0.760618 0.22618 -0.606106 33 35 36
-337.831 -848.103 -1861.85 -0.724274 0.0811056 -0.669401 34 37 37
-333.849 -842.549 -1866.61 -0.752895 0.0245474 -0.652122 34 37 36
-338.18 -830.271 -1861 -0.746502 0.00946312 -0.661528 33 36 35
-209.652 -925.912 -1861.66 0.661889 0.114465 -0.741186 32 32 32
-219.248 -913.095 -1866.44 0.60355 0.18837 -0.774258 29 31 31
-216.538 -908.525 -1863.67 0.586517 0.137394 -0.797141 28 30 30
-220.473 -896.9 -1866.11 0.578129 -0.0232601 -0.810245 28 31 31
-217.113 -893.438 -1864.38 0.566113 -0.0673409 -0.819528 28 30 30
-213.143 -885.804 -1861.44 0.621708 -0.0394763 -0.77804 26 28 29
-355.424 -531.989 -1861.68 -0.849842 0.0995576 -0.505187 45 49 50
-352.395 -520.166 -1864.75 -0.871218 0.0605108 -0.445524 46 50 50
-351.869 -511.606 -1863.5 -0.857486 0.113784 -0.435209 46 49 50
-349.684 -496.436 -1867.84 -0.912424 0.0139522 -0.402635 46 50 51
-350.003 -487.67 -1866.48 -0.934595 0.0653893 -0.343883 46 50 51
-348.112 -475.128 -1864.82 -0.907001 0.175726 -0.371735 46 49 50
-346.575 -463.041 -1867.04 -0.911827 0.0765243 -0.377575 46 50 51
-39.6118 -1068.54 -1867.12 -0.0600777 0.400465 -0.894318 37 41 38
-52.7335 -1053.93 -1866.94 0.292615 0.0756281 -0.950972 33 36 33
-39.7666 -1063.9 -1866.23 0.063517 0.255357 -0.937722 35 39 36
-40.0737 -1054.27 -1865.84 0.112101 0.0351161 -0.981074 34 37 34
-31.8797 -1066.19 -1866.13 -0.00604559 0.308845 -0.925579 37 41 38
-20.5102 -1070.03 -1864.85 -0.0206847 0.415251 -0.882692 39 42 41
-18.7297 -1067.81 -1863.84 -0.0280346 0.345263 -0.899707 39 42 41
-31.0639 -1059 -1865.09 0.0399932 0.0991321 -0.965572 36 39 37
-32.391 -1054.05 -1865.43 0.0335371 0.00991565 -0.980611 35 39 36
-21.3144 -1062.05 -1862.94 -0.0192399 0.131519 -0.948488 38 42 40
-21.9085 -1053.37 -1864.01 -0.0023217 -0.0632094 -0.987239 38 42 40
-50.0725 -1049.54 -1866.55 0.212727 0.0413754 -0.975515 34 37 34
-51.9393 -1044.5 -1867.11 0.175851 0.06134 -0.985867 34 37 34
-38.0104 -1046.68 -1866.01 0.024287 0.00806795 -0.986802 34 37 34
-34.2937 -1042.96 -1865.75 -0.0533082 0.0782275 -0.972373 35 39 35
-50.647 -1036.71 -1865.52 0.2087 0.113118 -0.964316 33 37 33
-49.0204 -1031.94 -1864.16 0.237521 0.17591 -0.944111 33 36 33
-38.4382 -1035.29 -1863.69 0.0455213 0.202599 -0.957706 35 38 34
-31.1394 -1045.96 -1866.04 -0.0449904 0.0430609 -0.974497 36 40 37
-33.0173 -1042.24 -1865.68 -0.0672804 0.0978263 -0.968675 36 39 36
-18.2017 -1045.6 -1865 0.0197516 0.0173608 -0.986465 38 42 41
-21.7386 -1041.08 -1865.23 -0.0341688 0.122863 -0.971126 38 42 40
-11.592 -1039.63 -1864.98 0.048266 0.0915815 -0.997292 38 42 41
-24.2068 -1033.48 -1863.9 -0.0640456 0.279687 -0.940885 37 41 39
-23.9677 -1030.13 -1862.83 -0.0748953 0.370378 -0.909252 37 41 39
-42.4924 -784.094 -1865.45 0.95649 -0.0438352 -0.269267 33 35 32
-41.2134 -768.725 -1865.96 0.88517 -0.209159 -0.377104 30 32 31
-35.7271 -755.4 -1862.74 0.859943 -0.162672 -0.381923 31 34 31
-35.4019 -746.903 -1864.49 0.919766 -0.0724286 -0.355833 30 33 30
-33.6143 -738.655 -1864.75 0.861057 -0.187351 -0.446379 30 33 30
-140.745 -730.3 -1866.75 -0.737286 0.27155 -0.613625 27 28 27
-138.05 -718.772 -1866.2 -0.753712 0.0388139 -0.632751 26 27 26
-321.722 -337.183 -1865.56 -0.858701 0.198505 -0.44097 53 57 54
-318.758 -328.759 -1865.18 -0.822494 0.327306 -0.41582 52 56 53
-316.006 -318.104 -1862.08 -0.840491 0.233006 -0.399791 48 52 49
-312.232 -304.916 -1864.22 -0.91551 0.252617 -0.250877 51 54 53
-309.155 -296.422 -1861.74 -0.911098 0.345858 -0.171281 53 57 56
-324.442 60.5956 -1863.56 -0.805202 0.0411224 -0.599151 207 195 155
-322.433 67.0353 -1864.75 -0.772899 0.0939732 -0.628808 199 175 141
-322.026 77.5348 -1863 -0.765986 0.0633501 -0.693083 197 182 142
-320.933 86.1192 -1864.5 -0.67055 -0.0431364 -0.734725 227 227 181
-321.187 95.757 -1865.5 -0.624275 -0.0839775 -0.761734 231 230 184
-321.702 101.392 -1864.95 -0.56936 -0.0259159 -0.805572 233 231 186
-321.552 106.404 -1865.31 -0.503163 -0.0184874 -0.861102 236 234 189
-331.44 119.613 -1863.46 -0.231483 -0.00407844 -1.01059 248 248 206
-334.999 120.96 -1862.31 -0.216672 0.0282814 -0.975179 251 251 209
-318.128 108.118 -1866.65 -0.503209 -0.0242329 -0.862047 239 238 192
-328.436 118.93 -1864.32 -0.249486 -0.0282727 -1.0142 246 246 203
-327.977 121.33 -1864.51 -0.243002 -0.0129265 -1.02007 247 247 205
-328.675 126.934 -1863.9 -0.238604 0.0162818 -1.0201 249 249 208
-326.792 132.911 -1863.05 -0.238388 0.134263 -0.911764 250 251 215
-321.036 137.959 -1862.7 -0.251985 0.293008 -0.983046 252 253 227
-310.236 134.744 -1866.43 -0.250008 0.309977 -0.926379 253 253 229
-310.093 142.629 -1862.7 -0.237125 0.329171 -0.917795 253 253 231
-123.588 160.876 -1862.58 0.734307 0.608674 -0.0969517 116 93 83
-129.15 170.817 -1861.61 0.858026 0.324185 -0.399947 130 98 80
-132.165 187.112 -1862.71 0.844701 -0.172541 -0.301406 74 55 43
-127.779 196.239 -1864.74 0.721394 -0.548532 0.170545 34 24 21
-117.517 205.559 -1862.22 0.591636 -0.694801 0.129178 21 14 13
-112.124 207.099 -1866.92 0.529669 -0.643904 0.204845 15 10 11
-107.459 221.22 -1862.21 0.753924 -0.0885527 -0.533686 18 13 16
-104.665 233.383 -1865.72 0.542584 -0.435248 -0.242668 18 14 16
-99.6972 239.704 -1864.26 0.529263 -0.784208 0.173956 19 15 16
-194.431 333.739 -1872.08 -0.371658 0.323116 -0.877804 30 31 35
-204.622 345.925 -1862.09 -0.441132 0.370359 -0.745623 37 37 40
-196.369 342.727 -1867.18 -0.337611 0.312908 -0.852962 38 39 41
-184.526 343.966 -1871.4 -0.308312 0.304319 -0.83911 41 41 42
-406.408 -1045.32 -1858.45 -0.934052 0.171414 -0.253919 36 43 37
-403.124 -1197.63 -1859.74 -0.720589 -0.167451 -0.117867 33 32 31
-389.645 -1122.29 -1861.4 -0.72896 0.205166 -0.63232 37 40 36
-384.439 -1098.57 -1860.55 -0.560127 0.16962 -0.79006 38 41 38
-382.672 -803.275 -1855.96 -0.814756 -0.0158654 -0.570416 39 44 40
-387.401 -789.961 -1855.53 -0.85661 -0.161805 -0.483445 39 43 40
-383.962 -781.256 -1859.62 -0.785123 0.0729653 -0.581718 38 43 40
-361.935 -792.752 -1857.35 -0.675061 -0.0261254 -0.7096 36 39 38
-360.015 -787.571 -1859.95 -0.686886 0.00703894 -0.686052 36 39 38
-342.752 -822.937 -1856.2 -0.682748 0.0975249 -0.720638 35 36 36
-341.43 -821.671 -1857.51 -0.708847 0.06924 -0.694699 34 36 36
-341.547 -810.072 -1857.04 -0.656215 -0.140787 -0.729103 33 35 35
-348.122 -794.369 -1856.44 -0.596929 -0.157415 -0.778067 34 36 36
-341.388 -797.514 -1860.92 -0.702818 -0.0889985 -0.6855 34 36 36
-351.71 -783.269 -1855.27 -0.674552 0.0539468 -0.692988 34 36 36
-383.785 -775.033 -1856.77 -0.78658 0.267239 -0.55462 39 43 41
-379.888 -766.552 -1857.38 -0.738611 0.262302 -0.626284 39 43 41
-359.706 -777.834 -1859.03 -0.677913 0.0995874 -0.649855 37 40 39
-375.957 -767.378 -1861.35 -0.689649 0.251161 -0.675121 38 44 40
-356.577 -762.897 -1858.2 -0.73143 0.100858 -0.591204 38 41 39
-379.694 -755.318 -1856.28 -0.731483 0.091446 -0.693336 39 43 42
110.615 -1224.03 -1856.14 0.191949 0.466907 -0.487427 29 28 24
126.751 -1221.88 -1858.36 0.130291 0.465676 0.107986 34 33 32
135.533 -1220.65 -1858.78 0.0181553 0.78319 0.0183382 31 28 26
144.902 -1219.71 -1858.64 0.0286709 0.988248 0.00839044 28 24 22
154.022 -1220.27 -1858.13 0.0530728 0.983528 0.055201 25 22 20
151.548 -1215.7 -1855.42 0.0634832 0.991314 0.00405695 30 26 24
5.24126 -1123 -1855.85 0.466784 0.197719 -0.788832 34 36 31
-6.09369 -1107.37 -1856.83 0.523322 0.374446 -0.720408 35 36 32
1.5533 -1100.49 -1856.78 0.448614 0.279756 -0.823258 33 35 31
13.2104 -1102.3 -1860.1 0.376292 0.21865 -0.882592 37 37 36
21.8208 -1114.75 -1857.67 0.6438 0.0888709 -0.737973 36 36 35
23.287 -1107.83 -1855.51 0.542935 0.078109 -0.812629 36 36 36
26.9485 -1100.63 -1855.11 0.413126 0.0252635 -0.910829 37 36 36
-1.68309 -1097.93 -1857.8 0.423297 0.223591 -0.849418 34 36 33
-2.88343 -1092.05 -1856.87 0.43732 0.153083 -0.858838 33 35 32
15.1899 -1088.89 -1859.65 0.407438 -0.0196459 -0.916206 38 39 38
13.132 -1083.81 -1860.96 0.436359 -0.0017927 -0.901175 38 39 38
378.982 -1194.19 -1857.8 -0.30805 0.864831 0.227345 55 51 46
-158.041 -790.83 -1856.76 -0.884715 -0.0499698 -0.440208 28 30 30
-155.494 -822 -1859.6 -0.914921 -0.0537666 -0.415077 31 33 33
-157.736 -808.19 -1856.35 -0.908013 -0.02862 -0.395747 27 29 29
-157.74 -798.048 -1856.22 -0.89386 -0.0413799 -0.421549 28 30 30
-157.476 -781.119 -1859.46 -0.83459 -0.0395611 -0.533461 29 32 31
-158.48 -759.616 -1857.35 -0.861086 0.0401454 -0.494705 30 32 32
-7.37845 -602.992 -1855.1 0.67563 -0.108707 -0.618514 33 36 35
-6.69303 -591.913 -1855.13 0.820447 -0.150924 -0.482745 34 37 36
-5.13449 -581.325 -1854.89 0.867569 -0.123563 -0.396764 34 37 36
-5.40869 -566.495 -1859.2 0.820808 -0.0364748 -0.443191 34 37 36
-287.697 -182.317 -1859.42 -0.672667 -0.369992 -0.620892 216 215 166
-290.015 -180.503 -1855.88 -0.664723 -0.317385 -0.649518 204 203 153
-288.74 -175.234 -1861.23 -0.626678 -0.41961 -0.618019 235 234 189
-282.789 -166.268 -1858.19 -0.594334 -0.332612 -0.713234 183 178 131
-271.375 -187.024 -1860.74 -0.648816 -0.230921 -0.709122 168 167 116
-279.889 -174.204 -1857.8 -0.659833 -0.274245 -0.68311 180 178 125
-295.865 -163.07 -1859.14 -0.598375 -0.127348 -0.728725 219 218 174
-296.531 -156.853 -1858.77 -0.540271 -0.0564464 -0.790327 222 220 177
-283.83 -160.268 -1860.51 -0.61903 -0.297178 -0.703419 205 201 158
-293.984 -146.896 -1860.9 -0.697842 -0.115859 -0.660216 215 213 171
-308.183 -132.322 -1855.89 -0.811631 0.131908 -0.564786 218 217 172
-307.566 -119.389 -1857.28 -0.820727 -0.0574705 -0.54319 212 210 166
-307.726 -107.039 -1858.27 -0.888619 -0.126726 -0.339521 217 217 174
-307.65 -95.8503 -1855.26 -0.956048 0.0554502 -0.149178 218 217 173
-307.326 -82.2898 -1860.68 -0.856201 -0.0278333 -0.492813 218 218 175
-309.64 -70.7876 -1858.72 -0.879076 0.0302517 -0.456304 215 213 166
-310.59 -58.1338 -1855.01 -0.898231 0.022426 -0.41112 212 210 161
-310.151 -51.2348 -1857.97 -0.869916 -0.143647 -0.455573 210 207 158
-304.111 -137.845 -1861.28 -0.831269 0.0904377 -0.529815 221 221 179
55.6748 62.2438 -1855.91 0.382318 -0.453184 0.771706 224 209 171
59.9026 67.0404 -1855.2 0.277683 -0.402318 0.844565 220 201 168
71.4914 64.8242 -1858.33 0.137503 -0.229992 0.950769 225 202 181
75.2441 66.1761 -1858.85 0.145124 -0.171905 0.965568 226 203 184
87.8645 62.8074 -1860.16 0.0824146 -0.159993 0.972395 230 205 190
88.0149 69.5704 -1858.05 -0.0023586 -0.253116 0.955935 229 203 189
72.7594 74.7674 -1857.1 0.212226 -0.220024 0.934562 223 200 179
77.923 70.7354 -1858.34 0.117408 -0.180093 0.96431 226 203 185
86.0892 78.3475 -1856.02 -0.0179491 -0.300786 0.943916 229 203 190
-405.979 -1045.18 -1850.22 -0.952469 0.0480147 0.100084 37 44 38
-404.327 -1030.59 -1850.17 -0.965312 0.17762 0.0132579 39 46 39
-386.38 -797.8 -1852.48 -0.861899 -0.0846737 -0.488503 40 44 41
-390.492 -781.844 -1849.27 -0.906001 -0.0226042 -0.286527 39 44 41
-357.342 -801.711 -1849.39 -0.612588 -0.104485 -0.776326 36 38 38
-358.283 -798.555 -1849.98 -0.634292 -0.0864678 -0.767231 36 37 38
-357.267 -791.522 -1851.1 -0.643513 -0.0622024 -0.743436 35 37 37
-356.871 -783.658 -1850.93 -0.688701 0.0654873 -0.669809 35 37 37
-345.014 -827.651 -1854.92 -0.641496 0.116327 -0.757301 35 36 36
-349.819 -814.152 -1849.13 -0.626599 0.0107496 -0.763273 35 36 36
-352.63 -805.887 -1850.27 -0.584181 -0.15022 -0.78765 35 37 37
-350.481 -799.603 -1853.22 -0.57457 -0.1834 -0.795032 34 36 36
-354.645 -787.095 -1853.15 -0.657421 -0.0146395 -0.710023 35 37 37
-387.86 -776.435 -1851.56 -0.864467 0.193962 -0.39844 40 44 42
-383.833 -769.739 -1854.14 -0.797219 0.297461 -0.543566 39 43 42
-383.554 -757.501 -1851.65 -0.833657 0.0892 -0.493051 40 44 42
-362.53 -768.564 -1851.89 -0.620367 0.251541 -0.611297 37 40 40
-358.762 -764.35 -1855.54 -0.68405 0.176966 -0.586296 38 41 40
-382.475 -752.152 -1852.35 -0.822298 0.103867 -0.534029 41 45 43
-380.652 -743.838 -1853.03 -0.871401 0.140065 -0.472273 43 46 42
-185.494 -1110.5 -1849.06 0.690889 -0.0479695 -0.660083 24 24 24
-165.538 -1123.81 -1853.26 -0.830489 0.430964 -0.350638 18 20 20
-161.949 -1114.71 -1852.28 -0.864578 0.402116 -0.335028 19 21 21
-185.511 -1095.52 -1849.32 0.72337 -0.0328427 -0.61889 24 24 25
-185.881 -1091.79 -1849.3 0.70106 -0.0444018 -0.632152 23 24 25
-187.064 -1079.85 -1854.78 0.743893 -0.0618332 -0.662025 27 28 28
-154.183 -1094.17 -1849.21 -0.831207 0.352473 -0.300512 22 25 25
-150.334 -1084.4 -1851.67 -0.914849 0.273553 -0.261291 22 25 25
-183.723 -1073.4 -1851.9 0.751787 -0.0660202 -0.66112 26 28 28
-184.366 -1062.73 -1853.6 0.705516 0.0193725 -0.700917 27 28 28
-188.894 -1047.03 -1854.94 0.593753 0.354483 -0.727313 31 31 31
-189.244 -1042.93 -1852.81 0.582204 0.391016 -0.809989 32 32 32
-191.231 -1037.73 -1851.72 0.592476 0.336442 -0.852502 32 33 33
375.28 -1190.33 -1850.53 -0.346362 0.869188 0.306352 57 54 48
384.595 -1189.17 -1852.36 -0.364788 0.865255 0.295106 55 52 46
-195.978 -825.715 -1849.15 0.54021 -0.0360998 -0.835792 29 29 29
-199.666 -822.058 -1851.48 0.501561 0.00191265 -0.859329 29 30 30
-196.243 -811.36 -1849.2 0.484325 0.133253 -0.854893 28 29 29
-201.954 -809.556 -1851.52 0.498176 0.108448 -0.85374 29 31 31
-159.102 -819.986 -1850.26 -0.88663 -0.0673332 -0.37759 28 30 30
-160.12 -806.921 -1850.31 -0.926743 -0.05146 -0.374694 26 28 28
-200.85 -803.231 -1849.61 0.545598 0.13362 -0.818468 29 30 30
-205.059 -786.402 -1852.13 0.699716 0.0960405 -0.709722 29 31 31
-203.824 -783.345 -1850.28 0.687276 0.106927 -0.719327 30 32 32
-159.317 -793.578 -1853.46 -0.908138 -0.0530898 -0.404176 27 29 29
-161.217 -784.145 -1850.5 -0.895663 -0.0462978 -0.439584 27 28 29
-204.42 -774.098 -1849.22 0.646253 0.158318 -0.744725 31 33 33
-160.867 -776.247 -1852.05 -0.904895 -0.0208217 -0.429791 27 29 29
-160.221 -762.403 -1853.71 -0.899791 0.020228 -0.431614 28 30 30
-205.064 -742.252 -1849.18 0.538963 -0.0936775 -0.834274 28 31 29
-159.18 -749.675 -1853.9 -0.858409 0.130612 -0.473465 28 30 30
-160.366 -740.217 -1848.63 -0.790761 0.0944968 -0.539756 26 28 28
-343.356 -426.61 -1853.66 -0.806459 0.42863 -0.363294 52 57 56
-342.922 -412.878 -1850.25 -0.864527 0.129041 -0.446169 55 59 58
-340.096 -406.725 -1854.13 -0.865955 0.112294 -0.439155 53 58 56
-337.006 -392.756 -1851.95 -0.837324 0.313804 -0.420357 51 55 54
-334.221 -388.909 -1854.92 -0.827478 0.325405 -0.443773 50 55 53
-331.974 -376.5 -1853.22 -0.870967 0.135011 -0.458759 49 53 52
-332.498 -362.111 -1850.51 -0.910444 0.111691 -0.352396 49 53 52
-329.424 -351.344 -1850.49 -0.911789 0.28938 -0.271662 50 54 52
-326.651 -339.899 -1850.58 -0.930168 0.242878 -0.243863 51 55 53
-42.9253 -282.795 -1853.15 0.829506 0.436001 -0.309428 45 45 43
-48.9478 -270.292 -1850.2 0.876143 0.397447 -0.218872 43 43 41
-50.2761 -267.067 -1851.17 0.908816 0.364156 -0.154595 42 42 40
-54.5393 -254.897 -1852.2 0.915811 0.32111 -0.172564 43 43 41
-57.188 -238.713 -1849.59 0.941826 0.162093 -0.273624 44 43 42
-6.61043 -426.871 -1854.66 0.866686 0.318623 -0.314644 44 45 45
-105.118 148.407 -1852.52 0.4048 0.869088 0.230656 84 69 55
-93.3392 145.253 -1851.93 0.312782 0.894583 0.303115 75 62 48
-77.6416 142.568 -1853.34 0.284361 0.87303 0.394906 64 54 40
-69.8525 140.293 -1852.36 0.274973 0.855112 0.413286 57 48 34
-43.1823 129.658 -1849.59 0.303172 0.77032 0.552663 242 241 219
-10.8209 120.037 -1849.26 0.115929 0.535957 0.800506 255 255 242
-23.185 123.149 -1854.96 0.468081 0.796529 0.357539 254 252 224
-13.2747 121.958 -1854.93 0.306077 0.600755 0.541211 251 247 224
-46.9875 134.521 -1854.32 0.307995 0.799015 0.51013 166 163 145
12.9031 7.45516 -1854.86 0.211939 -0.82367 0.504202 183 177 135
-1.10289 10.6198 -1849.51 0.168914 -0.782685 0.589132 185 179 130
20.6064 10.8586 -1852.45 0.302067 -0.734596 0.584602 201 197 149
25.1685 18.202 -1848.79 0.41365 -0.517509 0.725763 227 224 167
387.566 -1189.95 -1853.36 -0.430421 0.844163 0.241179 39 37 33
-204.779 353.23 -1855.92 -0.453178 0.381705 -0.567336 50 50 50
-374.913 -987.843 -1848.55 -0.514836 0.0304732 -0.803817 33 35 35
-399.188 -969.414 -1843.83 -0.951686 -0.0148787 0.0584858 40 44 40
-398.997 -953.397 -1848.5 -0.964955 0.0708922 -0.123183 41 45 42
-398.851 -947.595 -1846.23 -0.958211 0.100963 -0.0849232 40 44 41
-394.379 -933.837 -1847.31 -0.908724 0.286538 -0.216902 40 44 41
-373.871 -942.418 -1846.81 -0.628647 0.236078 -0.728879 33 37 36
-374.341 -938.288 -1847.26 -0.634284 0.174638 -0.727782 34 38 37
-371.024 -932.771 -1846.58 -0.653835 0.0672821 -0.733997 35 39 38
-370.514 -578.64 -1848.86 -0.927833 0.0702487 -0.263788 45 49 49
-368.645 -563.738 -1843.88 -0.909021 0.222141 -0.117748 45 49 49
-367.395 -557.773 -1845.88 -0.9283 0.242738 -0.253958 47 51 51
-364.726 -541.358 -1843.81 -0.960004 0.131762 -0.189687 46 50 51
-362.554 -529.853 -1846.5 -0.920677 0.206293 -0.301138 47 51 52
-361.701 -519.624 -1845.39 -0.951548 0.120068 -0.290529 47 51 52
-360.056 -514.541 -1848.16 -0.914147 0.104382 -0.36399 47 51 52
-360.581 -498.521 -1842.89 -0.926974 0.155095 -0.320095 49 53 54
-357.503 -487.99 -1846.87 -0.894921 0.0288288 -0.438024 48 52 53
95.1145 -1223.25 -1846.65 0.287287 0.130974 -0.104155 34 34 32
103.391 -1215.78 -1843.06 0.203932 0.361557 -0.867441 17 16 13
114.908 -1211.63 -1844.02 -0.044191 0.833569 -0.47945 18 16 14
124.89 -1209.81 -1843 -0.0783874 0.981719 -0.136564 23 21 19
136.395 -1208.81 -1842.92 -0.0890878 0.98626 -0.0704335 25 22 20
139.982 -1210.23 -1848.14 -0.0358775 0.981357 -0.0648082 28 24 22
155.908 -1209.45 -1846.6 0.0623015 0.990126 0.0208466 31 27 25
168.919 -1221.37 -1849.04 0.13872 0.943116 0.11155 18 16 14
-4.54189 -1100.55 -1848.46 0.472966 0.326719 -0.816796 32 34 30
30.2003 -1119.57 -1846.11 0.405788 0.045611 -0.658183 34 35 34
29.1785 -1117.79 -1847.87 0.51282 0.0411724 -0.687387 35 35 34
8.484 -874.379 -1843.05 -0.086027 -0.0291095 -0.983942 35 36 35
-8.12231 -846.516 -1843.93 0.3306 -0.173908 -0.90843 33 35 35
-2.66672 -835.726 -1843.05 0.179517 -0.000997988 -0.953573 33 36 35
211.008 -1222.26 -1842.77 -0.0361949 0.566859 -0.193009 35 33 30
221.534 -1224 -1847.66 0.207712 0.224765 0.122486 39 39 37
232.969 -1222.15 -1848.08 -0.0755066 0.701738 -0.259938 45 41 38
242.895 -1218.67 -1847.46 -0.0633255 0.945172 -0.239964 57 51 46
249.271 -1214.08 -1844.51 0.00669563 0.968292 -0.142805 62 56 50
258.311 -1212.84 -1844.07 -0.00545683 0.959513 -0.161548 61 55 49
267.221 -1211.83 -1844.35 0.00478809 0.960614 -0.154877 62 56 50
285.97 -1206.14 -1843.17 -0.233142 0.895295 -0.377131 52 46 40
0.0735017 -698.51 -1844.11 0.118216 -0.344453 -0.90958 33 36 33
13.9259 -700.17 -1843.44 0.1576 -0.154686 -0.975351 35 36 35
9.40742 -697.368 -1844.26 0.161399 -0.231037 -0.949091 33 36 33
-0.240319 -691.425 -1847.41 0.246275 -0.184433 -0.928442 32 35 32
5.65769 -689.95 -1846.72 0.247936 -0.194318 -0.928575 33 35 33
5.0106 -686.487 -1848.37 0.343333 -0.141591 -0.917093 32 35 33
17.6265 -695.753 -1843.21 0.199329 -0.121872 -0.976452 36 37 35
15.976 -684.611 -1845.03 0.324287 -0.127779 -0.926091 36 37 36
-8.97537 -670.505 -1848.4 0.530405 -0.0527085 -0.692535 32 35 33
7.53843 -670.449 -1848.72 0.23077 0.0486977 -0.966022 33 36 33
0.892228 -664.118 -1844.49 0.453742 -0.0541072 -0.803676 32 35 33
-3.1565 -661.017 -1846.51 0.42092 -0.122926 -0.796086 32 35 33
12.656 -667.688 -1845.61 0.358062 0.0796774 -0.92822 35 36 34
9.66712 -660.311 -1844.31 0.360467 0.073149 -0.933953 34 35 33
20.9554 -680.057 -1843.19 0.468382 -0.0532512 -0.873436 39 39 38
15.0779 -661.231 -1843.86 0.388915 0.0787625 -0.929694 35 36 34
-0.290546 -646.469 -1845.49 0.614905 -0.0730811 -0.740806 32 34 33
-1.14186 -641.101 -1846.02 0.600267 -0.0288879 -0.745062 32 35 33
-3.18882 -635.753 -1847.74 0.503209 0.0135901 -0.766349 33 35 34
-199.6 -630.65 -1843.36 0.817052 -0.138236 -0.544955 25 25 28
-197.019 -617.494 -1843.47 0.849397 -0.190109 -0.481718 25 25 28
-52.5591 -185.746 -1845.96 0.800192 -0.164402 -0.535512 210 205 153
-56.3114 -170.875 -1846.32 0.84226 0.160489 -0.494402 214 208 151
-54.4441 -158.529 -1843.38 0.918347 -0.238509 -0.276987 197 191 135
-53.2613 -149.704 -1848.76 0.90855 -0.197438 -0.335574 202 195 140
-52.1269 -143.862 -1847.59 0.886572 -0.0664991 -0.44415 204 198 145
-48.6942 -126.44 -1843.62 0.852331 -0.0116885 -0.523706 194 191 146
-49.7218 -114.954 -1847.55 0.890037 -0.193878 -0.392363 204 197 140
-48.4269 -112.49 -1845.53 0.902899 -0.172832 -0.377375 203 196 141
-47.0057 -98.421 -1845.05 0.96094 -0.0717262 -0.254424 193 189 141
-45.6231 -90.1763 -1844.61 0.962319 -0.173782 -0.155017 192 187 132
-40.3766 -74.5019 -1843.91 0.89174 -0.347926 -0.26025 187 182 128
-36.2052 -59.603 -1846.36 0.924339 -0.273499 -0.219853 192 184 120
-192.266 175.279 -1845.36 -0.779794 0.106384 -0.596516 99 79 62
-197.571 192.319 -1843.43 -0.854312 -0.431904 0.0859696 54 43 33
-201.409 196.988 -1844.83 -0.738144 -0.438211 0.403257 39 34 29
-204.529 201.448 -1844.82 -0.557433 -0.3328 0.710779 36 33 30
-123.964 168.247 -1846.56 0.942189 0.265337 -0.147631 168 125 98
-126.247 180.044 -1847 0.941433 0.152658 -0.293687 165 122 93
-127.218 187.602 -1847.62 0.909024 0.0195749 -0.384378 150 110 81
-117.499 197.166 -1844.76 0.759309 -0.494727 -0.398234 132 98 73
-206.777 209.2 -1845.2 -0.491216 -0.424593 0.67831 27 26 25
-111.384 213.866 -1847.72 0.899594 -0.331381 -0.0405762 29 18 15
-395.079 -1023.56 -1838.48 -0.806465 0.166813 0.473539 36 41 37
-396.074 -1011.57 -1840.27 -0.833097 -0.06664 0.544603 38 43 38
-399.149 -996.666 -1840.93 -0.892267 0.00268215 0.395055 40 44 40
-397.75 -993.268 -1838.86 -0.877299 0.0399051 0.453689 39 43 40
-397.263 -984.741 -1839.62 -0.896507 0.101436 0.326363 40 44 41
-381.297 -702.349 -1840.4 -0.921624 0.0931628 -0.0311923 41 44 41
-380.968 -690.108 -1841.35 -0.942282 0.20221 0.0753974 42 45 42
-379.195 -690.311 -1836.31 -0.873429 0.190604 0.38026 40 43 41
-354.306 -715.17 -1842.04 -0.684648 0.139125 -0.709374 35 38 36
-380.259 -673.824 -1842.21 -0.961241 -0.0112313 0.197961 45 48 46
-376.192 -674.43 -1836.8 -0.865334 0.0783577 0.491394 42 45 43
-375.222 -661.25 -1838.21 -0.869767 0.21486 0.321294 43 46 43
-375.122 -650.866 -1841.3 -0.931638 0.132062 0.0684861 42 46 43
-374.011 -637.285 -1839.9 -0.953662 0.0416841 0.199919 42 46 43
4.63133 -1084.26 -1842.28 0.401082 0.131022 -0.901656 31 34 31
41.8974 -1120.79 -1841.83 -0.162808 -0.318078 -0.937877 37 36 36
42.9628 -1114.27 -1838.78 0.190107 -0.132694 -0.885561 36 37 37
52.4154 -1120.29 -1841.59 0.139248 -0.0956133 -0.972571 37 37 37
53.0471 -1114.89 -1842.47 0.278366 -0.0939484 -0.954753 37 37 37
41.6379 -1108.83 -1837.81 0.420812 0.00131471 -0.844954 37 39 38
55.3444 -1106.76 -1841.09 0.512525 0.0176539 -0.855571 38 38 38
53.5622 -1097.95 -1842.35 0.529217 0.135343 -0.836202 39 39 39
52.8164 -1092.88 -1841.81 0.527222 0.220492 -0.821979 39 39 39
