ply
format ascii 1.0
comment Created by Open3D
element vertex 1519
property double x
property double y
property double z
property uchar red
property uchar green
property uchar blue
end_header
123.685 114.776 -1714 43 66 104
127.183 114.854 -1715 39 60 97
130.761 115 -1717 38 59 96
134.193 115.012 -1717 42 63 100
137.706 115.091 -1718 45 65 102
141.306 115.238 -1720 48 68 105
144.747 115.251 -1720 46 67 104
148.189 115.264 -1720 44 65 102
151.896 115.479 -1723 43 64 100
155.527 115.626 -1725 44 65 102
159.075 115.708 -1726 46 67 104
162.817 115.923 -1729 43 64 101
166.379 116.005 -1730 43 65 100
170.045 116.155 -1732 37 59 94
173.42 116.103 -1731 43 64 99
177.508 116.522 -1737 42 61 97
181.413 116.806 -1741 45 64 99
185.866 117.427 -1750 44 65 100
189.924 117.779 -1755 48 67 102
193.894 118.065 -1759 46 64 100
197.432 118.083 -1759 40 57 88
201.429 118.369 -1763 38 55 86
204.979 118.388 -1763 40 57 88
210.068 119.28 -1776 43 62 93
214.008 119.5 -1779 44 62 93
218.084 119.789 -1783 51 66 97
220.935 119.406 -1777 52 66 95
224.143 119.224 -1774 48 61 90
-207.357 115.259 -1769 58 60 77
-204.947 115.892 -1779 38 48 71
-201.706 116.07 -1782 33 44 70
-198.01 115.987 -1781 34 46 69
-193.664 115.514 -1774 37 50 74
-189.67 115.237 -1770 36 50 77
-185.168 114.635 -1761 39 53 80
-181.115 114.293 -1756 40 54 81
-177.186 114.017 -1752 43 57 84
-173.769 114.067 -1753 42 56 84
-170.156 113.986 -1752 40 55 84
-166.548 113.907 -1751 40 54 83
-163.132 113.957 -1752 41 55 84
-159.713 114.008 -1753 41 56 87
-155.935 113.799 -1750 41 55 86
-152.083 113.526 -1746 41 55 86
-148.248 113.252 -1742 46 59 92
-144.431 112.98 -1738 53 66 99
-140.549 112.642 -1733 50 63 96
-137.085 112.63 -1733 42 56 88
-133.467 112.488 -1731 40 55 86
-129.933 112.412 -1730 39 54 86
-126.404 112.335 -1729 40 55 87
-122.738 112.13 -1726 44 59 91
-119.086 111.924 -1723 44 59 91
-115.446 111.719 -1720 41 56 88
-112.014 111.709 -1720 41 56 88
-108.394 111.505 -1717 43 58 90
-104.97 111.495 -1717 44 59 91
-101.428 111.356 -1715 45 60 92
-97.8957 111.218 -1713 45 60 92
-94.3167 111.015 -1710 48 63 95
-90.8036 110.877 -1708 46 62 94
-87.248 110.674 -1705 41 58 90
-83.7542 110.537 -1703 42 59 91
-80.3163 110.465 -1702 41 58 90
-76.9282 110.458 -1702 38 55 91
-73.6271 110.581 -1704 38 55 90
-70.2362 110.575 -1704 38 55 89
-66.8067 110.504 -1703 41 58 92
-63.4561 110.563 -1704 45 62 96
-59.9611 110.363 -1701 48 62 99
-56.6116 110.423 -1702 49 63 100
-53.1646 110.289 -1700 48 62 99
-49.8725 110.479 -1703 48 65 99
-46.4324 110.345 -1701 48 65 99
-43.0765 110.406 -1702 45 62 96
-39.6237 110.208 -1699 44 59 95
-36.2898 110.334 -1701 44 58 95
-32.8709 110.201 -1699 45 59 97
-29.5296 110.328 -1701 42 56 94
-26.1345 110.261 -1700 39 54 86
-22.7837 110.389 -1702 37 52 83
-19.3454 110.063 -1697 37 52 83
-15.9648 109.996 -1696 48 62 93
-12.5807 109.865 -1694 61 74 106
-9.21024 109.799 -1693 59 72 105
-5.84035 109.669 -1691 55 68 102
-2.48286 109.734 -1692 54 67 102
0.878589 109.798 -1693 55 68 105
4.24402 109.863 -1694 55 68 105
7.60447 109.799 -1693 55 68 105
10.9675 109.8 -1693 51 64 101
14.3391 109.866 -1694 51 64 101
17.7252 109.997 -1696 44 59 93
21.0945 109.999 -1696 40 55 89
24.4642 110.001 -1696 41 56 90
27.8831 110.198 -1699 40 55 89
31.259 110.2 -1699 42 57 91
34.6351 110.203 -1699 44 59 93
38.0115 110.206 -1699 46 61 95
41.3882 110.21 -1699 47 62 96
44.7389 110.149 -1698 48 63 97
48.1426 110.217 -1699 50 65 99
51.49 110.157 -1698 55 70 104
54.8341 110.097 -1697 51 66 100
58.2431 110.167 -1698 45 60 94
61.5839 110.107 -1697 47 64 98
64.9212 110.048 -1696 48 65 99
68.2955 110.053 -1696 47 64 98
71.7547 110.189 -1698 47 66 99
75.0896 110.131 -1697 46 63 97
78.5139 110.202 -1698 48 63 97
81.8461 110.144 -1697 48 63 97
85.2754 110.217 -1698 48 63 97
88.6574 110.224 -1698 52 67 101
92.0398 110.232 -1698 51 66 100
95.4232 110.24 -1698 52 67 101
98.8654 110.314 -1699 54 68 107
102.313 110.388 -1700 49 64 103
105.64 110.332 -1699 44 61 99
109.157 110.471 -1701 45 62 100
112.749 110.676 -1704 47 65 103
116.354 110.88 -1707 48 68 108
119.901 111.021 -1709 46 68 106
123.458 111.161 -1711 42 67 103
127.023 111.302 -1713 40 61 98
130.521 111.378 -1714 38 59 96
134.025 111.455 -1715 41 62 99
137.613 111.597 -1717 45 63 101
141.211 111.739 -1719 50 68 106
144.818 111.882 -1721 49 70 107
148.348 111.96 -1722 45 66 102
152.059 112.168 -1725 42 63 98
155.784 112.376 -1728 45 66 103
159.43 112.52 -1730 47 68 105
163.085 112.664 -1732 46 67 104
166.557 112.679 -1732 42 63 98
170.03 112.694 -1732 41 62 97
173.405 112.644 -1731 42 63 98
177.39 112.984 -1736 42 63 98
181.396 113.326 -1741 46 67 102
185.85 113.928 -1750 46 67 102
190.016 114.335 -1756 47 66 102
193.987 114.612 -1760 43 61 97
197.639 114.695 -1761 37 54 85
201.64 114.973 -1765 36 53 84
205.425 115.121 -1767 41 58 89
210.167 115.791 -1777 44 63 93
214.35 116.135 -1782 44 61 92
218.554 116.48 -1787 53 69 100
221.537 116.174 -1782 55 69 100
224.501 115.867 -1777 47 60 90
-206.519 111.278 -1762 64 66 82
-204.584 112.145 -1776 41 49 72
-201.576 112.443 -1781 39 49 74
-197.993 112.426 -1781 35 47 70
-193.539 111.904 -1773 42 54 79
-189.868 111.825 -1772 41 54 81
-185.257 111.178 -1762 41 55 82
-181.306 110.91 -1758 40 54 81
-177.07 110.453 -1751 43 57 84
-173.754 110.564 -1753 43 57 85
-170.044 110.424 -1751 44 58 87
-166.344 110.283 -1749 43 57 86
-162.839 110.269 -1749 43 57 86
-159.517 110.382 -1751 42 56 86
-155.832 110.242 -1749 42 56 86
-152.244 110.166 -1748 42 56 87
-148.491 109.964 -1745 44 58 89
-144.585 109.637 -1740 53 66 98
-140.618 109.247 -1734 53 66 99
-137.152 109.235 -1734 47 61 93
-133.455 109.034 -1731 41 56 87
-129.847 108.897 -1729 38 53 85
-126.393 108.886 -1729 40 55 87
-122.799 108.75 -1727 41 56 88
-119.214 108.614 -1725 43 58 90
-115.503 108.352 -1721 41 56 88
-112.134 108.405 -1722 41 56 88
-108.447 108.144 -1718 44 59 91
-104.899 108.009 -1716 44 59 91
-101.301 107.812 -1713 43 58 90
-97.8302 107.74 -1712 46 61 93
-94.2535 107.543 -1709 49 64 96
-90.7958 107.473 -1708 45 61 93
-87.2405 107.276 -1705 42 59 91
-83.7962 107.206 -1704 44 61 93
-80.4038 107.199 -1704 43 60 92
-76.9216 107.067 -1702 41 58 93
-73.5776 107.123 -1703 42 59 93
-70.189 107.117 -1703 38 55 89
-66.8401 107.174 -1704 36 53 87
-63.4134 107.106 -1703 38 55 89
-59.9912 107.038 -1702 42 56 93
-56.6066 107.033 -1702 44 58 95
-53.2226 107.028 -1702 46 60 95
-49.8974 107.15 -1704 46 63 97
-46.4829 107.083 -1703 47 64 98
-43.1487 107.205 -1705 47 64 98
-39.6903 107.013 -1702 46 62 97
-36.3294 107.072 -1703 44 58 95
-32.8874 106.881 -1700 43 57 95
-29.5271 106.941 -1701 41 55 92
-26.1169 106.813 -1699 38 53 85
-22.755 106.874 -1700 36 51 82
-19.3324 106.62 -1696 36 51 82
-15.9446 106.493 -1694 45 59 90
-12.5648 106.366 -1692 56 70 102
-9.19858 106.303 -1691 56 69 102
-5.83296 106.176 -1689 54 67 101
-2.47972 106.239 -1690 52 65 100
0.877471 106.302 -1691 52 65 102
4.23864 106.365 -1692 54 67 104
7.59483 106.302 -1691 53 66 103
10.9601 106.366 -1692 50 63 100
14.3378 106.493 -1694 49 62 99
17.7132 106.557 -1695 43 58 92
21.0927 106.621 -1696 40 55 89
24.4763 106.686 -1697 41 56 90
27.8971 106.877 -1700 43 58 92
31.2563 106.817 -1699 48 63 97
34.6525 106.882 -1700 51 66 100
38.0082 106.823 -1699 52 67 101
41.409 106.889 -1700 51 66 100
44.7351 106.767 -1698 49 64 98
48.1102 106.771 -1698 50 65 99
51.4856 106.775 -1698 52 67 101
54.8292 106.716 -1697 48 63 97
58.2381 106.784 -1698 42 57 91
61.5786 106.726 -1697 47 62 96
64.8773 106.606 -1695 49 65 99
68.2492 106.612 -1695 45 62 96
71.7063 106.743 -1697 43 61 95
75.039 106.687 -1696 44 61 95
78.4145 106.693 -1696 48 63 97
81.7909 106.7 -1696 49 64 98
85.2682 106.833 -1698 50 65 99
88.6496 106.84 -1698 52 67 101
92.0862 106.911 -1699 51 66 100
95.5273 106.982 -1700 50 65 99
98.9733 107.053 -1701 53 67 106
102.304 106.998 -1700 52 67 105
105.755 107.07 -1701 48 65 103
109.212 107.142 -1702 46 64 102
112.739 107.277 -1704 47 65 103
116.343 107.476 -1707 47 67 107
119.821 107.549 -1708 45 68 106
123.375 107.685 -1710 42 67 103
126.938 107.822 -1712 42 63 100
130.434 107.896 -1713 41 62 99
134.091 108.096 -1716 43 64 101
137.682 108.233 -1718 45 63 101
141.199 108.308 -1719 49 67 105
144.974 108.572 -1723 51 72 109
148.594 108.711 -1725 45 66 101
152.134 108.787 -1726 41 62 97
155.86 108.989 -1729 44 65 102
159.508 109.128 -1731 45 66 103
163.165 109.268 -1733 43 64 101
166.542 109.219 -1732 40 61 96
170.31 109.423 -1735 42 63 98
173.791 109.437 -1735 43 64 99
177.579 109.642 -1738 44 65 100
181.485 109.909 -1742 48 69 104
186.046 110.556 -1752 46 67 102
189.783 110.698 -1754 48 67 102
193.75 110.967 -1758 41 59 95
197.398 111.047 -1759 33 50 81
201.28 111.253 -1762 32 49 80
205.175 111.46 -1765 38 55 86
210.149 112.236 -1777 42 59 90
214.331 112.569 -1782 43 60 91
218.657 112.967 -1788 52 69 100
221.891 112.796 -1785 57 71 102
225.114 112.626 -1782 60 74 104
-205.681 107.326 -1755 58 59 75
-203.991 108.288 -1771 44 51 73
-201.332 108.76 -1779 37 46 69
-197.976 108.866 -1781 37 49 72
-194.177 108.727 -1779 45 57 82
-190.281 108.528 -1776 45 56 84
-185.977 108.085 -1769 42 55 82
-181.703 107.642 -1762 41 55 82
-177.56 107.261 -1756 44 58 85
-173.938 107.185 -1755 45 59 87
-170.224 107.049 -1753 45 59 88
-166.33 106.791 -1749 43 57 86
-162.825 106.777 -1749 41 55 84
-159.322 106.764 -1749 40 54 83
-155.819 106.751 -1749 41 55 85
-152.318 106.738 -1749 41 55 86
-148.563 106.543 -1746 43 57 87
-144.905 106.409 -1744 48 61 92
-140.85 105.97 -1737 50 63 96
-137.061 105.715 -1733 51 65 96
-133.444 105.582 -1731 48 63 94
-129.836 105.449 -1729 44 59 91
-126.31 105.377 -1728 43 58 90
-122.789 105.306 -1727 42 56 88
-119.273 105.235 -1726 43 57 89
-115.493 104.921 -1721 43 57 89
-111.93 104.789 -1719 41 56 88
-108.312 104.598 -1716 41 56 88
-104.769 104.467 -1714 42 57 89
-101.234 104.337 -1712 42 57 89
-97.7648 104.267 -1711 46 61 93
-94.2456 104.138 -1709 47 62 94
-90.7882 104.069 -1708 44 60 92
-87.2845 103.94 -1706 44 60 92
-83.8384 103.872 -1705 45 62 94
-80.4443 103.865 -1705 44 61 93
-77.0056 103.798 -1704 43 60 94
-73.5715 103.731 -1703 43 60 94
-70.2243 103.786 -1704 39 56 90
-66.7562 103.659 -1702 34 51 85
-63.3337 103.592 -1701 34 51 85
-59.9509 103.587 -1701 38 52 89
-56.5687 103.583 -1701 38 53 88
-53.1556 103.517 -1700 40 55 89
-49.8348 103.635 -1702 42 58 92
-46.4518 103.631 -1702 46 62 96
-43.0692 103.627 -1702 48 65 99
-39.6404 103.502 -1700 48 63 99
-36.305 103.621 -1702 46 60 97
-32.9234 103.618 -1702 44 58 95
-29.5246 103.554 -1701 42 56 92
-26.1455 103.552 -1701 39 54 86
-22.7799 103.611 -1702 37 52 83
-19.3422 103.305 -1697 37 52 83
-15.9527 103.182 -1695 47 61 92
-12.5712 103.059 -1693 57 70 102
-9.19783 102.936 -1691 55 68 101
-5.83593 102.875 -1690 51 64 99
-2.47952 102.874 -1690 49 62 97
0.877393 102.935 -1691 50 63 100
4.23829 102.996 -1692 54 67 104
7.5942 102.936 -1691 51 64 101
10.9592 102.998 -1692 47 60 97
14.3366 103.12 -1694 46 59 96
17.7117 103.182 -1695 42 57 91
21.0661 103.123 -1694 41 56 90
24.4599 103.247 -1696 43 58 92
27.8618 103.371 -1698 46 61 95
31.2169 103.312 -1697 51 66 100
34.6089 103.376 -1698 52 67 101
38.0051 103.44 -1699 51 66 100
41.3812 103.443 -1699 47 62 96
44.7313 103.386 -1698 44 59 93
48.1345 103.45 -1699 45 60 94
51.5117 103.454 -1699 47 62 96
54.7924 103.276 -1696 44 59 93
58.199 103.342 -1697 42 57 91
61.5372 103.286 -1696 46 61 95
64.8337 103.169 -1694 47 64 98
68.2033 103.174 -1694 45 62 96
71.6157 103.241 -1695 45 62 96
74.9001 103.125 -1693 46 62 96
78.3156 103.193 -1694 50 65 99
81.6875 103.199 -1694 51 66 100
85.1607 103.328 -1696 51 66 100
88.5379 103.335 -1696 51 66 100
92.0242 103.464 -1698 49 64 98
95.407 103.472 -1698 48 63 97
98.8486 103.541 -1699 51 65 104
102.295 103.61 -1700 52 67 105
105.684 103.618 -1700 50 67 105
109.138 103.688 -1701 49 67 105
112.73 103.88 -1704 49 67 105
116.334 104.073 -1707 48 68 108
119.741 104.082 -1707 46 68 106
123.365 104.275 -1710 43 68 104
126.779 104.285 -1710 44 65 101
130.271 104.357 -1711 44 65 102
133.846 104.49 -1713 46 67 104
137.59 104.745 -1717 47 65 103
141.269 104.939 -1720 48 66 104
144.877 105.073 -1722 47 68 105
148.495 105.207 -1724 43 64 100
152.21 105.403 -1727 42 63 98
155.847 105.538 -1729 42 63 100
159.495 105.673 -1731 41 62 99
163.245 105.869 -1734 38 59 96
166.721 105.883 -1734 39 60 95
170.296 105.958 -1735 41 62 97
173.976 106.094 -1737 44 65 100
177.768 106.292 -1740 47 68 103
181.991 106.734 -1747 47 68 103
186.03 107.055 -1752 46 67 102
190.2 107.437 -1758 48 66 102
193.844 107.514 -1759 42 59 95
197.718 107.713 -1762 32 49 80
201.491 107.852 -1764 29 46 77
205.391 108.052 -1767 36 53 84
209.777 108.498 -1774 41 58 89
214.193 108.943 -1781 41 58 89
218.027 109.084 -1783 50 67 98
221.623 109.102 -1783 56 70 100
225.221 109.12 -1783 48 61 89
-203.744 104.629 -1769 49 56 77
-201.203 105.145 -1778 38 46 69
-197.849 105.247 -1780 35 47 72
-194.271 105.232 -1780 42 53 79
-190.265 104.98 -1776 43 54 82
-185.962 104.551 -1769 44 56 83
-182.101 104.359 -1766 44 57 84
-177.748 103.872 -1758 45 59 86
-174.122 103.799 -1757 46 60 88
-170.211 103.549 -1753 47 61 90
-166.412 103.358 -1750 45 59 88
-162.719 103.227 -1748 42 56 85
-159.309 103.273 -1749 41 55 84
-155.629 103.143 -1747 42 56 85
-152.132 103.131 -1747 41 55 85
-148.722 103.178 -1748 41 55 85
-144.893 102.93 -1744 43 57 87
-140.757 102.446 -1736 46 59 91
-137.129 102.317 -1734 49 63 94
-133.356 102.071 -1730 51 65 96
-129.825 102.001 -1729 47 62 94
-126.3 101.932 -1728 44 59 91
-122.779 101.863 -1727 41 55 87
-119.194 101.736 -1725 38 51 84
-115.551 101.549 -1722 40 54 86
-112.051 101.481 -1721 40 55 87
-108.367 101.237 -1717 39 54 86
-104.821 101.11 -1715 40 55 87
-101.285 100.984 -1713 42 57 89
-97.757 100.858 -1711 46 61 93
-94.1278 100.615 -1707 44 59 91
-90.781 100.667 -1708 44 59 91
-87.3285 100.601 -1707 47 62 94
-83.8808 100.535 -1706 46 62 94
-80.485 100.528 -1706 44 61 93
-77.0897 100.522 -1706 44 61 95
-73.652 100.457 -1705 46 63 97
-70.2187 100.393 -1704 44 61 95
-66.7901 100.328 -1703 37 54 88
-63.3658 100.264 -1702 34 51 85
-59.9109 100.142 -1700 37 51 88
-56.5641 100.196 -1701 38 52 88
-53.1513 100.133 -1700 39 54 88
-49.8308 100.246 -1702 40 55 89
-46.4754 100.302 -1703 45 60 94
-43.1164 100.357 -1704 48 63 97
-39.7304 100.354 -1704 48 63 98
-36.3661 100.409 -1705 46 60 97
-32.9594 100.348 -1704 44 58 95
-29.557 100.286 -1703 42 55 92
-26.1588 100.225 -1702 38 51 84
-22.7647 100.165 -1701 35 50 81
-19.3293 99.8685 -1696 36 51 82
-15.9325 99.6905 -1693 47 61 92
-12.5553 99.5716 -1691 56 70 102
-9.18622 99.453 -1689 55 68 101
-5.82856 99.3935 -1688 48 61 96
-2.47786 99.4521 -1689 46 59 94
0.876799 99.5109 -1690 49 62 99
4.23293 99.5111 -1690 54 67 104
7.59359 99.5705 -1691 51 64 101
10.9583 99.6301 -1692 49 62 99
14.3355 99.7489 -1694 47 60 97
17.7208 99.8679 -1696 44 59 93
21.0892 99.8694 -1696 44 59 93
24.4579 99.8712 -1696 46 61 95
27.8596 99.991 -1698 47 62 96
31.2144 99.9345 -1697 47 62 96
34.5857 99.9371 -1697 47 62 96
38.002 100.058 -1699 42 57 91
41.4023 100.12 -1700 39 54 88
44.7278 100.005 -1698 38 53 87
48.1306 100.068 -1699 40 55 89
51.4773 100.013 -1698 43 58 92
54.788 99.8994 -1696 44 60 94
58.1255 99.8451 -1695 46 63 97
61.496 99.8498 -1695 48 65 99
64.752 99.678 -1692 47 64 98
68.1978 99.8012 -1694 45 62 96
71.6099 99.8656 -1695 44 61 95
74.8939 99.7535 -1693 47 63 97
78.3093 99.8186 -1694 50 65 99
81.7292 99.8838 -1695 52 67 101
85.1537 99.9494 -1696 53 68 102
88.4786 99.8973 -1695 51 66 100
92.0168 100.081 -1698 48 63 97
95.3432 100.03 -1697 48 63 97
98.7825 100.096 -1698 50 64 103
102.347 100.281 -1701 52 67 106
105.8 100.349 -1702 53 70 108
109.258 100.416 -1703 52 69 107
112.853 100.602 -1706 49 67 105
116.393 100.729 -1708 49 68 106
119.801 100.738 -1708 49 70 107
123.282 100.807 -1709 45 68 105
126.843 100.935 -1711 45 66 101
130.413 101.063 -1713 48 69 105
133.835 101.073 -1713 49 70 107
137.499 101.261 -1716 47 67 104
141.176 101.449 -1719 46 66 103
144.782 101.579 -1721 45 66 103
148.311 101.65 -1722 44 65 101
151.933 101.78 -1724 44 65 100
155.564 101.91 -1726 44 65 102
159.113 101.981 -1727 42 63 99
162.95 102.23 -1731 38 59 95
166.515 102.303 -1732 39 60 95
170.282 102.493 -1735 39 60 95
174.062 102.684 -1738 43 64 99
178.163 103.053 -1744 47 68 103
182.08 103.304 -1748 47 68 103
186.546 103.85 -1757 46 67 102
190.401 104.043 -1760 46 65 100
193.828 103.999 -1759 42 59 94
197.702 104.192 -1762 33 50 81
201.475 104.326 -1764 29 46 77
205.49 104.579 -1768 36 53 84
209.76 104.95 -1774 43 60 91
213.935 105.263 -1779 46 62 93
218.01 105.517 -1783 53 69 99
221.73 105.594 -1784 59 72 101
224.445 105.197 -1777 49 61 88
-203.267 100.865 -1765 58 64 83
-201.074 101.535 -1777 38 46 67
-198.056 101.805 -1782 34 46 71
-194.474 101.79 -1782 38 50 76
-190.679 101.661 -1780 40 51 79
-186.683 101.418 -1776 42 53 80
-182.396 101.004 -1769 45 56 83
-178.037 100.533 -1761 45 59 86
-174.01 100.234 -1756 45 58 86
-170.294 100.107 -1754 45 59 88
-166.398 99.8656 -1750 44 58 86
-162.706 99.7388 -1748 45 59 87
-159.205 99.7264 -1748 42 56 85
-155.438 99.5432 -1745 41 55 84
-151.946 99.5314 -1745 42 56 85
-148.54 99.5769 -1746 42 56 85
-144.882 99.4516 -1744 42 56 85
-140.828 99.0414 -1737 41 55 86
-137.119 98.8598 -1734 43 57 88
-133.346 98.6213 -1730 49 63 94
-129.665 98.4403 -1727 50 65 97
-126.217 98.4304 -1727 46 61 93
-122.698 98.3639 -1726 43 56 88
-119.116 98.2407 -1724 39 52 84
-115.475 98.0607 -1721 40 53 85
-112.042 98.052 -1721 38 53 85
-108.358 97.8157 -1717 38 53 85
-104.813 97.6935 -1715 40 55 87
-101.336 97.6288 -1714 42 57 90
-97.7494 97.4502 -1711 42 57 90
-94.1755 97.272 -1708 40 55 88
-90.7738 97.265 -1708 41 56 89
-87.3218 97.2011 -1707 43 58 91
-83.8743 97.1377 -1706 43 59 92
-80.4787 97.1314 -1706 44 60 93
-77.129 97.1823 -1707 41 58 92
-73.603 97.0058 -1704 43 60 94
-70.2545 97.0571 -1705 43 60 94
-66.7848 96.9381 -1703 41 58 92
-63.4354 96.9901 -1704 36 52 86
-60.012 96.9283 -1703 38 52 88
-56.6595 96.9808 -1704 40 55 90
-53.2723 96.9767 -1704 39 54 88
-49.8855 96.9728 -1704 41 56 90
-46.5264 97.0259 -1705 43 58 92
-43.1383 97.0225 -1705 42 57 91
-39.7273 96.9624 -1704 44 58 93
-36.3419 96.9595 -1704 45 59 95
-32.9569 96.9569 -1704 45 59 96
-29.52 96.7839 -1701 42 56 92
-26.126 96.7248 -1700 40 53 86
-22.7362 96.666 -1699 37 51 83
-19.3277 96.4937 -1696 37 51 82
-15.9313 96.3217 -1693 48 62 93
-12.547 96.1499 -1690 56 70 101
-9.18551 96.0922 -1689 54 67 100
-5.82467 95.9779 -1687 51 64 99
-2.47767 96.0913 -1689 52 65 100
0.877244 96.2051 -1691 50 63 99
4.24011 96.3191 -1693 58 71 107
7.60647 96.3764 -1694 56 69 106
10.9769 96.434 -1695 51 64 101
14.3428 96.435 -1695 48 62 98
17.7298 96.55 -1697 45 60 94
21.1 96.5515 -1697 47 62 96
24.4704 96.5533 -1697 47 62 96
27.8738 96.6691 -1699 45 60 94
31.2302 96.6144 -1698 41 56 90
34.6034 96.6169 -1698 40 55 89
38.0215 96.7335 -1700 38 53 87
41.3991 96.7366 -1700 36 51 85
44.7506 96.6829 -1699 39 54 88
48.1269 96.6866 -1699 40 55 89
51.4733 96.6334 -1698 42 57 91
54.8161 96.5806 -1697 40 56 90
58.1553 96.528 -1696 46 62 96
61.5273 96.5325 -1696 46 62 96
64.7852 96.3667 -1693 47 63 97
68.1523 96.3717 -1693 48 64 98
71.5621 96.434 -1694 43 59 93
74.9323 96.4397 -1694 50 65 99
78.3032 96.4455 -1694 51 66 100
81.7228 96.5086 -1695 50 65 99
85.0969 96.515 -1695 50 65 99
88.4196 96.4647 -1694 49 64 98
91.9013 96.5854 -1696 47 62 96
95.3357 96.6497 -1697 47 62 96
98.8331 96.7709 -1699 53 66 104
102.339 96.8926 -1701 54 69 107
105.854 97.0145 -1703 54 71 109
109.378 97.1368 -1705 54 71 109
112.778 97.1452 -1705 50 67 105
116.384 97.3249 -1708 50 68 106
119.862 97.391 -1709 50 70 107
123.273 97.4003 -1709 45 67 104
126.759 97.4669 -1710 44 65 100
130.326 97.5908 -1712 50 71 107
133.981 97.7719 -1715 51 72 109
137.488 97.8395 -1716 46 67 103
141.247 98.0782 -1720 45 66 103
144.855 98.2033 -1722 46 67 103
148.471 98.3286 -1724 46 67 103
152.097 98.4543 -1726 46 67 102
155.552 98.466 -1726 47 68 104
159.193 98.5923 -1728 44 65 100
162.843 98.7188 -1730 39 60 95
166.502 98.8456 -1732 40 61 96
170.17 98.9727 -1734 38 59 94
174.249 99.3284 -1740 43 64 99
178.251 99.6274 -1745 47 68 103
182.483 100.041 -1752 46 67 102
186.638 100.398 -1758 46 67 102
190.71 100.698 -1763 46 65 99
194.364 100.77 -1764 42 59 93
198.247 100.957 -1767 33 50 81
201.916 101.029 -1768 30 47 79
205.939 101.273 -1772 38 55 87
210.098 101.575 -1777 45 62 93
214.159 101.82 -1781 53 69 99
217.748 101.837 -1781 58 72 101
220.842 101.625 -1777 65 76 104
222.659 100.842 -1763 72 82 109
-203.482 97.4479 -1767 57 63 81
-201.285 98.0946 -1779 43 51 70
-198.374 98.4106 -1785 33 45 70
-194.677 98.3408 -1784 37 49 74
-190.772 98.1611 -1781 40 52 77
-186.774 97.9267 -1777 39 51 77
-182.279 97.417 -1768 41 52 78
-177.923 96.9629 -1760 42 53 81
-174.095 96.7846 -1757 42 55 83
-170.184 96.5514 -1753 44 58 87
-166.386 96.3736 -1750 47 61 88
-162.694 96.2514 -1748 47 61 88
-159.102 96.1843 -1747 44 58 87
-155.427 96.0625 -1745 42 56 85
-151.847 95.9961 -1744 43 57 86
-148.273 95.9299 -1743 42 56 85
-144.622 95.809 -1741 42 56 85
-140.898 95.6334 -1738 41 55 86
-137.029 95.3479 -1733 41 55 86
-133.336 95.1729 -1730 45 59 90
-129.655 94.9981 -1727 49 64 96
-126.134 94.9337 -1726 49 64 96
-122.618 94.8695 -1725 46 60 91
-119.037 94.7505 -1723 43 57 88
-115.533 94.6869 -1722 41 55 86
-111.904 94.5136 -1719 39 54 86
-108.413 94.4504 -1718 39 54 86
-104.866 94.3325 -1716 39 54 86
-101.328 94.215 -1714 39 54 87
-97.7991 94.0977 -1712 39 54 88
-94.3339 94.0357 -1711 38 53 87
-90.8734 93.9739 -1710 39 54 88
-87.3663 93.8573 -1708 42 57 91
-83.9663 93.8511 -1708 44 59 93
-80.4727 93.7351 -1706 46 61 95
-77.0779 93.7292 -1706 40 57 90
-73.5975 93.6138 -1704 41 58 92
-70.208 93.6086 -1704 42 59 93
-66.7798 93.5485 -1703 45 60 94
-63.3562 93.4888 -1702 44 59 93
-59.9017 93.3744 -1700 43 58 92
-56.5887 93.48 -1702 44 59 93
-53.2058 93.4759 -1702 42 57 91
-49.8525 93.527 -1703 40 55 89
-46.4682 93.5235 -1703 40 55 89
-43.1098 93.5751 -1704 38 53 87
-39.7243 93.5721 -1704 39 54 88
-36.3392 93.5692 -1704 40 55 89
-32.9351 93.5118 -1703 45 59 96
-29.5178 93.3996 -1701 45 59 95
-26.1241 93.3427 -1700 41 54 87
-22.7345 93.286 -1699 35 48 80
-19.3148 93.0648 -1695 36 50 81
-15.9301 92.9537 -1693 47 61 92
-12.546 92.788 -1690 53 67 99
-9.19027 92.7872 -1690 54 67 100
-5.82769 92.6768 -1688 54 67 102
-2.47896 92.7863 -1690 56 69 104
0.877174 92.8412 -1691 51 64 99
4.23979 92.9512 -1693 58 71 107
7.61038 93.0614 -1695 61 74 111
10.9825 93.117 -1696 58 71 108
14.3671 93.2278 -1698 54 68 104
17.7494 93.2839 -1699 44 59 93
21.1233 93.2853 -1699 44 59 93
24.483 93.2321 -1698 44 59 93
27.8717 93.2889 -1699 43 58 92
31.2462 93.2911 -1699 39 54 88
34.6414 93.3484 -1700 37 52 86
38.0408 93.406 -1701 37 52 86
41.396 93.3541 -1700 39 54 88
44.7209 93.2474 -1698 41 56 90
48.1233 93.3058 -1699 42 57 91
51.4391 93.1996 -1697 41 56 90
54.812 93.2035 -1697 43 58 92
58.1167 93.0978 -1695 46 61 95
61.559 93.2122 -1697 46 61 95
64.8185 93.052 -1694 50 65 99
68.1874 93.0569 -1694 50 65 99
71.5568 93.0621 -1694 43 58 92
74.9267 93.0675 -1694 47 62 96
78.2972 93.0732 -1694 50 65 99
81.7167 93.1341 -1695 51 66 100
85.0905 93.1402 -1695 51 66 100
88.465 93.1467 -1695 48 63 97
91.8945 93.2082 -1696 46 61 95
95.3285 93.2702 -1697 48 63 97
98.8255 93.3873 -1699 53 66 103
102.331 93.5046 -1701 53 68 105
105.97 93.7323 -1705 54 71 109
109.434 93.7953 -1706 53 70 108
112.902 93.8584 -1707 49 66 104
116.306 93.8669 -1707 50 68 106
119.853 93.9856 -1709 51 71 108
123.408 94.1046 -1711 46 68 105
126.898 94.1689 -1712 45 66 101
130.469 94.2885 -1714 50 71 106
133.892 94.2982 -1714 49 70 107
137.397 94.3633 -1715 45 66 102
140.99 94.4837 -1717 46 67 102
144.675 94.6594 -1720 46 67 102
148.202 94.7252 -1721 48 69 104
151.91 94.9016 -1724 47 68 103
155.36 94.9129 -1724 45 66 101
158.904 94.9797 -1725 42 63 98
162.642 95.1568 -1728 40 61 96
166.297 95.2792 -1730 41 62 97
170.256 95.567 -1735 37 58 93
174.436 95.9655 -1742 43 64 99
178.748 96.4194 -1750 47 68 103
183.302 96.9838 -1760 45 66 101
187.579 97.3833 -1767 45 66 101
191.128 97.3975 -1767 46 64 97
194.459 97.3015 -1765 40 57 90
198.344 97.4816 -1768 35 52 83
202.015 97.5516 -1769 30 47 78
206.039 97.7874 -1773 38 55 87
210.082 98.0235 -1777 45 62 93
213.902 98.1497 -1779 55 71 101
217.365 98.1106 -1778 59 73 100
220.08 97.7406 -1771 63 73 100
221.884 96.9844 -1757 63 72 98
-203.352 93.8647 -1766 61 67 81
-200.931 94.3817 -1776 50 57 73
-198.137 94.7394 -1783 36 46 72
-194.663 94.7784 -1784 35 46 72
-190.758 94.6052 -1781 40 52 77
-186.551 94.273 -1775 40 52 77
-182.266 93.888 -1768 39 51 76
-177.708 93.3441 -1758 41 52 80
-173.786 93.1192 -1754 41 53 82
-169.978 92.9476 -1751 44 58 87
-166.184 92.7763 -1748 48 60 88
-162.496 92.6585 -1746 45 58 85
-158.999 92.647 -1746 43 57 86
-155.326 92.5297 -1744 44 58 87
-151.749 92.4656 -1743 43 57 86
-148.178 92.4019 -1742 44 58 87
-144.611 92.3384 -1741 43 57 86
-140.969 92.2221 -1739 41 55 86
-137.177 92 -1735 41 55 86
-133.249 91.6723 -1729 43 57 88
-129.646 91.5568 -1727 46 60 91
-126.125 91.4947 -1726 47 61 92
-122.538 91.3798 -1724 47 62 93
-119.029 91.3182 -1723 47 61 92
-115.525 91.2568 -1722 43 57 88
-111.961 91.1428 -1720 40 55 87
-108.468 91.0819 -1719 41 56 88
-104.981 91.0214 -1718 40 55 87
-101.439 90.9081 -1716 38 53 86
-97.9063 90.7949 -1714 39 54 88
-94.327 90.6293 -1711 40 55 89
-90.8136 90.5167 -1709 41 56 90
-87.36 90.4574 -1708 42 57 91
-83.9602 90.4514 -1708 42 57 91
-80.4668 90.3395 -1706 45 60 94
-77.1176 90.3869 -1707 40 57 89
-73.6353 90.2756 -1705 41 58 91
-70.2029 90.2176 -1704 43 59 93
-66.775 90.1598 -1703 47 62 96
-63.3515 90.1022 -1702 47 62 96
-59.9326 90.0449 -1701 44 59 93
-56.5514 90.0407 -1701 44 59 93
-53.1707 90.0369 -1701 43 58 90
-49.761 89.9803 -1700 41 56 90
-46.4376 90.0827 -1702 40 55 89
-43.0308 90.0265 -1701 36 51 85
-39.6749 90.0766 -1702 36 51 85
-36.2726 90.0209 -1701 37 52 86
-32.894 90.0185 -1701 38 52 89
-29.481 89.9105 -1699 44 58 94
-26.0915 89.8556 -1698 41 54 87
-22.7194 89.8539 -1698 34 47 79
-19.302 89.6407 -1694 35 49 80
-15.929 89.5865 -1693 49 63 94
-12.5525 89.4797 -1691 53 67 98
-9.18961 89.4259 -1690 52 65 98
-5.83072 89.3725 -1689 51 64 97
-2.48172 89.531 -1692 51 64 97
0.877624 89.531 -1692 45 58 93
4.24198 89.637 -1694 49 62 98
7.61432 89.7433 -1696 49 62 99
10.9882 89.7968 -1697 51 64 101
14.3746 89.9036 -1699 51 64 100
17.7481 89.9047 -1699 43 58 92
21.1342 89.959 -1700 43 58 92
24.4957 89.9077 -1699 42 57 91
27.8697 89.9096 -1699 40 55 89
31.2624 89.9646 -1700 37 52 86
34.6185 89.914 -1699 37 52 86
38.0157 89.9695 -1700 38 53 87
41.393 89.9723 -1700 39 54 88
44.7177 89.8695 -1698 41 56 90
48.0915 89.8728 -1698 44 59 93
51.4051 89.7706 -1696 45 60 94
54.808 89.8273 -1697 44 58 93
58.1468 89.7783 -1696 45 58 93
61.5546 89.8356 -1697 47 62 96
64.8903 89.7872 -1696 50 65 99
68.263 89.7919 -1696 49 64 98
71.5939 89.7439 -1695 41 58 92
75.0097 89.802 -1696 44 60 94
78.4302 89.8605 -1697 49 64 98
81.7588 89.8132 -1696 50 65 99
85.0844 89.7663 -1695 50 65 99
88.4586 89.7724 -1695 48 63 97
91.8877 89.8319 -1696 46 61 95
95.2655 89.8385 -1696 49 64 98
98.7602 89.9514 -1698 50 63 100
102.324 90.1174 -1701 51 65 103
105.838 90.2308 -1703 52 69 107
109.297 90.2914 -1704 54 71 109
112.827 90.4054 -1706 50 67 105
116.298 90.4666 -1707 49 67 105
119.844 90.581 -1709 49 70 107
123.399 90.6957 -1711 44 67 103
126.962 90.8107 -1713 45 66 101
130.459 90.8729 -1714 47 68 103
133.805 90.8293 -1713 43 64 100
137.227 90.839 -1713 41 61 96
141.062 91.1141 -1718 43 63 98
144.581 91.1773 -1719 43 64 99
148.105 91.2407 -1720 47 68 103
151.899 91.4637 -1724 46 67 102
155.259 91.4216 -1723 42 63 98
158.801 91.4859 -1724 42 63 98
162.348 91.5506 -1725 42 63 98
166.189 91.7745 -1729 40 60 95
170.047 91.9989 -1733 38 58 93
174.523 92.5422 -1743 43 64 99
178.735 92.9265 -1750 47 68 103
183.601 93.6298 -1763 47 68 103
187.459 93.8025 -1766 44 65 100
191.223 93.9223 -1768 45 63 96
194.885 93.9894 -1769 40 56 88
198.666 94.1097 -1771 34 50 81
202.571 94.2835 -1774 31 47 79
206.489 94.4577 -1777 39 56 88
210.303 94.579 -1779 45 62 92
214.006 94.6474 -1780 54 70 99
217.227 94.5033 -1777 58 72 99
220.064 94.1999 -1771 58 67 93
221.111 93.1519 -1751 48 57 81
-203.568 90.4397 -1768 68 74 85
-201.03 90.886 -1777 52 58 70
-198.124 91.1792 -1783 36 45 71
-194.54 91.1656 -1783 33 43 69
-190.637 90.9989 -1780 40 51 77
-186.222 90.577 -1772 42 54 79
-182.047 90.2576 -1766 39 51 77
-177.594 89.7853 -1757 41 52 80
-173.575 89.5177 -1752 42 54 83
-169.869 89.4037 -1750 45 59 88
-166.077 89.2388 -1747 49 60 88
-162.298 89.0743 -1744 43 55 83
-158.806 89.0633 -1744 41 55 84
-155.137 88.9504 -1742 41 55 84
-151.565 88.8888 -1741 41 55 84
-148.167 88.9295 -1742 42 56 85
-144.518 88.8174 -1740 42 56 86
-140.959 88.7565 -1739 42 56 87
-137.168 88.5428 -1735 42 56 87
-133.394 88.3294 -1731 42 56 87
-129.637 88.1163 -1727 42 56 87
-126.116 88.0565 -1726 44 58 89
-122.529 87.9459 -1724 46 61 92
-118.882 87.7846 -1721 47 62 93
-115.517 87.8276 -1722 45 59 90
-112.018 87.7688 -1721 42 57 89
-108.524 87.7102 -1720 42 57 89
-105.035 87.6519 -1719 41 56 88
-101.609 87.6448 -1719 37 52 85
-98.0137 87.485 -1716 39 54 88
-94.4858 87.3765 -1714 40 55 89
-90.9667 87.2682 -1712 41 56 90
-87.4562 87.1601 -1710 41 56 90
-84.0036 87.1033 -1709 41 56 90
-80.5555 87.0466 -1708 45 60 94
-77.1574 87.0412 -1708 39 56 88
-73.6734 86.9342 -1706 42 58 91
-70.2392 86.8782 -1705 45 60 94
-66.8096 86.8226 -1704 46 61 95
-63.3844 86.7673 -1703 44 59 93
-59.9285 86.6612 -1701 43 58 92
-56.5475 86.6572 -1701 44 59 93
-53.1982 86.7043 -1702 43 58 90
-49.8453 86.7517 -1703 43 58 91
-46.4617 86.7485 -1703 42 57 91
-43.0784 86.7454 -1703 40 55 89
-39.6954 86.7426 -1703 38 53 87
-36.2488 86.5872 -1700 35 50 84
-32.8724 86.5849 -1700 36 50 86
-29.4615 86.4809 -1698 41 55 90
-26.0588 86.377 -1696 39 52 85
-22.6911 86.3753 -1696 35 49 80
-19.2779 86.1703 -1692 34 48 79
-15.9184 86.169 -1692 48 62 92
-12.5368 86.0153 -1689 53 67 98
-9.18354 86.0145 -1689 52 65 98
-5.82687 85.9631 -1688 51 64 97
-2.48008 86.1156 -1691 48 61 94
0.87704 86.1155 -1691 46 59 94
4.24168 86.2685 -1694 49 62 98
7.62276 86.4726 -1698 48 61 98
10.9939 86.4733 -1698 46 59 96
14.3736 86.5251 -1699 47 60 96
17.7678 86.628 -1701 40 55 89
21.1576 86.6803 -1702 40 55 89
24.5372 86.6819 -1702 38 53 87
27.917 86.6836 -1702 39 54 88
31.3154 86.7367 -1703 40 55 89
34.6976 86.7389 -1703 39 54 88
38.0577 86.6905 -1702 41 56 90
41.3899 86.5913 -1700 45 60 94
44.7409 86.5434 -1699 46 61 95
48.0315 86.3937 -1696 46 61 95
51.4015 86.3971 -1696 45 60 94
54.7719 86.4008 -1696 45 58 93
58.1427 86.4046 -1696 44 57 92
61.5866 86.5106 -1698 46 61 95
64.9623 86.5149 -1698 47 62 96
68.3386 86.5195 -1698 46 61 95
71.6734 86.4734 -1697 40 56 90
75.093 86.5294 -1698 41 57 91
78.471 86.5346 -1698 46 61 95
81.8496 86.5402 -1698 48 63 97
85.1285 86.4439 -1696 48 63 97
88.5568 86.5008 -1697 49 64 98
91.9896 86.558 -1698 48 63 97
95.315 86.5134 -1697 51 66 100
98.8697 86.6731 -1700 51 64 101
102.437 86.8329 -1703 53 67 104
105.955 86.9421 -1705 53 70 108
109.354 86.9495 -1705 53 70 108
112.886 87.0591 -1707 48 66 104
116.29 87.067 -1707 47 65 103
119.835 87.1771 -1709 46 68 103
123.246 87.1855 -1709 43 68 102
126.805 87.296 -1711 47 68 103
130.298 87.3559 -1712 46 67 102
133.561 87.2629 -1710 43 64 99
137.298 87.4763 -1714 43 61 97
140.887 87.588 -1716 44 62 98
144.487 87.7 -1718 42 63 98
148.094 87.8121 -1720 41 62 97
151.888 88.0266 -1724 42 63 98
155.248 87.9862 -1723 43 64 99
158.698 87.9969 -1723 44 65 100
162.431 88.1613 -1726 42 63 98
166.177 88.3258 -1729 40 59 95
170.133 88.5928 -1734 41 60 96
174.411 89.0135 -1742 44 65 100
178.927 89.5367 -1752 45 66 101
183.692 90.1625 -1764 44 65 100
187.87 90.482 -1770 45 66 101
191.75 90.6484 -1773 46 63 96
194.872 90.4573 -1769 39 54 86
198.764 90.6243 -1772 32 47 78
202.557 90.7405 -1774 32 48 79
206.358 90.8568 -1776 41 58 90
210.525 91.1271 -1781 46 61 91
214.232 91.1929 -1782 54 69 97
217.089 90.9008 -1776 58 72 99
219.303 90.3529 -1765 54 64 88
220.464 89.3953 -1746 47 56 79
-200.79 87.2397 -1775 56 62 73
-198.332 87.718 -1785 36 45 71
-194.963 87.8032 -1787 35 44 70
-190.945 87.5939 -1783 44 53 79
-186.42 87.1392 -1774 45 56 82
-182.241 86.8324 -1768 42 54 79
-177.784 86.3785 -1759 43 54 82
-173.762 86.1213 -1754 44 56 85
-169.76 85.8644 -1749 46 60 89
-165.971 85.7061 -1746 50 61 89
-162.101 85.4989 -1742 48 59 87
-158.522 85.4393 -1741 44 58 87
-154.949 85.3798 -1740 42 56 85
-151.467 85.3697 -1740 40 54 83
-148.072 85.4089 -1741 41 55 84
-144.508 85.3502 -1740 42 56 85
-141.112 85.3898 -1741 41 55 86
-137.396 85.2335 -1738 41 55 86
-133.616 85.0284 -1734 41 55 86
-129.853 84.8235 -1730 42 56 87
-126.327 84.766 -1729 43 57 88
-122.521 84.5127 -1724 43 58 89
-118.805 84.3086 -1720 45 60 91
-115.509 84.399 -1722 47 61 92
-111.88 84.2445 -1719 46 61 93
-108.39 84.1881 -1718 44 59 91
-105.028 84.2302 -1719 42 57 89
-101.603 84.2233 -1719 40 55 88
-98.0071 84.0698 -1716 41 56 90
-94.5346 84.0144 -1715 41 56 90
-90.9605 83.8614 -1712 41 56 90
-87.4503 83.7575 -1710 41 56 90
-83.9979 83.7029 -1709 40 55 89
-80.503 83.5996 -1707 44 59 93
-77.107 83.5944 -1707 40 57 89
-73.6684 83.5404 -1706 41 57 90
-70.2345 83.4868 -1705 42 57 91
-66.8442 83.4823 -1705 44 59 93
-63.4173 83.429 -1704 43 58 92
-60.0302 83.425 -1704 41 56 90
-56.5436 83.2742 -1701 42 57 90
-53.2258 83.3686 -1703 42 57 89
-49.8127 83.3162 -1702 43 58 92
-46.4586 83.362 -1703 44 59 93
-43.0249 83.2612 -1701 44 59 93
-39.6695 83.3075 -1702 42 57 91
-36.2464 83.2071 -1700 38 53 87
-32.8314 83.1067 -1698 38 53 87
-29.4248 83.0069 -1696 39 53 87
-26.0571 83.0051 -1696 37 50 83
-22.6895 83.0035 -1696 35 49 81
-19.288 82.8553 -1693 33 47 78
-15.9362 82.9031 -1694 49 63 92
-12.5583 82.8043 -1692 54 68 98
-9.19924 82.8036 -1692 54 67 100
-5.83684 82.7542 -1691 56 69 102
-2.48432 82.9007 -1694 54 67 100
0.878014 82.8517 -1693 52 65 100
4.2414 82.9008 -1694 50 63 99
7.61776 83.048 -1697 51 64 101
10.9867 83.0486 -1697 46 59 96
14.3641 83.0984 -1698 46 60 96
17.7457 83.1484 -1699 42 57 91
21.1562 83.2965 -1702 41 56 90
24.5211 83.2491 -1701 39 54 88
27.9151 83.2997 -1702 42 57 91
31.2765 83.2528 -1701 46 61 95
34.6545 83.2549 -1701 45 60 94
38.0105 83.2083 -1700 45 60 94
41.3384 83.1131 -1698 47 62 96
44.7114 83.116 -1698 48 63 97
48.0566 83.0701 -1697 45 60 94
51.4284 83.0733 -1697 44 59 93
54.8005 83.0768 -1697 43 57 91
58.2074 83.1295 -1698 44 57 92
61.6187 83.1824 -1699 46 61 95
64.9962 83.1866 -1699 46 61 95
68.3743 83.191 -1699 44 59 93
71.7106 83.1466 -1698 42 57 91
75.1322 83.2005 -1699 42 57 91
78.5119 83.2055 -1699 45 60 94
81.8923 83.2108 -1699 47 62 96
85.2231 83.1673 -1698 47 62 96
88.6552 83.222 -1699 49 64 98
92.0918 83.2769 -1700 50 65 99
95.477 83.2832 -1700 51 66 100
98.9794 83.3875 -1702 52 65 102
102.49 83.4922 -1704 53 67 104
105.824 83.4501 -1703 50 67 105
109.218 83.4572 -1703 47 64 102
112.746 83.5624 -1705 44 61 99
116.214 83.619 -1706 44 62 100
119.757 83.7249 -1708 44 66 101
123.31 83.8309 -1710 42 67 101
126.797 83.8882 -1711 46 67 102
130.213 83.8967 -1711 45 66 101
133.552 83.8564 -1710 44 65 100
137.289 84.0615 -1714 47 65 101
140.96 84.2178 -1717 47 65 101
144.729 84.4234 -1721 43 64 99
148.171 84.4331 -1721 40 61 95
151.966 84.6394 -1725 39 60 94
155.328 84.6004 -1724 42 63 98
158.963 84.709 -1726 44 65 100
162.608 84.8178 -1728 42 63 98
166.454 85.0251 -1732 42 60 96
170.318 85.2325 -1736 42 61 97
174.599 85.6368 -1744 42 63 98
179.017 86.0905 -1753 45 66 101
184.2 86.8884 -1769 45 66 101
187.858 86.9498 -1770 45 66 101
191.737 87.1098 -1773 45 62 95
195.079 87.0243 -1771 40 55 87
199.2 87.2831 -1776 32 47 78
203 87.3947 -1778 32 48 79
206.809 87.5066 -1780 40 57 89
210.51 87.5697 -1781 47 62 91
214.337 87.6821 -1783 53 67 96
216.83 87.2539 -1774 55 69 96
218.915 86.6781 -1762 52 61 86
-201.569 84.0265 -1782 57 62 74
-198.764 84.3438 -1789 36 45 71
-195.169 84.3313 -1789 35 44 70
-191.147 84.1304 -1785 44 53 79
-186.828 83.7885 -1778 46 57 82
-182.332 83.3528 -1769 43 55 80
-178.076 83.0115 -1762 44 55 83
-174.048 82.7647 -1757 44 56 85
-169.943 82.4713 -1751 44 58 87
-166.245 82.3664 -1749 48 59 87
-162.37 82.1676 -1745 50 61 89
-158.512 81.969 -1741 49 63 92
-155.028 81.9591 -1741 47 61 90
-151.545 81.9494 -1741 43 57 86
-148.063 81.94 -1741 43 57 85
-144.582 81.9307 -1741 41 55 84
-141.183 81.9687 -1742 40 54 85
-137.466 81.8186 -1739 41 55 86
-133.839 81.716 -1737 41 55 86
-130.145 81.5665 -1734 42 56 87
-126.392 81.3702 -1730 43 57 88
-122.584 81.1272 -1725 42 56 87
-118.936 80.9785 -1722 42 56 87
-115.501 80.9711 -1722 47 61 92
-111.808 80.7758 -1718 50 65 96
-108.51 80.8629 -1720 49 64 96
-105.021 80.8091 -1719 47 62 94
-101.537 80.7556 -1718 44 59 92
-98.0579 80.7022 -1717 43 58 92
-94.5836 80.6492 -1716 43 58 92
-91.0609 80.5493 -1714 41 56 90
-87.4958 80.4027 -1711 39 54 88
-84.0908 80.3973 -1711 38 53 87
-80.545 80.2512 -1708 40 55 89
-77.1472 80.2461 -1708 42 58 90
-73.6637 80.1474 -1706 42 57 90
-70.2299 80.0959 -1705 41 56 90
-66.8007 80.0446 -1704 43 58 92
-63.3761 79.9935 -1703 44 59 93
-59.9559 79.9427 -1702 42 57 91
-56.5068 79.8451 -1700 42 57 90
-53.1599 79.8886 -1701 42 57 89
-49.751 79.8384 -1700 44 59 93
-46.401 79.8824 -1701 45 60 94
-42.9969 79.8325 -1700 45 58 93
-39.6203 79.8299 -1700 45 59 93
-36.2014 79.7336 -1698 42 57 91
-32.8293 79.7314 -1698 42 57 91
-29.4403 79.6825 -1697 40 54 88
-26.0708 79.6808 -1697 37 50 83
-22.7015 79.6792 -1697 36 50 81
-19.3096 79.584 -1695 33 47 78
-15.9446 79.5829 -1695 48 62 91
-12.5649 79.4881 -1693 54 68 98
-9.20409 79.4874 -1693 53 66 99
-5.83992 79.44 -1692 50 63 96
-2.48417 79.5337 -1694 48 61 94
0.877954 79.4867 -1693 47 60 95
4.23862 79.4868 -1693 42 55 91
7.6038 79.5342 -1694 49 62 99
10.973 79.5817 -1695 46 59 96
14.3463 79.6294 -1696 46 59 96
17.7341 79.7244 -1698 44 59 93
21.1424 79.8665 -1701 47 62 96
24.5196 79.8679 -1701 46 61 95
27.8969 79.8695 -1701 47 62 96
31.2561 79.8245 -1700 48 63 97
34.6116 79.7796 -1699 49 64 98
37.9633 79.7349 -1698 45 60 94
41.3114 79.6904 -1697 44 59 93
44.6822 79.6931 -1697 45 60 94
47.9969 79.6022 -1695 45 60 94
51.4251 79.6993 -1697 44 59 93
54.7324 79.6087 -1695 43 57 91
58.1694 79.7062 -1697 45 58 93
61.5785 79.7569 -1698 48 63 97
65.0303 79.8548 -1700 47 62 96
68.3699 79.8122 -1699 46 61 95
71.706 79.7696 -1698 44 59 93
75.1272 79.8212 -1699 46 61 95
78.5069 79.826 -1699 46 61 95
81.8389 79.7842 -1698 46 61 95
85.2679 79.8364 -1699 46 61 95
88.7537 79.9359 -1701 49 64 98
92.0859 79.8947 -1700 48 63 97
95.4147 79.8535 -1699 49 64 98
98.9728 80.0007 -1702 54 67 104
102.363 80.0071 -1702 52 66 104
105.817 80.0606 -1703 49 64 103
109.211 80.0675 -1703 48 65 103
112.738 80.1686 -1705 47 64 102
116.207 80.2228 -1706 45 63 101
119.82 80.3714 -1709 45 66 102
123.302 80.4261 -1710 42 66 100
126.863 80.5281 -1712 42 63 97
130.281 80.5362 -1712 41 62 96
133.699 80.5446 -1712 42 63 98
137.28 80.6473 -1714 45 65 100
140.951 80.7973 -1717 45 65 100
144.719 80.9946 -1721 42 63 98
148.161 81.0038 -1721 41 62 95
151.78 81.1075 -1723 39 60 93
155.318 81.1644 -1724 40 61 96
158.861 81.2214 -1725 41 62 97
162.597 81.3728 -1728 41 62 97
166.347 81.5246 -1731 42 62 97
170.307 81.7707 -1736 42 61 97
174.788 82.2528 -1746 42 63 98
179.107 82.641 -1754 44 65 100
183.876 83.2179 -1766 47 68 103
187.845 83.4182 -1770 47 68 103
192.049 83.7131 -1776 45 62 95
195.397 83.6312 -1774 39 54 86
199.299 83.7852 -1777 32 47 77
202.986 83.8451 -1778 33 49 80
207.028 84.0469 -1782 41 58 90
210.615 84.0601 -1782 49 64 93
214.203 84.0737 -1782 53 68 96
216.693 83.6628 -1773 53 67 94
219.273 83.2992 -1765 50 59 83
-201.104 80.2892 -1778 56 61 72
-198.64 80.7286 -1788 38 47 73
-195.266 80.8069 -1790 37 46 72
-191.564 80.75 -1789 43 52 78
-186.921 80.2871 -1779 43 54 80
-182.63 79.9601 -1772 40 52 78
-178.267 79.5881 -1764 43 54 82
-174.334 79.3969 -1760 43 56 84
-170.418 79.206 -1756 41 55 84
-166.235 78.88 -1749 46 57 85
-162.267 78.6445 -1744 49 60 88
-158.502 78.4996 -1741 48 62 91
-154.929 78.445 -1740 47 61 90
-151.361 78.3905 -1739 44 58 88
-148.053 78.4716 -1741 42 56 83
-144.573 78.4627 -1741 40 54 81
-141.175 78.4991 -1742 41 55 86
-137.536 78.4006 -1740 42 56 87
-133.984 78.3473 -1739 41 55 86
-130.212 78.1591 -1735 43 57 88
-126.53 78.0162 -1732 44 58 89
-122.719 77.7834 -1727 43 57 88
-119.136 77.686 -1725 42 56 87
-115.494 77.5438 -1722 48 62 93
-111.931 77.4468 -1720 52 67 98
-108.503 77.4402 -1720 53 68 99
-104.953 77.3437 -1718 50 65 97
-101.413 77.2474 -1716 46 61 94
-97.9376 77.1964 -1715 44 59 93
-94.5226 77.1905 -1715 42 57 91
-91.0022 77.0949 -1713 42 57 91
-87.4393 76.9545 -1710 42 57 91
-84.0365 76.9493 -1710 39 54 88
-80.54 76.8543 -1708 39 54 88
-77.1425 76.8496 -1708 40 55 87
-73.6592 76.7551 -1706 44 59 92
-70.2668 76.7507 -1706 43 58 92
-66.875 76.7465 -1706 42 57 91
-63.4466 76.6976 -1705 42 57 91
-60.0225 76.6489 -1704 43 58 92
-56.5698 76.5555 -1702 44 59 92
-53.2192 76.5971 -1703 44 59 91
-49.7772 76.504 -1701 44 59 93
-46.4255 76.5461 -1702 45 60 94
-43.0195 76.4984 -1701 45 58 93
-39.6412 76.4959 -1701 44 58 93
-36.2204 76.4036 -1699 43 58 92
-32.8467 76.4016 -1699 46 61 95
-29.4385 76.3098 -1697 42 57 90
-26.0692 76.3082 -1697 38 51 84
-22.7001 76.3067 -1697 37 50 82
-19.3084 76.2155 -1695 34 48 79
-15.9342 76.1695 -1694 46 60 90
-12.5641 76.1236 -1693 50 63 94
-9.19266 76.0331 -1691 47 60 93
-5.83612 76.0326 -1691 44 57 91
-2.48255 76.1223 -1693 47 60 94
0.878414 76.1672 -1694 48 61 96
4.24336 76.2124 -1695 41 54 90
7.60782 76.2127 -1695 48 61 98
10.9723 76.2133 -1695 50 63 101
14.3454 76.259 -1696 49 62 99
17.7226 76.3049 -1697 43 58 93
21.1162 76.396 -1699 46 61 95
24.5036 76.4424 -1700 47 61 96
27.8788 76.444 -1700 49 64 98
31.2358 76.4008 -1699 46 61 95
34.5687 76.3128 -1697 43 58 92
37.9163 76.27 -1696 42 57 91
41.2845 76.2724 -1696 44 59 93
44.7058 76.365 -1698 48 63 97
48.0787 76.3678 -1698 47 62 96
51.4823 76.4157 -1699 43 58 92
54.8582 76.4191 -1699 45 60 94
58.2344 76.4225 -1699 46 61 95
61.6472 76.4711 -1700 48 63 97
65.0263 76.4749 -1700 49 64 98
68.4059 76.4789 -1700 49 64 98
71.7438 76.4382 -1699 47 62 96
75.1668 76.4876 -1700 48 63 97
78.5483 76.4923 -1700 49 64 98
81.8338 76.4071 -1698 48 63 97
85.2124 76.4121 -1698 47 62 96
88.6439 76.4624 -1699 47 62 96
92.0259 76.4679 -1699 46 61 95
95.4088 76.4735 -1699 47 62 96
98.8504 76.5245 -1700 54 67 104
102.237 76.5306 -1700 54 67 105
105.748 76.6269 -1702 53 67 106
109.204 76.6784 -1703 53 70 108
112.731 76.7753 -1705 50 67 105
116.268 76.8722 -1707 47 65 103
119.812 76.9695 -1709 47 67 103
123.366 77.067 -1711 45 67 102
126.929 77.1646 -1713 41 62 95
130.349 77.1724 -1713 41 62 95
133.769 77.1804 -1713 43 64 99
137.511 77.3689 -1717 45 66 101
141.107 77.4675 -1719 44 65 100
144.627 77.5212 -1720 42 63 98
148.238 77.6203 -1722 40 61 95
151.77 77.6745 -1723 38 59 92
155.218 77.6838 -1723 41 62 97
158.759 77.7384 -1724 41 62 97
162.493 77.8835 -1727 39 60 95
166.433 78.119 -1732 41 62 97
170.394 78.3548 -1737 43 64 99
174.778 78.7713 -1746 43 64 99
178.994 79.0979 -1753 41 62 97
183.552 79.5602 -1763 46 67 102
187.94 79.9325 -1771 47 68 103
191.929 80.1246 -1775 44 61 94
195.384 80.0913 -1774 39 54 85
199.399 80.2839 -1778 34 49 79
203.088 80.3414 -1779 35 51 82
206.899 80.4442 -1781 40 57 89
210.365 80.4117 -1780 49 64 93
214.31 80.5603 -1783 54 68 96
216.924 80.2119 -1775 54 67 92
219.384 79.8185 -1766 49 58 81
-201.318 76.8276 -1780 63 66 76
-198.851 77.2476 -1790 46 55 76
-195.8 77.4518 -1795 38 47 70
-191.874 77.3111 -1792 44 53 78
-187.541 76.9981 -1785 42 54 77
-182.928 76.556 -1775 40 52 76
-178.762 76.2867 -1769 42 56 83
-174.621 76.0178 -1763 43 56 83
-170.602 75.7921 -1758 44 57 85
-166.51 75.5237 -1752 45 56 84
-162.35 75.2124 -1745 46 57 85
-158.493 75.0306 -1741 44 59 89
-154.831 74.9353 -1739 45 59 89
-151.352 74.9265 -1739 44 58 88
-147.875 74.9178 -1739 42 56 85
-144.481 74.9524 -1740 44 58 86
-141.004 74.9441 -1740 42 56 86
-137.449 74.893 -1739 43 57 87
-133.976 74.8852 -1739 41 55 86
-130.279 74.7483 -1736 42 56 87
-126.596 74.6117 -1733 45 59 90
-122.925 74.4754 -1730 43 57 88
-119.129 74.2531 -1725 42 55 87
-115.622 74.2032 -1724 45 58 91
-111.859 73.9815 -1719 50 64 95
-108.433 73.975 -1719 53 67 99
-104.947 73.9259 -1718 53 68 100
-101.466 73.8768 -1717 50 65 98
-97.9319 73.785 -1715 47 62 96
-94.5171 73.7795 -1715 43 58 92
-91.103 73.7742 -1715 41 56 90
-87.5364 73.6399 -1712 41 56 90
-84.1297 73.635 -1712 39 54 88
-80.5824 73.5012 -1709 37 52 86
-77.183 73.4966 -1709 40 55 89
-73.6548 73.3632 -1706 44 59 93
-70.2627 73.3591 -1706 43 58 92
-66.8319 73.3122 -1705 43 58 92
-63.4429 73.3084 -1705 42 57 91
-60.019 73.2618 -1704 43 58 92
-56.5997 73.2154 -1703 44 59 93
-53.2473 73.2552 -1704 45 60 93
-49.8328 73.2093 -1703 45 60 94
-46.4773 73.2495 -1704 45 60 94
-43.0423 73.161 -1702 44 58 92
-39.662 73.1585 -1702 43 58 92
-36.2396 73.0705 -1700 44 59 93
-32.8254 72.9825 -1698 44 59 93
-29.4367 72.9377 -1697 43 58 92
-26.0676 72.9361 -1697 41 54 87
-22.6854 72.8918 -1696 39 52 85
-19.3073 72.8476 -1695 40 53 86
-15.9427 72.8465 -1695 50 64 94
-12.5634 72.7597 -1693 51 65 97
-9.19756 72.7162 -1692 52 65 100
-5.84268 72.7587 -1693 53 66 101
-2.48388 72.8014 -1694 57 70 105
0.878359 72.8013 -1694 56 69 104
4.2406 72.8015 -1694 52 65 101
7.60737 72.8448 -1695 53 66 103
10.9717 72.8454 -1695 52 65 103
14.3446 72.8892 -1696 51 65 103
17.732 72.9759 -1698 41 57 93
21.1274 73.0631 -1700 45 60 96
24.5022 73.0644 -1700 46 60 97
27.8771 73.0659 -1700 48 63 97
31.2523 73.0677 -1700 44 59 93
34.587 72.9836 -1698 42 57 91
37.9588 72.9857 -1698 42 56 92
41.3308 72.988 -1698 43 57 94
44.7031 72.9905 -1698 45 60 94
48.1042 73.0361 -1699 47 62 96
51.5096 73.082 -1700 47 62 96
54.855 73.042 -1699 45 60 94
58.1967 73.0023 -1698 45 60 94
61.6073 73.0489 -1699 48 63 97
64.9842 73.0525 -1699 50 65 99
68.3214 73.0134 -1698 50 65 99
71.6974 73.0174 -1698 49 64 98
75.1181 73.0646 -1699 50 65 99
78.4973 73.069 -1699 50 65 99
81.829 73.0307 -1698 48 63 97
85.2576 73.0786 -1699 46 61 95
88.6909 73.1266 -1700 44 59 93
92.0205 73.0889 -1699 46 61 95
95.4032 73.0942 -1699 48 63 97
98.9028 73.1859 -1701 53 68 105
102.411 73.2778 -1703 53 68 106
105.866 73.3268 -1704 52 67 106
109.262 73.3331 -1704 51 69 107
112.791 73.4256 -1706 48 66 104
116.124 73.3892 -1705 45 65 101
119.735 73.5251 -1708 43 64 98
123.143 73.5322 -1708 43 66 98
126.773 73.6687 -1711 42 63 95
130.189 73.676 -1711 41 62 95
133.761 73.7698 -1713 43 64 99
137.263 73.8208 -1714 42 64 97
141.016 74.0012 -1718 40 61 95
144.618 74.0956 -1720 41 62 97
148.315 74.2334 -1723 38 59 94
151.849 74.2852 -1724 41 62 96
155.389 74.3372 -1725 42 63 98
159.026 74.4325 -1727 40 61 96
162.672 74.528 -1729 39 60 95
166.519 74.7101 -1733 40 62 97
170.482 74.9354 -1738 43 65 100
174.767 75.2903 -1746 45 66 101
179.494 75.8182 -1758 47 68 103
183.854 76.1737 -1766 47 68 103
188.141 76.4866 -1773 47 68 103
192.242 76.7134 -1778 42 59 92
195.813 76.7247 -1778 39 55 86
199.611 76.8225 -1780 34 50 81
203.418 76.9206 -1782 36 53 84
207.003 76.9325 -1782 41 57 89
210.235 76.8151 -1779 50 64 93
214.177 76.9571 -1782 54 67 95
217.156 76.7537 -1777 56 68 93
218.874 76.1185 -1762 48 56 77
-201.08 73.194 -1778 68 69 79
-198.84 73.6768 -1790 48 56 73
-195.68 73.8305 -1794 37 46 66
-192.291 73.902 -1796 43 52 76
-187.53 73.4388 -1785 43 54 76
-183.33 73.1818 -1779 40 52 74
-179.055 72.8837 -1772 40 54 81
-174.809 72.5861 -1765 42 54 82
-170.495 72.2475 -1757 43 54 82
-166.596 72.0737 -1753 44 55 83
-162.527 71.8179 -1747 46 57 86
-158.484 71.5624 -1741 46 60 91
-154.822 71.4715 -1739 47 61 92
-151.343 71.463 -1739 45 59 90
-147.781 71.4137 -1738 43 57 86
-144.224 71.3645 -1737 43 57 86
-140.672 71.3155 -1736 41 55 84
-137.125 71.2668 -1735 41 55 86
-133.738 71.3004 -1736 42 56 87
-130.122 71.2109 -1734 43 57 88
-126.661 71.2039 -1734 43 57 88
-123.06 71.1148 -1732 43 57 88
-119.467 71.026 -1730 42 55 87
-115.816 70.8964 -1727 40 53 86
-112.048 70.6848 -1722 43 57 88
-108.427 70.5556 -1719 47 61 93
-104.88 70.4676 -1717 51 66 98
-101.342 70.3798 -1715 54 69 102
-97.8121 70.2923 -1713 51 66 100
-94.4016 70.287 -1713 47 62 96
-91.0448 70.3229 -1714 43 58 92
-87.5314 70.236 -1712 42 57 91
