ply
format ascii 1.0
comment Created by Open3D
element vertex 1531
property double x
property double y
property double z
property uchar red
property uchar green
property uchar blue
end_header
81.953 77.2844 -1459 35 43 62
84.8593 77.2904 -1459 37 45 64
87.7063 77.2435 -1458 37 45 64
90.612 77.2499 -1458 38 46 67
93.5185 77.2564 -1458 40 49 74
96.4256 77.2632 -1458 42 52 78
99.47 77.3762 -1460 39 53 84
102.593 77.5424 -1463 42 56 87
105.729 77.7089 -1466 45 60 92
108.804 77.8226 -1468 49 64 95
112.116 78.0956 -1473 52 67 99
115.292 78.2627 -1476 50 68 104
118.642 78.5362 -1481 46 67 104
122.341 79.0221 -1490 48 70 109
126.161 79.5613 -1500 49 75 115
130.625 80.4722 -1517 55 80 122
136.127 81.9672 -1545 56 80 123
140.751 82.879 -1562 49 71 112
145.353 83.7383 -1578 50 72 113
149.172 84.1204 -1585 52 74 115
153.501 84.768 -1597 51 71 115
157.389 85.1508 -1604 54 74 116
160.906 85.3215 -1607 54 73 108
163.823 85.1738 -1604 61 77 110
-69.6585 78.5817 -1542 51 65 94
-66.5047 78.4752 -1540 50 64 94
-63.1123 78.063 -1532 50 65 96
-59.8698 77.8041 -1527 51 66 97
-56.6105 77.4944 -1521 50 65 96
-53.4459 77.2869 -1517 39 58 89
-50.2312 76.9777 -1511 37 55 86
-47.1033 76.7705 -1507 33 50 82
-43.9915 76.5636 -1503 41 57 88
-40.8415 76.2551 -1497 46 61 92
-37.7663 76.0487 -1493 43 58 90
-34.7539 75.9443 -1491 44 59 90
-31.707 75.7383 -1487 42 57 88
-28.6957 75.5835 -1484 41 56 87
-25.7311 75.5307 -1483 41 56 87
-22.7707 75.478 -1482 40 55 86
-19.8145 75.4256 -1481 37 52 83
-16.8625 75.3736 -1480 35 50 81
-13.9145 75.3215 -1479 36 51 82
-10.9632 75.2188 -1477 37 52 83
-8.01997 75.1163 -1475 37 51 80
-5.0847 75.014 -1473 37 52 81
-2.15742 74.9119 -1471 40 54 83
0.761381 74.7591 -1468 38 52 81
3.66828 74.6065 -1465 35 49 78
6.55881 74.4031 -1461 35 49 78
9.43351 74.2 -1457 36 50 80
12.3093 74.0989 -1455 39 53 84
15.1877 74.0489 -1454 41 52 82
18.0747 74.05 -1454 42 53 82
20.9619 74.0514 -1454 43 54 82
23.882 74.1547 -1456 42 53 82
26.7183 74.0038 -1453 43 53 82
29.604 74.0057 -1453 46 53 82
32.4676 73.9569 -1452 41 50 79
35.3518 73.9592 -1452 38 49 77
38.2102 73.9108 -1451 31 45 70
41.178 74.0663 -1454 32 45 70
44.0974 74.1201 -1455 38 48 74
47.0535 74.2252 -1457 40 48 74
50.0178 74.3304 -1459 40 48 74
52.918 74.3339 -1459 38 48 71
55.7804 74.2867 -1458 36 45 69
58.6794 74.2906 -1458 34 43 67
61.5369 74.2438 -1457 36 44 64
64.4349 74.2481 -1457 34 42 62
67.4259 74.3545 -1459 33 42 60
70.3772 74.4103 -1460 32 41 59
73.3329 74.4661 -1461 33 41 60
76.2413 74.4712 -1461 31 39 59
79.1501 74.4766 -1461 31 39 59
82.0035 74.4311 -1460 35 43 62
84.9116 74.4369 -1460 35 43 62
87.8203 74.4428 -1460 37 44 63
90.7921 74.4999 -1461 38 46 66
93.6401 74.4553 -1460 40 49 72
96.6174 74.5128 -1461 41 50 76
99.6675 74.6215 -1463 38 52 83
102.586 74.6285 -1463 42 56 87
105.65 74.7377 -1465 44 59 91
108.87 74.9491 -1469 47 62 93
112.108 75.1608 -1473 49 65 97
115.362 75.3727 -1477 52 69 104
118.714 75.6359 -1482 53 73 110
122.332 76.0525 -1490 52 74 111
126.489 76.7758 -1504 51 75 116
130.788 77.5503 -1519 56 80 122
136.47 79.0912 -1549 55 79 122
141.102 79.9689 -1566 49 71 112
145.527 80.6937 -1580 49 71 112
149.538 81.1635 -1589 50 72 112
153.683 81.6847 -1599 52 72 115
157.574 82.0531 -1606 53 72 114
161.195 82.2685 -1610 53 71 107
-69.6538 75.5141 -1542 53 67 96
-66.5434 75.4606 -1541 51 65 95
-63.1493 75.0646 -1533 50 65 96
-59.8266 74.7179 -1526 50 65 96
-56.6439 74.5182 -1522 51 66 97
-53.4423 74.2698 -1517 39 58 89
-50.261 74.0215 -1512 33 51 83
-47.1313 73.8225 -1508 33 50 82
-44.0178 73.6237 -1504 44 59 90
-40.8661 73.3273 -1498 48 63 94
-37.8144 73.1778 -1495 45 60 92
-34.7516 72.9797 -1491 42 57 89
-31.7476 72.8796 -1489 40 55 86
-28.6937 72.6327 -1484 39 54 85
-25.7294 72.5821 -1483 41 56 87
-22.7692 72.5316 -1482 40 55 86
-19.8132 72.4812 -1481 35 50 81
-16.85 72.3822 -1479 33 48 79
-13.9042 72.3322 -1478 36 51 82
-10.9699 72.3314 -1478 37 52 83
-8.02487 72.2329 -1476 36 50 79
-5.08437 72.0857 -1473 37 51 80
-2.15728 71.9875 -1471 38 52 81
0.761845 71.8896 -1469 40 54 83
3.66803 71.694 -1465 36 50 79
6.55388 71.4497 -1460 34 48 77
9.43935 71.3523 -1458 33 47 78
12.3085 71.2062 -1455 35 49 80
15.1972 71.2072 -1455 38 49 79
18.0859 71.2082 -1455 39 50 79
20.9749 71.2095 -1455 42 53 81
23.8804 71.2599 -1456 45 56 85
26.7165 71.1149 -1453 45 55 85
29.602 71.1166 -1453 47 52 81
32.4431 71.0208 -1451 42 51 79
35.3251 71.0231 -1451 40 51 79
38.2075 71.0255 -1451 35 49 74
41.2319 71.2729 -1456 36 49 74
44.1248 71.2757 -1456 39 51 76
47.1472 71.4745 -1460 38 47 73
50.1173 71.5755 -1462 36 44 70
53.0958 71.6769 -1464 32 43 65
55.9297 71.5826 -1462 31 41 64
58.7962 71.5374 -1461 32 41 65
61.6593 71.4924 -1460 36 44 64
64.519 71.4476 -1459 35 43 63
67.4676 71.5009 -1460 33 43 61
70.3724 71.5054 -1460 33 42 61
73.3782 71.6081 -1462 34 42 62
76.2362 71.5641 -1461 31 39 59
79.199 71.6182 -1462 30 38 57
82.1663 71.6725 -1463 32 40 59
85.0804 71.678 -1463 36 43 62
87.8746 71.5858 -1461 38 45 64
90.848 71.6406 -1462 40 46 66
93.698 71.5977 -1461 39 47 70
96.6109 71.6039 -1461 38 47 71
99.6606 71.7085 -1463 37 51 80
102.649 71.7642 -1464 42 57 88
105.715 71.8691 -1466 43 59 91
108.863 72.0232 -1469 46 61 92
112.177 72.2757 -1474 46 61 93
115.354 72.4303 -1477 48 65 99
118.866 72.7814 -1484 52 72 109
122.324 73.0836 -1490 51 72 109
126.312 73.6804 -1502 50 74 115
131.124 74.7191 -1523 53 76 118
135.756 75.6112 -1541 53 76 119
140.822 76.6998 -1563 45 67 108
145.148 77.3473 -1576 44 66 107
149.528 77.9951 -1589 47 69 108
153.48 78.3978 -1597 50 71 112
157.269 78.7026 -1603 50 70 110
160.884 78.9096 -1607 54 71 108
-69.559 72.3531 -1540 54 68 97
-66.4528 72.3018 -1539 53 67 97
-63.2275 72.1098 -1535 51 66 97
-59.9403 71.824 -1529 48 63 94
-56.6775 71.5385 -1523 46 61 92
-53.4741 71.3002 -1518 36 55 86
-50.2578 71.0151 -1512 32 51 82
-47.097 70.7773 -1507 34 51 83
-43.9565 70.5396 -1502 43 59 90
-40.8362 70.3021 -1497 48 63 94
-37.7614 70.1117 -1493 47 62 93
-34.7493 70.0155 -1491 43 58 89
-31.7455 69.9195 -1489 40 55 86
-28.7305 69.7767 -1486 39 54 85
-25.7624 69.7281 -1485 41 56 87
-22.7985 69.6796 -1484 41 56 87
-19.8253 69.5843 -1482 38 53 84
-16.8717 69.5362 -1481 36 51 82
-13.9127 69.4414 -1479 36 51 82
-10.9692 69.3936 -1478 36 50 81
-8.02436 69.2991 -1476 36 50 78
-5.0875 69.2049 -1474 37 51 79
-2.16008 69.1577 -1473 39 53 82
0.763348 69.1107 -1472 37 51 80
3.6753 68.923 -1468 35 49 78
6.57141 68.7355 -1464 34 48 78
9.45816 68.5952 -1461 32 46 77
12.3246 68.4081 -1457 34 48 79
15.2066 68.362 -1456 34 45 75
18.0972 68.3631 -1456 36 48 77
20.9879 68.3643 -1456 42 55 83
23.8788 68.3657 -1456 45 56 85
26.7332 68.2734 -1454 40 51 80
29.6001 68.2282 -1453 43 50 80
32.441 68.1362 -1451 41 50 78
35.3959 68.2793 -1454 39 49 77
38.284 68.2816 -1454 37 50 75
41.2858 68.472 -1458 38 51 76
44.2734 68.6156 -1461 38 50 74
47.2733 68.7594 -1464 37 47 71
50.2512 68.8564 -1466 36 45 70
53.1649 68.8596 -1466 31 43 65
56.0408 68.8161 -1465 29 40 63
58.9534 68.8198 -1465 32 41 65
61.8243 68.7766 -1464 35 42 63
64.6474 68.6866 -1462 33 40 61
67.6019 68.7378 -1463 32 42 61
70.4643 68.6952 -1462 36 44 63
73.4237 68.7467 -1463 37 44 64
76.3355 68.7514 -1463 37 44 64
79.3564 68.8504 -1465 34 42 61
82.2172 68.8085 -1464 33 41 60
85.1911 68.8607 -1465 37 43 62
88.0494 68.8193 -1464 39 45 64
91.0286 68.8719 -1465 38 45 65
93.9485 68.8778 -1465 37 45 68
96.8029 68.8368 -1464 38 47 71
99.6543 68.796 -1463 40 54 82
102.643 68.8494 -1464 42 57 86
105.78 68.9972 -1467 45 62 93
108.93 69.145 -1470 49 64 95
112.245 69.3872 -1475 47 61 93
115.503 69.5826 -1479 49 64 98
118.858 69.8253 -1484 51 70 106
122.316 70.1153 -1490 52 72 109
126.556 70.8291 -1505 49 73 114
131.029 71.6373 -1522 52 75 117
136.012 72.6813 -1544 56 78 121
140.993 73.6788 -1565 47 69 110
145.231 74.2528 -1577 43 65 105
149.424 74.7801 -1588 46 68 107
153.662 75.3078 -1599 51 73 112
157.553 75.6474 -1606 51 72 111
161.174 75.8459 -1610 57 74 112
-69.5547 69.2906 -1540 52 66 97
-66.4919 69.2865 -1540 52 67 97
-63.1825 69.0126 -1534 49 64 95
-59.9759 68.829 -1530 45 60 91
-56.6368 68.4656 -1522 42 57 88
-53.506 68.3273 -1519 35 54 85
-50.2879 68.0543 -1513 33 51 82
-47.1254 67.8265 -1508 35 52 84
-44.0123 67.6437 -1504 43 59 91
-40.8882 67.4163 -1499 46 61 93
-37.8096 67.234 -1495 45 60 91
-34.7705 67.0969 -1492 43 58 89
-31.7648 67.0049 -1490 41 56 87
-28.7481 66.8683 -1487 41 56 87
-25.7955 66.8667 -1487 43 58 89
-22.8124 66.7753 -1485 44 59 90
-19.8241 66.6391 -1482 40 55 86
-16.882 66.638 -1482 36 51 82
-13.9213 66.5471 -1480 36 51 82
-10.976 66.5014 -1479 35 50 80
-8.02931 66.4109 -1477 35 49 76
-5.09409 66.3656 -1476 35 50 78
-2.16288 66.3204 -1475 36 51 80
0.763816 66.2304 -1473 36 51 80
3.67758 66.0507 -1469 36 51 81
6.571 65.8262 -1464 37 51 82
9.45757 65.6918 -1461 38 52 83
12.3239 65.5126 -1457 40 54 85
15.2057 65.4685 -1456 41 52 82
18.1085 65.5144 -1457 39 51 81
21.0011 65.5156 -1457 40 54 83
23.8774 65.472 -1456 42 53 81
26.7499 65.4286 -1455 41 51 80
29.5983 65.3403 -1453 42 51 81
32.4837 65.3422 -1453 41 50 79
35.418 65.4342 -1455 41 50 78
38.3343 65.4814 -1456 39 51 76
41.3398 65.6637 -1460 37 49 73
44.3311 65.8012 -1463 33 45 68
47.335 65.939 -1466 31 43 66
50.2824 65.9869 -1467 32 44 67
53.2705 66.08 -1469 30 42 65
56.1521 66.0383 -1468 30 40 63
59.0303 65.9968 -1467 31 39 63
61.9049 65.9555 -1466 34 40 62
64.7761 65.9143 -1465 34 40 62
67.6901 65.9183 -1465 32 42 63
70.5564 65.8775 -1464 35 42 63
73.5196 65.9268 -1465 38 44 64
76.383 65.8864 -1464 40 46 66
79.2972 65.8911 -1464 36 43 63
82.2122 65.896 -1464 35 43 62
85.1858 65.9461 -1465 36 42 61
88.044 65.9063 -1464 38 44 63
91.023 65.9568 -1465 35 43 63
93.9428 65.9624 -1465 35 44 66
96.8631 65.9682 -1465 37 46 70
99.7844 65.9741 -1465 40 54 81
102.706 65.9802 -1465 44 59 87
105.773 66.0767 -1467 48 63 94
108.849 66.1732 -1469 48 62 93
112.162 66.4052 -1474 45 59 91
115.34 66.5473 -1477 49 62 95
118.771 66.8248 -1483 51 68 103
122.145 67.0574 -1488 54 72 108
126.044 67.5607 -1499 50 74 115
130.935 68.5601 -1521 52 75 117
135.563 69.3796 -1539 52 74 117
140.444 70.2896 -1559 45 67 108
145.406 71.2001 -1579 46 68 108
149.415 71.6149 -1588 48 70 110
153.749 72.1653 -1600 50 73 114
157.642 72.4906 -1607 51 73 113
161.264 72.6807 -1611 60 77 113
-69.7311 66.4007 -1544 51 65 96
-66.5743 66.3107 -1542 49 64 94
-63.3023 66.092 -1537 47 62 92
-59.9723 65.7875 -1530 45 60 90
-56.7079 65.5261 -1524 42 57 88
-53.5381 65.3509 -1520 36 54 86
-50.285 65.0469 -1513 34 52 84
-47.1226 64.8292 -1508 40 57 89
-43.9512 64.5686 -1502 46 62 94
-40.804 64.3083 -1496 43 58 90
-37.7315 64.1341 -1492 42 57 88
-34.7451 64.0889 -1491 40 55 86
-31.763 64.0441 -1490 38 53 84
-28.7657 63.9564 -1488 37 52 83
-25.794 63.9119 -1487 42 57 88
-22.8418 63.9105 -1487 43 58 89
-19.8363 63.7373 -1483 38 53 84
-16.881 63.6933 -1482 34 49 80
-13.9299 63.6493 -1481 31 46 77
-10.9828 63.6056 -1480 32 46 77
-8.03427 63.5192 -1478 36 50 78
-5.09724 63.4759 -1477 35 49 78
-2.16423 63.4326 -1476 34 49 78
0.764805 63.3896 -1475 34 49 78
3.68236 63.2178 -1471 37 51 81
6.57959 63.0033 -1466 38 53 82
9.46349 62.8319 -1462 38 52 83
12.3231 62.6176 -1457 41 55 86
15.1943 62.5324 -1455 41 52 82
18.0826 62.5334 -1455 40 53 82
20.9566 62.4916 -1454 40 54 83
23.8268 62.4499 -1453 39 50 79
26.7115 62.4514 -1453 38 49 77
29.5762 62.41 -1452 42 51 81
32.5041 62.4978 -1454 41 50 79
35.4403 62.5857 -1456 39 49 77
38.3847 62.6738 -1458 37 49 74
41.4223 62.891 -1463 33 45 70
44.4194 63.0224 -1466 30 42 65
47.3322 63.0251 -1466 29 41 64
50.3137 63.1139 -1468 30 42 65
53.3036 63.203 -1470 31 43 66
56.2253 63.2061 -1470 32 42 65
59.1475 63.2094 -1470 32 40 64
62.1124 63.2559 -1471 35 41 63
64.9933 63.2166 -1470 35 42 64
67.8246 63.1344 -1468 33 43 63
70.6486 63.0524 -1466 35 42 62
73.6156 63.0996 -1467 38 44 64
76.3785 62.9749 -1464 39 45 65
79.2925 62.9794 -1464 37 44 63
82.2073 62.9841 -1464 36 44 63
85.239 63.075 -1466 37 45 64
88.0387 62.994 -1464 37 45 64
91.1419 63.1282 -1467 35 43 63
94.1294 63.1767 -1468 35 43 66
96.9896 63.1391 -1467 37 46 70
99.8464 63.1018 -1466 40 54 81
102.77 63.1076 -1466 42 57 86
105.839 63.1998 -1468 44 59 90
108.991 63.3352 -1471 44 58 89
112.079 63.4277 -1473 43 56 88
115.411 63.6496 -1478 44 58 89
118.684 63.8287 -1482 48 65 100
122.055 64.0511 -1487 54 72 108
125.952 64.5321 -1498 51 74 115
130.152 65.1427 -1512 51 73 115
136.083 66.5723 -1545 53 74 118
140.526 67.2267 -1560 45 67 108
145.397 68.0538 -1579 46 68 109
149.594 68.5365 -1590 48 70 111
153.548 68.8902 -1598 47 71 115
157.338 69.1579 -1604 49 72 114
-73.034 63.5403 -1549 74 76 96
-69.7272 63.3313 -1544 48 63 94
-66.7 63.3686 -1545 47 62 92
-63.3399 63.0779 -1538 46 61 90
-60.0082 62.7875 -1531 45 60 90
-56.7418 62.5381 -1525 43 58 89
-53.5703 62.3711 -1521 38 55 87
-50.3154 62.0812 -1514 36 53 85
-47.1512 61.8735 -1509 41 58 90
-43.9487 61.584 -1502 47 63 95
-40.8017 61.3357 -1496 42 57 89
-37.7293 61.1695 -1492 40 55 86
-34.7664 61.1675 -1492 39 54 85
-31.7825 61.1247 -1491 38 53 84
-28.7641 61 -1488 38 53 84
-25.7926 60.9576 -1487 40 55 86
-22.8405 60.9562 -1487 38 53 84
-19.8352 60.7911 -1483 36 51 82
-16.8801 60.7491 -1482 34 49 80
-13.9385 60.7481 -1482 34 49 80
-10.997 60.7475 -1482 36 51 81
-8.03926 60.624 -1479 38 52 81
-5.10386 60.6237 -1479 35 50 79
-2.16704 60.5825 -1478 34 49 78
0.764758 60.4594 -1475 36 51 80
3.67715 60.2136 -1469 37 52 81
6.57472 60.05 -1465 38 53 82
9.45001 59.8455 -1460 38 52 83
12.314 59.6821 -1456 41 55 86
15.183 59.601 -1454 41 52 82
18.0691 59.6018 -1454 41 53 83
20.9554 59.6029 -1454 42 56 85
23.809 59.5222 -1452 40 51 79
26.6917 59.5235 -1452 38 49 77
29.5949 59.5661 -1453 42 51 81
32.5023 59.6088 -1454 38 48 77
35.4626 59.7337 -1457 35 46 74
38.4352 59.8587 -1460 35 47 72
41.4482 60.0249 -1464 33 45 69
44.4169 60.1093 -1466 30 42 65
47.3616 60.1528 -1467 29 41 64
50.3452 60.2375 -1469 29 41 65
53.3006 60.2814 -1470 30 42 65
56.2604 60.3255 -1471 33 43 67
59.1844 60.3286 -1471 34 42 66
62.1089 60.332 -1471 35 42 64
65.0781 60.3765 -1472 35 42 63
67.9132 60.2981 -1470 31 41 60
70.7408 60.2199 -1468 34 41 60
73.7118 60.2649 -1469 37 43 62
76.4785 60.146 -1466 39 45 65
79.2881 60.0682 -1464 38 45 64
82.2027 60.0727 -1464 37 45 64
85.176 60.1183 -1465 38 46 65
88.0337 60.0821 -1464 37 45 64
91.0747 60.1691 -1466 37 45 65
94.06 60.2153 -1467 37 46 68
96.9842 60.2206 -1467 39 48 72
99.8408 60.1849 -1466 40 54 81
102.835 60.2316 -1467 41 56 84
105.833 60.2784 -1468 41 56 87
108.911 60.3665 -1470 42 56 87
111.997 60.4548 -1472 41 55 86
115.327 60.6664 -1477 43 57 88
118.437 60.755 -1479 47 63 98
121.966 61.0492 -1486 52 69 105
125.777 61.467 -1496 50 72 112
130.231 62.1726 -1513 52 73 116
135.371 63.1662 -1537 57 77 121
140.788 64.2424 -1563 47 69 110
145.666 65.0314 -1582 48 70 111
149.68 65.4095 -1591 48 70 111
153.731 65.7879 -1600 49 71 114
157.133 65.8788 -1602 54 76 117
-73.0771 60.5004 -1550 73 75 95
-69.8138 60.3406 -1546 49 64 95
-66.6101 60.2199 -1543 48 63 94
-63.213 59.9042 -1535 47 62 91
-60.0049 59.7449 -1531 45 60 90
-56.7388 59.5077 -1525 43 58 89
-53.5674 59.3488 -1521 38 55 87
-50.3459 59.1119 -1515 36 53 85
-47.2112 58.9533 -1511 41 58 90
-44.0049 58.6778 -1504 47 62 94
-40.8813 58.4806 -1499 42 57 89
-37.778 58.2834 -1494 40 55 86
-34.8112 58.2815 -1494 39 54 85
-31.8021 58.2018 -1492 40 55 86
-28.8206 58.1611 -1491 38 53 84
-25.8432 58.1207 -1490 38 53 84
-22.87 58.0805 -1489 38 53 84
-19.8609 57.9233 -1485 37 52 83
-16.9134 57.9223 -1485 36 51 82
-13.966 57.9215 -1485 36 51 82
-11.0112 57.8819 -1484 38 53 83
-8.0497 57.7644 -1481 38 53 82
-5.10704 57.725 -1480 36 51 80
-2.16839 57.6858 -1479 35 50 79
0.76627 57.6468 -1478 38 53 82
3.68446 57.4129 -1472 39 54 83
6.58334 57.2181 -1467 38 53 82
9.46891 57.0625 -1463 39 53 84
12.3302 56.8681 -1458 40 54 85
15.1822 56.7128 -1454 38 52 81
18.0557 56.6747 -1453 39 53 82
20.911 56.5977 -1451 42 56 85
23.7749 56.5598 -1450 41 52 80
26.6718 56.6002 -1451 38 49 77
29.6137 56.7188 -1454 38 47 77
32.5676 56.8374 -1457 36 46 75
35.5581 56.9952 -1461 33 44 72
38.5911 57.1922 -1466 34 46 71
41.5026 57.1943 -1466 33 45 70
44.5054 57.3136 -1469 31 43 66
47.4237 57.316 -1469 31 43 67
50.3423 57.3186 -1469 31 43 67
53.2977 57.3603 -1470 31 43 66
56.3339 57.4802 -1473 35 45 68
59.2617 57.4833 -1473 37 45 69
62.19 57.4865 -1473 37 43 65
65.1188 57.4899 -1473 34 41 62
67.9557 57.4153 -1471 31 41 60
70.7852 57.3408 -1469 35 42 61
73.7079 57.3446 -1469 38 44 63
76.4744 57.2315 -1466 38 44 64
79.2838 57.1575 -1464 36 43 63
82.142 57.1227 -1463 35 43 62
85.1715 57.2052 -1465 39 47 66
88.029 57.1707 -1464 37 45 64
91.0696 57.2535 -1466 37 45 65
94.055 57.2975 -1467 38 47 70
97.111 57.3806 -1469 41 50 74
99.9036 57.3076 -1467 40 54 81
102.969 57.3911 -1469 42 57 85
105.9 57.3966 -1469 43 58 89
108.979 57.4804 -1471 43 57 87
111.991 57.5253 -1472 44 58 87
115.242 57.6875 -1476 47 61 92
118.43 57.811 -1479 48 65 98
121.877 58.0519 -1485 52 69 103
125.686 58.4494 -1495 49 70 110
129.794 58.9644 -1508 54 74 117
135.187 60.0271 -1535 59 79 123
141.681 61.5205 -1573 49 70 112
146.026 62.0365 -1586 49 70 112
150.33 62.5138 -1598 47 69 110
154.107 62.7566 -1604 46 68 110
157.713 62.9213 -1608 58 79 119
-69.9006 57.3423 -1548 51 65 96
-66.5204 57.0797 -1541 49 64 94
-63.1273 56.78 -1533 46 61 90
-59.9234 56.6288 -1529 43 58 88
-56.6615 56.4037 -1523 41 56 87
-53.5647 56.3269 -1521 39 56 87
-50.3434 56.1022 -1515 41 58 90
-47.1774 55.9146 -1510 47 64 95
-44.0319 55.7272 -1505 47 62 94
-40.8519 55.4659 -1498 42 57 89
-37.8012 55.3529 -1495 40 55 86
-34.8094 55.314 -1494 38 53 84
-31.8218 55.2753 -1493 38 53 84
-28.8191 55.1998 -1491 39 54 85
-25.8246 55.1244 -1489 39 54 85
-22.8689 55.1232 -1489 38 53 84
-19.8733 55.011 -1486 36 51 82
-16.9239 55.0101 -1486 35 50 81
-13.9652 54.9724 -1485 36 51 82
-11.0181 54.9717 -1485 37 52 83
-8.05473 54.8602 -1482 39 54 83
-5.11024 54.8229 -1481 38 53 82
-2.16829 54.7487 -1479 38 53 82
0.765191 54.6376 -1476 38 53 83
3.68176 54.4526 -1471 40 55 85
6.57852 54.2678 -1466 41 56 86
9.45548 54.0831 -1461 41 55 86
12.3127 53.8985 -1456 39 53 84
15.1814 53.8252 -1454 37 51 81
18.0548 53.789 -1453 39 53 83
20.9244 53.7529 -1452 42 56 85
23.8065 53.7541 -1452 41 53 82
26.7256 53.8294 -1454 38 49 78
29.6529 53.9048 -1456 36 46 76
32.633 54.0544 -1460 36 47 75
35.605 54.1673 -1463 36 47 75
38.5891 54.2802 -1466 33 45 70
41.5571 54.3563 -1468 31 43 68
44.5032 54.3954 -1469 32 44 68
47.4535 54.4347 -1470 31 43 68
50.4083 54.4742 -1471 30 42 67
53.4036 54.5508 -1473 31 43 66
56.331 54.5536 -1473 34 44 68
59.2587 54.5564 -1473 35 43 67
62.1868 54.5594 -1473 34 40 62
65.1155 54.5627 -1473 34 40 62
67.9523 54.4919 -1471 33 43 63
70.8298 54.4583 -1470 37 44 63
73.7039 54.4248 -1469 38 44 63
76.5227 54.3545 -1467 36 42 61
79.2798 54.2473 -1464 32 39 57
82.194 54.2513 -1464 33 40 58
85.167 54.2925 -1465 39 46 64
88.0245 54.2598 -1464 37 44 63
91.0029 54.3013 -1465 38 46 65
94.1143 54.4171 -1468 38 47 69
97.04 54.4219 -1468 40 49 73
99.9664 54.4268 -1468 37 51 78
102.964 54.469 -1469 41 55 84
105.966 54.5112 -1470 44 58 88
108.899 54.5166 -1470 45 59 88
111.985 54.5963 -1472 46 60 90
115.158 54.7133 -1475 49 63 94
118.344 54.8303 -1478 49 65 99
121.871 55.0961 -1485 54 71 105
125.595 55.4362 -1494 51 71 110
130.045 56.0734 -1511 54 74 115
136.413 57.4904 -1549 58 78 122
141.584 58.3509 -1572 50 70 112
146.295 58.9892 -1589 51 72 113
150.51 59.405 -1600 49 71 110
153.907 59.487 -1602 47 67 107
157.215 59.5319 -1603 60 79 117
-73.3056 54.5153 -1555 69 72 92
-69.9424 54.3015 -1549 48 62 92
-66.5604 54.0529 -1542 47 61 90
-63.1243 53.7344 -1533 43 58 87
-59.8813 53.5562 -1528 41 56 87
-56.6587 53.3783 -1523 40 55 86
-53.4565 53.2004 -1518 40 57 88
-50.2745 53.0228 -1513 46 63 94
-47.144 52.8803 -1509 49 66 97
-44.0005 52.703 -1504 46 62 93
-40.8772 52.5257 -1499 43 58 90
-37.7994 52.3837 -1495 40 55 86
-34.831 52.382 -1495 38 53 84
-31.8203 52.3103 -1493 38 53 84
-28.8177 52.2388 -1491 41 56 87
-25.8407 52.2025 -1490 41 56 87
-22.8831 52.2014 -1490 41 56 87
-19.8857 52.0953 -1487 38 53 84
-16.9459 52.1295 -1488 37 52 83
-13.9834 52.0937 -1487 38 53 84
-11.0324 52.0931 -1487 38 53 84
-8.06521 51.9876 -1484 38 53 82
-5.11689 51.9522 -1483 38 53 82
-2.16818 51.8119 -1479 37 52 81
0.76567 51.7418 -1477 38 53 84
3.68659 51.6018 -1473 42 57 88
6.58717 51.4269 -1468 44 59 90
9.46149 51.2171 -1462 43 57 88
12.329 51.0775 -1458 41 55 86
15.1912 50.973 -1455 39 53 84
18.0664 50.9388 -1454 42 56 86
20.9234 50.8696 -1452 44 58 87
23.8382 50.9408 -1454 42 54 84
26.7427 50.977 -1455 40 51 81
29.6922 51.0834 -1458 37 48 78
32.6538 51.19 -1461 38 49 78
35.6519 51.3317 -1465 37 48 77
38.6135 51.4036 -1467 33 45 70
41.5834 51.4756 -1469 30 42 67
44.5313 51.5127 -1470 31 43 68
47.4512 51.5149 -1470 32 44 69
50.4058 51.5522 -1471 30 42 67
53.3648 51.5897 -1472 31 43 66
56.3281 51.6273 -1473 34 44 68
59.2961 51.6651 -1474 33 41 65
62.2261 51.6679 -1474 33 39 61
65.1123 51.6359 -1473 33 40 62
67.9952 51.604 -1472 31 41 62
70.8264 51.5372 -1470 35 42 62
73.7004 51.5055 -1469 36 42 62
76.5188 51.4389 -1467 35 41 60
79.3301 51.3724 -1465 33 39 57
82.2461 51.3762 -1465 37 43 60
85.221 51.4153 -1466 37 43 62
88.1405 51.4194 -1466 37 43 62
91.1227 51.4587 -1467 38 46 65
94.1737 51.5332 -1469 38 46 69
97.1675 51.5728 -1470 38 47 71
100.03 51.5424 -1469 35 50 77
103.099 51.6174 -1471 39 54 82
106.033 51.6223 -1471 41 55 84
109.042 51.6625 -1472 43 57 86
112.056 51.7028 -1473 47 61 90
115.231 51.8135 -1476 49 63 94
118.499 51.9595 -1480 47 63 96
121.783 52.1056 -1484 51 68 102
125.589 52.4626 -1494 53 74 111
130.125 53.1008 -1512 53 74 114
135.79 54.1607 -1542 55 75 119
141.307 55.1156 -1569 51 71 113
146.38 55.8602 -1590 52 73 113
150.409 56.1834 -1599 51 73 111
153.611 56.1906 -1599 52 71 109
156.716 56.1628 -1598 60 77 113
-73.3023 51.4257 -1555 65 69 89
-70.0295 51.2902 -1551 49 62 92
-66.5573 50.9896 -1542 46 59 88
-63.1214 50.6891 -1533 42 56 85
-59.9178 50.5542 -1529 41 56 86
-56.7678 50.4524 -1526 42 57 88
-53.5597 50.2846 -1521 39 56 87
-50.3719 50.117 -1516 43 60 91
-47.1731 49.9165 -1510 46 63 94
-44.0277 49.7491 -1505 45 60 92
-40.8753 49.5489 -1499 41 56 88
-37.823 49.448 -1496 37 52 83
-34.8294 49.4134 -1495 39 54 85
-31.8614 49.4119 -1495 40 55 86
-28.855 49.3445 -1493 38 53 84
-25.8742 49.3102 -1492 36 51 82
-22.8975 49.2761 -1491 38 53 84
-19.8982 49.176 -1488 36 51 82
-16.9451 49.1752 -1488 33 48 79
-13.9827 49.1414 -1487 34 49 80
-11.0319 49.1409 -1487 37 52 82
-8.05941 49.0083 -1483 36 51 80
-5.11321 48.9749 -1482 38 53 82
-2.16809 48.8756 -1479 40 55 84
0.765632 48.8095 -1477 40 55 86
3.68391 48.6444 -1472 41 56 87
6.58238 48.4794 -1467 44 59 90
9.45459 48.2815 -1461 42 56 87
12.3284 48.1828 -1458 39 54 85
15.2009 48.1173 -1456 37 51 82
18.078 48.085 -1455 39 53 83
20.9656 48.0859 -1455 42 56 85
23.8863 48.153 -1457 42 56 85
26.7966 48.1871 -1458 43 56 86
29.7112 48.2215 -1459 42 53 83
32.6746 48.322 -1462 43 54 84
35.6746 48.4557 -1466 41 52 82
38.6381 48.5235 -1468 37 48 76
41.6098 48.5914 -1470 34 45 72
44.5899 48.6594 -1472 30 42 67
47.5782 48.7275 -1474 32 44 69
50.5406 48.7629 -1475 31 43 68
53.5073 48.7982 -1476 31 43 66
56.4403 48.8007 -1476 35 45 68
59.2933 48.7371 -1474 35 43 66
62.181 48.7067 -1473 35 41 63
65.0652 48.6765 -1472 35 42 64
67.9459 48.6464 -1471 32 42 63
70.775 48.5833 -1469 33 41 60
73.697 48.5866 -1469 36 42 61
76.5153 48.5238 -1467 36 41 61
79.3806 48.4941 -1466 35 40 59
82.2985 48.4977 -1466 36 42 59
85.2171 48.5014 -1466 39 44 63
88.1965 48.5384 -1467 38 44 63
91.1185 48.5424 -1467 37 45 64
94.1694 48.6127 -1469 38 47 69
97.1631 48.6501 -1470 39 48 72
100.093 48.6545 -1470 37 51 78
103.024 48.6589 -1470 40 54 82
106.1 48.7299 -1472 40 54 83
109.037 48.7346 -1472 43 57 85
112.051 48.7727 -1473 44 58 86
115.226 48.8771 -1476 45 59 88
118.493 49.0148 -1480 45 60 93
121.696 49.1195 -1483 47 63 97
125.836 49.5887 -1497 49 70 106
130.033 50.0583 -1511 55 75 115
135.784 51.0913 -1542 59 79 122
140.67 51.7601 -1562 52 71 113
146.097 52.595 -1587 52 72 113
150.214 52.9331 -1597 52 73 110
153.604 53.0061 -1599 59 76 111
-73.582 48.5231 -1561 66 70 90
-70.207 48.3336 -1555 51 62 92
-66.7702 48.0821 -1547 48 60 89
-63.2834 47.7686 -1537 43 57 86
-59.9936 47.5796 -1531 42 57 87
-56.8025 47.4528 -1527 42 57 88
-53.5573 47.264 -1521 40 57 88
-50.3697 47.1065 -1516 45 62 93
-47.1085 46.8559 -1508 46 63 94
-43.9966 46.7297 -1504 42 58 89
-40.9009 46.6036 -1500 37 52 84
-37.8466 46.5088 -1497 35 50 81
-34.8512 46.4762 -1496 39 54 85
-31.8601 46.4438 -1495 41 56 87
-28.8538 46.3804 -1493 41 56 87
-25.8731 46.3482 -1492 38 53 84
-22.8811 46.285 -1490 39 54 85
-19.9107 46.2531 -1489 37 52 83
-16.9444 46.2212 -1488 33 48 79
-13.9727 46.1585 -1486 34 49 80
-11.024 46.1579 -1486 37 52 83
-8.06451 46.0954 -1484 38 53 82
-5.10955 46.002 -1481 40 55 84
-2.16946 45.9708 -1480 40 55 85
0.766115 45.9086 -1478 42 57 88
3.68876 45.7845 -1474 44 59 90
6.58658 45.5983 -1468 46 61 92
9.46065 45.4123 -1462 44 59 90
12.3364 45.3196 -1459 40 55 86
15.2107 45.258 -1457 37 51 82
18.0896 45.2276 -1456 37 51 81
20.9647 45.1974 -1455 39 53 82
23.9016 45.2915 -1458 42 56 85
26.8322 45.3547 -1460 46 60 89
29.7506 45.387 -1461 49 60 90
32.7403 45.5125 -1465 49 60 90
35.7217 45.6072 -1468 47 58 88
38.6891 45.6708 -1470 43 54 82
41.6364 45.7036 -1471 37 49 76
44.6182 45.7675 -1473 31 43 68
47.5761 45.8005 -1474 32 44 69
50.5727 45.8647 -1476 30 42 67
53.5413 45.8981 -1477 31 43 66
56.4761 45.9003 -1477 35 45 67
59.3308 45.8406 -1475 37 45 67
62.2205 45.8121 -1474 38 44 66
65.0624 45.7525 -1472 37 44 66
67.943 45.7242 -1471 33 42 63
70.8201 45.696 -1470 34 41 61
73.744 45.699 -1470 37 43 62
76.6164 45.6712 -1469 38 42 62
79.4855 45.6433 -1468 36 41 60
82.4634 45.6778 -1469 36 42 60
85.3297 45.6502 -1468 38 43 63
88.3129 45.6849 -1469 37 43 62
91.1768 45.6576 -1468 36 44 63
94.1013 45.6615 -1468 36 45 67
97.0928 45.6966 -1469 39 48 72
99.9528 45.6696 -1468 37 51 78
103.02 45.7361 -1470 39 52 80
106.024 45.7716 -1471 40 53 83
109.032 45.8072 -1472 42 56 83
112.122 45.8741 -1474 41 55 82
115.298 45.9722 -1477 43 57 86
118.328 46.0082 -1478 45 60 92
121.69 46.1689 -1483 45 60 94
125.662 46.5478 -1495 50 69 104
130.371 47.1758 -1515 55 74 113
135.25 47.8354 -1536 60 78 120
140.664 48.651 -1562 52 70 112
146.274 49.4979 -1589 51 70 110
150.49 49.8469 -1600 52 70 108
153.501 49.791 -1598 61 76 108
-73.909 45.6262 -1568 67 71 91
-70.6556 45.5361 -1565 52 63 93
-66.8538 45.0679 -1549 50 62 91
-63.4455 44.8326 -1541 46 60 89
-60.0696 44.5974 -1533 44 59 90
-56.7258 44.3624 -1525 44 59 90
-53.5552 44.2439 -1521 42 58 89
-50.3344 44.0673 -1515 45 61 92
-47.0754 43.8327 -1507 44 61 92
-43.9363 43.6855 -1502 40 56 88
-40.8174 43.5384 -1497 36 51 83
-37.7693 43.4496 -1494 34 49 80
-34.8032 43.4482 -1494 37 52 83
-31.8588 43.476 -1495 41 56 87
-28.8526 43.4167 -1493 43 58 89
-25.8547 43.3574 -1491 40 55 86
-22.8648 43.2983 -1489 41 56 87
-19.8965 43.2684 -1488 38 53 84
-16.9209 43.2095 -1486 36 51 82
-13.9628 43.1799 -1485 36 51 82
-11.0162 43.1794 -1485 37 52 83
-8.05875 43.1209 -1483 38 53 84
-5.11279 43.0915 -1482 38 53 84
-2.16791 43.0042 -1479 39 54 85
0.766082 42.9751 -1478 43 58 89
3.6811 42.7716 -1471 46 61 92
6.58183 42.6555 -1467 48 63 94
9.4538 42.4814 -1461 50 65 96
12.3274 42.3946 -1458 44 59 90
15.1996 42.3369 -1456 41 55 86
18.1013 42.3667 -1457 41 55 85
20.9783 42.3384 -1456 40 54 83
23.9171 42.4265 -1459 40 54 83
26.8679 42.5147 -1462 46 59 89
29.7901 42.5449 -1463 50 61 91
32.7613 42.6333 -1466 50 61 91
35.7933 42.7801 -1471 47 58 88
38.7401 42.8106 -1472 43 54 82
41.6913 42.8413 -1473 38 49 76
44.677 42.9012 -1475 34 46 71
47.6388 42.932 -1476 34 46 71
50.6049 42.9631 -1477 30 42 67
53.6116 43.0233 -1479 30 42 65
56.5502 43.0255 -1479 34 44 66
59.3687 42.9404 -1476 37 45 67
62.2602 42.9138 -1475 39 45 67
65.1039 42.858 -1473 37 44 65
67.9402 42.8025 -1471 35 43 63
70.8173 42.7761 -1470 36 43 62
73.7912 42.808 -1471 39 45 64
76.7176 42.8109 -1471 39 43 63
79.6987 42.8432 -1472 37 42 61
82.6285 42.8463 -1472 36 42 61
85.5006 42.8205 -1471 37 43 62
88.4296 42.8239 -1471 37 43 62
91.2352 42.7692 -1469 36 44 63
94.1616 42.7729 -1469 35 44 66
97.0887 42.7766 -1469 37 46 70
100.017 42.7804 -1469 35 49 75
103.086 42.8427 -1471 38 51 78
106.164 42.905 -1473 42 53 83
109.102 42.9092 -1473 44 57 85
112.117 42.9427 -1474 44 58 85
115.45 43.0928 -1479 48 62 91
118.563 43.1558 -1481 48 62 94
122.014 43.3353 -1487 46 61 93
125.657 43.5734 -1495 51 69 103
129.936 44.0155 -1510 55 73 111
134.98 44.6912 -1533 58 76 118
141.018 45.6588 -1566 52 70 112
145.9 46.2184 -1585 49 67 107
149.731 46.4284 -1592 48 66 103
152.535 46.3176 -1588 65 78 109
-74.2832 42.7289 -1576 66 70 90
-70.8336 42.5365 -1569 50 61 90
-67.2397 42.2358 -1558 50 62 92
-63.7313 41.9623 -1548 46 61 90
-60.3024 41.7161 -1539 45 60 91
-56.9469 41.497 -1531 44 59 90
-53.6939 41.3324 -1525 44 59 90
-50.3325 41.0595 -1515 46 62 93
-47.1048 40.868 -1508 42 59 90
-43.9346 40.7038 -1502 37 53 84
-40.8704 40.6209 -1499 34 49 81
-37.8184 40.5382 -1496 34 49 80
-34.8252 40.5098 -1495 37 52 83
-31.8576 40.5086 -1495 41 56 87
-28.8516 40.4533 -1493 44 59 90
-25.8537 40.3981 -1491 42 57 88
-22.864 40.343 -1489 41 56 87
-19.8958 40.3152 -1488 39 54 85
-16.9203 40.2603 -1486 36 51 82
-13.9717 40.2598 -1486 36 51 82
-11.0157 40.2322 -1485 36 51 82
-8.06388 40.2048 -1484 37 53 84
-5.1126 40.1504 -1482 35 51 82
-2.1693 40.096 -1480 37 52 83
0.765532 40.0147 -1477 42 57 88
3.68096 39.8523 -1471 45 60 91
6.58607 39.7712 -1468 45 60 91
9.45991 39.6089 -1462 48 63 94
12.3354 39.528 -1459 44 59 90
15.2199 39.5015 -1458 43 57 88
18.113 39.5021 -1458 43 57 87
20.9919 39.4757 -1457 40 54 83
23.9325 39.5578 -1460 39 53 82
26.9036 39.6671 -1464 44 58 87
29.8297 39.6952 -1465 48 59 89
32.8271 39.8047 -1469 48 59 89
35.8406 39.9144 -1473 48 59 89
38.8176 39.9699 -1475 43 54 82
41.718 39.9443 -1474 36 48 75
44.6753 39.973 -1475 35 49 74
47.6047 39.9747 -1475 32 44 69
50.5687 40.0035 -1476 29 41 66
53.5733 40.0596 -1478 31 43 66
56.5099 40.0616 -1478 34 44 66
59.3664 40.0096 -1476 34 42 64
62.2999 40.0118 -1476 38 44 66
65.1457 39.9599 -1474 39 45 67
67.9838 39.9081 -1472 37 45 65
70.8628 39.8836 -1471 38 44 63
73.8888 39.9404 -1473 38 44 63
76.819 39.9432 -1473 39 43 63
79.7498 39.946 -1473 38 43 63
82.7376 39.9761 -1474 36 42 61
85.6137 39.9521 -1473 37 43 62
88.4864 39.9281 -1472 36 42 61
91.2318 39.85 -1469 35 43 62
94.158 39.8534 -1469 35 44 66
97.0851 39.8569 -1469 37 46 70
100.013 39.8605 -1469 36 49 74
103.152 39.9456 -1472 38 50 77
106.087 39.9495 -1472 43 54 83
109.32 40.062 -1476 47 60 87
112.189 40.0388 -1475 47 60 88
115.446 40.1516 -1479 48 62 91
118.559 40.2102 -1481 47 62 93
121.845 40.3232 -1485 49 64 96
125.232 40.4635 -1490 49 66 99
129.587 40.9027 -1506 54 71 109
134.447 41.4779 -1527 60 76 119
139.662 42.1349 -1551 54 72 114
145.342 42.9008 -1579 50 68 108
149.725 43.2594 -1592 49 67 103
-74.4219 39.6746 -1579 70 74 94
-71.0568 39.5465 -1574 48 59 88
-67.41 39.2427 -1562 50 62 91
-63.8526 38.964 -1551 46 61 90
-60.3395 38.6856 -1540 45 60 90
-56.9077 38.4324 -1530 44 59 90
-53.516 38.1794 -1520 46 61 92
-50.2311 37.9767 -1512 45 61 92
-47.072 37.8495 -1507 40 57 88
-43.9624 37.7475 -1503 35 51 83
-40.8962 37.6707 -1500 36 51 83
-37.8676 37.6192 -1498 36 51 82
-34.8706 37.5928 -1497 37 52 83
-31.8778 37.5666 -1496 41 56 87
-28.8505 37.4903 -1493 43 58 89
-25.8875 37.4893 -1493 41 56 87
-22.8632 37.3881 -1489 38 53 84
-19.8817 37.3371 -1487 37 52 83
-16.8969 37.2612 -1484 37 52 83
-13.9524 37.2607 -1484 38 53 84
-11.0154 37.2854 -1485 36 52 83
-8.0636 37.2599 -1484 34 51 82
-5.11587 37.2346 -1483 34 50 81
-2.17069 37.1843 -1481 38 53 84
0.76654 37.134 -1479 42 57 88
3.68083 36.9333 -1471 42 58 89
6.58135 36.833 -1467 42 58 89
9.4531 36.6826 -1461 44 59 90
12.3265 36.6077 -1458 42 57 88
15.2194 36.6081 -1458 41 55 86
18.1124 36.6087 -1458 42 56 86
21.0056 36.6094 -1458 40 54 83
23.9317 36.6603 -1460 38 52 81
26.8843 36.7365 -1463 43 57 86
29.8287 36.7877 -1465 48 59 89
32.8483 36.9143 -1470 50 61 91
35.8637 37.0159 -1474 51 62 92
38.8689 37.0925 -1477 44 55 83
41.8298 37.119 -1478 34 46 73
44.7646 37.1205 -1478 32 46 71
47.7321 37.1471 -1479 31 43 68
50.6355 37.1237 -1478 30 42 67
53.644 37.1757 -1480 31 43 66
56.5844 37.1775 -1480 34 43 66
59.485 37.1544 -1479 34 42 64
62.34 37.1063 -1477 36 42 64
65.2318 37.0833 -1476 38 44 66
68.0738 37.0353 -1474 37 45 65
71.0048 37.0376 -1474 40 45 65
74.0367 37.0903 -1476 38 42 62
76.9728 37.0929 -1476 38 42 62
79.9095 37.0955 -1476 38 43 62
82.847 37.0983 -1476 37 43 62
85.7269 37.076 -1475 37 41 60
88.5434 37.0287 -1473 37 41 61
91.2905 36.9563 -1470 35 43 62
94.2188 36.9594 -1470 35 44 66
97.0817 36.9375 -1469 37 46 70
100.146 36.9912 -1471 37 49 74
103.218 37.0449 -1473 39 51 77
106.156 37.0485 -1473 42 53 81
109.39 37.1527 -1477 45 56 84
112.337 37.1565 -1477 44 55 84
115.442 37.2107 -1479 45 58 87
118.474 37.2398 -1480 46 61 92
121.841 37.3697 -1485 50 65 97
125.48 37.5753 -1493 49 66 98
129.41 37.8564 -1504 54 70 108
134.354 38.4146 -1526 60 76 119
139.477 38.9983 -1549 57 75 117
144.969 39.6578 -1575 53 71 110
149.908 40.1412 -1594 57 75 110
-74.7495 36.7012 -1586 71 76 95
-71.1448 36.4676 -1576 51 61 89
-67.5804 36.234 -1566 52 63 92
-63.8917 35.908 -1552 47 61 90
-60.455 35.6978 -1543 46 61 91
-56.8314 35.349 -1528 46 61 92
-53.5495 35.1853 -1521 47 62 93
-50.1298 34.9061 -1509 45 61 92
-47.008 34.8121 -1505 38 55 86
-43.9317 34.7413 -1502 36 51 82
-40.8949 34.6937 -1500 37 52 83
-37.8664 34.6463 -1498 35 50 81
-34.9161 34.6683 -1499 38 53 84
-31.8981 34.621 -1497 42 57 88
-28.8496 34.5275 -1493 41 56 87
-25.852 34.4804 -1491 38 53 84
-22.8471 34.4103 -1488 37 52 83
-19.8677 34.3634 -1486 36 51 82
-16.8964 34.3166 -1484 38 53 84
-13.9613 34.3392 -1485 39 54 85
-11.015 34.3388 -1485 36 51 82
-8.06877 34.3385 -1485 33 50 81
-5.11916 34.3152 -1484 36 52 83
-2.17355 34.292 -1483 39 54 85
0.767032 34.2226 -1480 39 54 86
3.68571 34.0608 -1473 40 56 87
6.5901 33.9684 -1469 40 56 88
9.47221 33.8531 -1464 42 58 89
12.3515 33.784 -1461 44 59 90
15.2398 33.7614 -1460 42 56 87
18.1367 33.7619 -1460 42 56 86
21.0337 33.7625 -1460 42 56 85
23.9473 33.7863 -1461 40 54 83
26.9202 33.8796 -1465 42 55 85
29.8685 33.9267 -1467 47 58 88
32.8472 33.9971 -1470 49 60 90
35.8868 34.1138 -1475 50 61 91
38.8676 34.1612 -1477 43 54 82
41.8001 34.1625 -1477 32 44 71
44.7329 34.1638 -1477 29 43 68
47.6983 34.1884 -1478 32 44 69
50.6338 34.1899 -1478 33 45 70
53.6422 34.2378 -1480 33 45 68
56.5825 34.2395 -1480 33 43 66
59.4831 34.2182 -1479 34 42 64
62.4223 34.2201 -1479 36 42 64
65.4063 34.2452 -1480 37 44 66
68.2564 34.2011 -1478 36 44 66
71.1952 34.2032 -1478 39 45 65
74.2349 34.2518 -1480 39 43 63
77.1267 34.231 -1479 38 43 61
79.961 34.1871 -1477 37 43 60
82.9564 34.2128 -1478 36 42 60
85.7822 34.1691 -1476 37 42 60
88.6006 34.1256 -1474 39 44 62
91.4738 34.1053 -1473 37 43 62
94.4081 34.1081 -1473 35 44 66
97.2107 34.0648 -1471 37 46 70
100.21 34.091 -1472 36 49 74
103.215 34.1174 -1473 38 51 77
106.296 34.167 -1475 41 52 80
109.239 34.1703 -1475 45 56 84
112.334 34.2202 -1477 41 53 81
115.36 34.2469 -1478 44 56 84
118.391 34.2737 -1479 47 62 93
121.59 34.347 -1482 50 65 97
125.14 34.5131 -1489 50 67 99
128.89 34.7256 -1498 54 70 108
133.821 35.2398 -1520 60 76 119
138.572 35.6845 -1539 59 77 119
144.412 36.3846 -1569 55 73 112
149.433 36.8531 -1589 62 81 114
-74.7001 33.5311 -1585 68 74 93
-71.0975 33.3174 -1575 53 62 90
-67.3627 33.0193 -1561 53 64 93
-63.8075 32.7848 -1550 48 62 91
-60.3749 32.5926 -1541 48 63 93
-56.7926 32.2949 -1527 48 63 94
-53.3719 32.0607 -1516 49 64 95
-50.1615 31.9323 -1510 44 60 91
-47.0378 31.8464 -1506 37 54 85
-43.9596 31.7816 -1503 36 52 83
-40.9755 31.7804 -1503 39 54 85
-37.9917 31.7793 -1503 37 52 83
-34.9616 31.736 -1501 38 53 84
-31.9397 31.6928 -1499 40 55 86
-28.9067 31.6285 -1496 41 56 87
-25.8859 31.5643 -1493 38 53 84
-22.8464 31.4579 -1488 37 52 83
-19.8671 31.415 -1486 36 51 82
-16.9072 31.3933 -1485 37 52 83
-13.9703 31.414 -1486 37 52 83
-11.0221 31.4137 -1486 35 51 82
-8.07397 31.4134 -1486 34 51 82
-5.12936 31.4344 -1487 36 52 83
-2.17496 31.3709 -1484 39 54 85
0.767007 31.2863 -1480 39 54 85
3.6906 31.1806 -1475 40 56 87
6.59439 31.0751 -1470 40 56 87
9.4784 30.9696 -1465 40 55 87
12.3595 30.9065 -1462 43 58 89
15.2602 30.9069 -1462 42 56 87
18.161 30.9074 -1462 39 53 84
21.0475 30.8868 -1461 41 55 85
23.963 30.9086 -1462 42 56 85
26.9194 30.9727 -1465 43 57 86
29.8676 31.0158 -1467 46 57 87
32.8463 31.0801 -1470 46 58 87
35.8615 31.1657 -1474 49 61 90
38.8402 31.209 -1476 43 54 81
41.7989 31.2313 -1477 34 45 72
44.7921 31.2749 -1479 32 44 69
47.7614 31.2973 -1480 34 45 70
50.7008 31.2987 -1480 34 45 70
53.7494 31.3636 -1483 32 43 66
56.6573 31.3441 -1482 32 42 64
59.5618 31.3246 -1481 34 42 64
62.5049 31.3263 -1481 36 43 65
65.4487 31.3281 -1481 36 43 65
68.3005 31.2877 -1479 35 44 66
71.2894 31.3109 -1480 38 44 64
74.2829 31.3342 -1481 39 45 64
77.1766 31.3151 -1480 39 45 63
80.0128 31.2751 -1478 37 43 61
82.9539 31.2774 -1478 35 41 59
85.8378 31.2586 -1477 37 43 60
88.7182 31.2399 -1476 38 44 62
91.5953 31.2213 -1475 36 43 62
94.5335 31.224 -1475 36 45 66
97.4722 31.2267 -1475 36 46 69
100.344 31.2084 -1474 37 50 74
103.422 31.2536 -1476 37 49 75
106.365 31.2567 -1476 41 52 79
109.309 31.2597 -1476 44 55 83
112.406 31.3052 -1478 42 53 81
115.356 31.3085 -1478 45 56 84
118.547 31.3754 -1481 48 61 92
121.751 31.4424 -1484 47 61 93
125.052 31.5306 -1488 49 65 97
128.628 31.6826 -1495 54 70 107
133.201 32.0678 -1513 59 75 117
138.388 32.5805 -1537 58 76 117
142.843 32.9024 -1552 56 73 112
-78.1445 30.5014 -1591 79 86 106
-74.6981 30.3844 -1585 59 67 88
-71.0956 30.1908 -1575 53 62 91
-67.4472 29.9589 -1563 57 68 97
-63.7646 29.6889 -1549 49 63 92
-60.4123 29.5532 -1542 49 64 94
-56.8282 29.2834 -1528 48 63 93
-53.5113 29.1286 -1520 45 60 92
-50.1934 28.9548 -1511 41 56 88
-47.1302 28.9152 -1509 37 53 84
-43.9584 28.7991 -1503 37 52 83
-40.9744 28.798 -1503 38 53 84
-37.9907 28.797 -1503 38 53 84
-35.0072 28.7961 -1503 38 53 84
-31.9389 28.7186 -1499 39 54 85
-28.8866 28.6412 -1495 41 56 87
-25.8852 28.6021 -1493 39 54 85
-22.8611 28.5249 -1489 37 52 83
-19.8799 28.486 -1487 36 51 82
-16.9409 28.5047 -1488 36 51 82
-13.9981 28.5235 -1489 36 51 82
-11.0292 28.4848 -1487 36 51 82
-8.07918 28.4846 -1487 37 53 84
-5.12922 28.4844 -1487 37 53 84
-2.17636 28.446 -1485 40 55 86
0.767503 28.3694 -1481 41 56 87
3.693 28.2737 -1476 42 57 88
6.5987 28.178 -1471 41 56 87
9.48461 28.0824 -1466 41 56 87
12.3677 28.0253 -1463 41 56 87
15.2702 28.0256 -1463 40 54 85
18.1605 28.0069 -1462 38 52 83
21.0613 28.0074 -1462 39 54 85
23.9787 28.0271 -1463 39 53 82
26.9003 28.0469 -1464 41 54 84
29.8668 28.1052 -1467 46 57 89
32.8454 28.1634 -1470 45 58 87
35.8361 28.2218 -1473 44 58 85
38.8391 28.2802 -1476 42 54 79
41.7977 28.3004 -1477 38 49 74
44.7606 28.3207 -1478 37 46 70
47.7601 28.3602 -1480 35 44 68
50.7337 28.3807 -1481 34 43 67
53.7117 28.4012 -1482 32 41 65
56.694 28.4218 -1483 32 41 63
59.6406 28.4233 -1483 35 43 64
62.5876 28.4248 -1483 35 43 65
65.6235 28.4648 -1485 34 42 64
68.4834 28.4282 -1483 33 43 64
71.432 28.43 -1483 36 44 64
74.3812 28.432 -1483 36 44 64
77.2788 28.4148 -1482 37 45 65
80.0648 28.3592 -1479 36 43 63
82.9517 28.3422 -1478 36 42 61
85.8934 28.3443 -1478 38 44 63
88.7759 28.3274 -1477 37 44 63
91.655 28.3105 -1476 36 44 63
94.6589 28.3321 -1477 36 46 67
97.5356 28.3155 -1476 35 47 68
100.477 28.318 -1476 39 48 72
103.349 28.3015 -1475 40 49 74
106.362 28.3234 -1476 44 53 79
109.306 28.3261 -1476 46 57 85
112.403 28.3674 -1478 47 58 86
115.275 28.3512 -1477 46 57 85
118.464 28.4118 -1480 47 60 89
121.502 28.4341 -1481 46 60 89
124.796 28.5141 -1485 49 62 95
128.28 28.6325 -1491 54 69 106
132.757 28.9625 -1508 58 75 115
137.213 29.2732 -1524 59 76 116
142.103 29.6611 -1544 60 77 114
-78.1917 27.3599 -1592 68 76 99
-74.7434 27.255 -1586 55 64 90
-71.0939 27.0643 -1575 57 66 96
-67.4455 26.8565 -1563 58 68 98
-63.6395 26.5629 -1546 50 64 93
-60.2542 26.4241 -1538 48 63 92
-56.7524 26.2165 -1526 46 61 90
-53.4044 26.0607 -1517 43 58 90
-50.1589 25.9392 -1510 40 55 87
-47.1291 25.9209 -1509 39 54 85
-44.0451 25.8683 -1506 38 53 84
-41.0279 25.8502 -1505 39 54 85
-38.0403 25.8493 -1505 41 56 88
-35.053 25.8484 -1505 41 56 88
-32.0233 25.8133 -1503 39 54 85
-28.9246 25.7096 -1497 41 56 87
-25.9192 25.6746 -1495 40 55 86
-22.9066 25.6225 -1492 40 55 86
-19.8928 25.5533 -1488 41 56 87
-16.9405 25.5529 -1488 40 55 86
-13.9978 25.5697 -1489 38 53 84
-11.0438 25.5694 -1489 38 53 84
-8.08442 25.552 -1488 38 53 84
-5.13599 25.569 -1489 37 52 83
-2.17924 25.5346 -1487 39 54 85
0.768519 25.4659 -1483 40 55 86
3.69792 25.3801 -1478 39 54 85
6.59854 25.26 -1471 39 54 85
9.49084 25.1915 -1467 39 54 85
12.3758 25.1403 -1464 39 54 85
15.2698 25.1234 -1463 39 53 84
18.16 25.1066 -1462 39 54 85
21.0608 25.1071 -1462 38 53 84
23.9617 25.1076 -1462 36 50 79
26.8996 25.1425 -1464 39 52 82
29.866 25.1947 -1467 46 58 89
32.8222 25.2298 -1469 48 61 90
35.8353 25.2993 -1473 42 56 84
38.8908 25.386 -1478 40 51 78
41.825 25.387 -1478 38 48 74
44.7898 25.4051 -1479 37 46 70
47.7912 25.4406 -1481 34 43 67
50.7667 25.4589 -1482 33 42 66
53.7466 25.4773 -1483 33 42 66
56.7691 25.5129 -1485 33 42 63
59.7195 25.5142 -1485 35 43 63
62.7127 25.5328 -1486 34 42 64
65.7103 25.5515 -1487 31 39 61
68.5739 25.5187 -1485 31 40 62
71.5747 25.5375 -1486 33 42 62
74.58 25.5564 -1487 34 42 62
77.3812 25.5066 -1484 36 44 64
80.2252 25.4741 -1482 36 43 62
83.118 25.4588 -1481 37 43 62
85.9494 25.4263 -1479 38 44 63
88.8339 25.4112 -1478 38 44 63
91.7148 25.396 -1477 37 44 63
94.6566 25.3982 -1477 36 46 67
97.5332 25.3832 -1476 35 47 68
100.543 25.4028 -1477 38 49 72
103.487 25.4051 -1477 40 50 75
106.432 25.4075 -1477 43 52 78
109.526 25.4444 -1479 45 56 83
112.629 25.4814 -1481 50 61 88
115.584 25.4841 -1481 50 61 89
118.621 25.504 -1482 48 61 90
121.499 25.4896 -1481 47 61 90
124.877 25.5785 -1486 50 63 97
128.363 25.6848 -1492 54 70 107
132.138 25.8427 -1501 59 76 116
136.13 26.0353 -1512 63 80 120
141.179 26.4173 -1534 63 79 115
-78.2391 24.2148 -1593 61 69 93
-74.7418 24.1068 -1586 56 65 91
-70.9569 23.8925 -1572 58 67 97
-67.3577 23.7239 -1561 56 67 97
-63.5969 23.4795 -1545 49 63 92
-60.2137 23.3566 -1537 46 61 90
-56.6396 23.1427 -1523 44 59 88
-53.4736 23.0808 -1519 42 57 89
-50.2575 22.9886 -1513 40 55 87
-47.1593 22.942 -1510 39 54 85
-44.0734 22.8955 -1507 37 52 83
-41.0543 22.8794 -1506 38 53 84
-38.0142 22.8482 -1504 43 58 90
-35.0056 22.8323 -1503 43 58 90
-31.9587 22.786 -1500 41 56 87
-28.9433 22.755 -1498 38 53 84
-25.9013 22.6937 -1494 40 55 86
-22.8908 22.6476 -1491 42 57 88
-19.9057 22.6168 -1489 44 59 90
-16.9629 22.6316 -1490 42 57 88
-14.0163 22.6465 -1491 40 55 86
-11.0435 22.6159 -1489 39 54 85
-8.08968 22.6157 -1489 39 54 85
-5.13588 22.6156 -1489 37 52 83
-2.17627 22.5547 -1485 37 52 83
0.767983 22.5091 -1482 37 52 83
3.69784 22.4484 -1478 38 53 84
6.60288 22.3574 -1472 40 55 86
9.4971 22.2968 -1468 41 56 87
12.384 22.2515 -1465 40 55 86
15.2799 22.2366 -1464 40 54 85
18.1721 22.2217 -1463 41 55 86
21.0748 22.2221 -1463 39 54 85
23.9776 22.2226 -1463 36 50 79
26.9358 22.2687 -1466 38 52 81
29.9264 22.33 -1470 44 58 87
32.8885 22.3611 -1472 46 60 89
35.9075 22.4225 -1476 39 54 83
38.9163 22.4689 -1479 38 49 77
41.8241 22.4545 -1478 37 47 74
44.7888 22.4706 -1479 35 44 68
47.7902 22.5019 -1481 34 43 67
50.7999 22.5333 -1483 33 42 66
53.8179 22.5648 -1485 34 43 67
56.8061 22.5811 -1486 33 41 63
59.7987 22.5975 -1487 33 41 61
62.8379 22.6291 -1489 32 40 62
65.7973 22.6304 -1489 30 38 60
68.7109 22.6166 -1488 33 41 63
71.7177 22.6333 -1489 35 42 63
74.6786 22.6347 -1489 34 41 61
77.5881 22.6212 -1488 34 42 62
80.44 22.5924 -1486 33 40 60
83.3407 22.5789 -1485 36 42 61
86.0638 22.5198 -1481 37 43 62
88.892 22.4911 -1479 37 43 62
91.7749 22.4778 -1478 38 44 63
94.7186 22.4797 -1478 36 46 67
97.5972 22.4664 -1477 35 47 68
100.54 22.4684 -1477 37 49 72
103.555 22.4858 -1478 40 51 75
106.502 22.488 -1478 41 50 76
109.45 22.4902 -1478 41 53 78
112.626 22.5381 -1481 44 56 81
115.582 22.5404 -1481 43 54 82
118.619 22.558 -1482 45 58 87
121.66 22.5758 -1483 47 61 90
124.958 22.6392 -1487 51 64 99
128.102 22.6722 -1489 54 69 106
132.223 22.8729 -1502 57 74 114
135.497 22.9213 -1505 64 81 121
140.164 23.1983 -1523 65 81 117
-78.1885 21.0394 -1592 60 68 92
-74.7875 20.972 -1587 63 72 98
-70.9104 20.7593 -1571 60 69 99
-67.3565 20.6259 -1561 54 65 95
-63.5134 20.3869 -1543 49 63 92
-60.1734 20.2933 -1536 47 61 91
-56.6013 20.1073 -1522 45 60 90
-53.4022 20.0403 -1517 40 55 87
-50.2233 19.9733 -1512 37 52 84
-47.1896 19.9593 -1511 36 51 82
-44.1018 19.9188 -1508 33 48 79
-41.0808 19.9049 -1507 38 53 84
-38.064 19.891 -1506 42 57 88
-35.0282 19.8639 -1504 41 56 87
-31.9794 19.8237 -1501 40 55 86
-28.9427 19.7835 -1498 40 55 86
-25.9355 19.7566 -1496 43 58 89
-22.9211 19.7166 -1493 44 59 90
-19.9187 19.6766 -1490 42 57 88
-16.974 19.6894 -1491 41 56 87
-14.0066 19.676 -1490 40 55 86
-11.0507 19.6757 -1490 40 55 86
-8.08953 19.6624 -1489 39 54 85
-5.13234 19.649 -1488 38 53 84
-2.17623 19.6094 -1485 37 52 83
0.767449 19.5565 -1481 38 53 84
3.69776 19.517 -1478 39 54 85
6.60724 19.451 -1473 40 55 86
9.49692 19.3852 -1468 42 56 87
12.3753 19.3325 -1464 43 57 88
15.2797 19.3328 -1464 41 55 86
18.1593 19.3067 -1462 42 56 87
21.0599 19.307 -1462 41 55 86
23.9772 19.3206 -1463 38 52 81
26.9353 19.3607 -1466 40 54 83
29.9259 19.414 -1470 45 59 88
32.9326 19.4674 -1474 44 58 87
35.9554 19.5208 -1478 38 53 82
38.9682 19.5611 -1481 37 48 76
41.9082 19.5619 -1481 35 45 72
44.8788 19.5758 -1482 34 43 67
47.8538 19.5899 -1483 35 44 68
50.8674 19.6172 -1485 33 42 66
53.8531 19.6313 -1486 33 42 66
56.8814 19.6587 -1488 32 40 63
59.878 19.673 -1489 30 38 59
62.9211 19.7005 -1491 30 38 60
65.8402 19.6884 -1490 31 39 61
68.7558 19.6764 -1489 34 42 64
71.7645 19.6909 -1490 36 43 64
74.6772 19.6789 -1489 36 43 63
77.6387 19.6803 -1489 32 40 60
80.5467 19.6685 -1488 30 37 57
83.3953 19.6436 -1486 35 41 60
86.1203 19.5922 -1482 35 41 60
88.9504 19.5673 -1480 36 42 61
91.7732 19.5425 -1478 38 44 63
94.7168 19.5441 -1478 37 46 66
97.6614 19.5459 -1478 36 46 67
100.539 19.5344 -1477 35 47 70
103.623 19.5626 -1479 39 50 74
106.716 19.591 -1481 41 50 76
109.669 19.593 -1481 43 55 80
112.776 19.6214 -1483 43 55 81
115.736 19.6234 -1483 43 54 82
118.776 19.6387 -1484 45 58 87
121.822 19.6541 -1485 45 59 88
125.04 19.6961 -1488 51 64 99
128.099 19.7116 -1489 52 67 104
131.868 19.833 -1498 53 70 110
134.954 19.8486 -1499 61 78 118
139.057 20.01 -1511 68 84 120
-78.1381 17.8682 -1591 58 66 91
-74.6449 17.7885 -1584 69 78 104
-70.9093 17.6414 -1571 61 70 100
-67.1828 17.4831 -1557 54 64 94
-63.5124 17.3249 -1543 51 65 94
-60.0549 17.2117 -1533 48 63 93
-56.6004 17.0874 -1522 45 60 91
-53.3661 17.0192 -1516 39 54 86
-50.2225 16.9735 -1512 37 52 83
-47.1888 16.9615 -1511 35 50 81
-44.1303 16.9384 -1509 36 51 82
-41.0801 16.9153 -1507 40 55 86
-38.0381 16.8922 -1505 43 58 89
-35.0044 16.8692 -1503 43 58 89
-31.9576 16.8351 -1500 42 57 88
-28.9036 16.7897 -1496 44 59 90
-25.9351 16.7893 -1496 43 58 89
-22.936 16.7665 -1494 42 57 88
-19.9184 16.7213 -1490 40 55 86
-16.9737 16.7322 -1491 39 54 85
-14.0252 16.7432 -1492 39 54 85
-11.0506 16.7206 -1490 38 53 84
-8.08396 16.698 -1488 35 50 81
-5.13225 16.6979 -1488 35 50 81
-2.17619 16.6642 -1485 38 53 84
0.766918 16.608 -1480 38 53 84
3.6952 16.5744 -1477 39 54 85
6.59815 16.5072 -1471 38 53 84
9.49676 16.4736 -1468 39 53 84
12.3751 16.4289 -1464 43 57 88
15.269 16.4179 -1463 41 55 86
18.159 16.4069 -1462 39 53 84
21.0452 16.396 -1461 40 54 85
23.9604 16.4076 -1462 42 56 85
26.9348 16.4528 -1466 44 57 86
29.9457 16.5094 -1471 48 60 90
32.9544 16.5548 -1475 45 59 88
36.0278 16.6226 -1481 40 54 83
39.0201 16.6456 -1483 36 48 76
41.9641 16.6462 -1483 34 45 71
44.9084 16.6469 -1483 34 43 67
47.8853 16.6588 -1484 34 43 67
50.8666 16.6708 -1485 33 42 66
53.8522 16.6828 -1486 32 41 65
56.8805 16.7061 -1488 31 39 62
59.9172 16.7294 -1490 30 38 60
62.9623 16.7528 -1492 30 38 60
65.8833 16.7426 -1491 32 40 62
68.8008 16.7324 -1490 33 41 63
