ply
format ascii 1.0
comment Created by Open3D
element vertex 1360
property double x
property double y
property double z
property uchar red
property uchar green
property uchar blue
end_header
203.712 -372.939 -1510 227 227 249
208.332 -375.726 -1521 236 237 254
213.833 -379.998 -1538 241 242 255
217.713 -381.307 -1543 249 251 255
221.472 -382.37 -1547 251 252 255
223.797 -380.963 -1541 201 203 208
-127.209 -372.763 -1502 225 235 254
-124.808 -374.705 -1510 225 235 253
-122.215 -376.152 -1516 229 239 255
-118.812 -375.118 -1512 230 238 255
-115.656 -374.83 -1511 223 231 251
-112.282 -373.799 -1507 219 227 247
-109.214 -373.762 -1507 221 229 249
-105.796 -372.485 -1502 226 234 254
-102.398 -371.21 -1497 226 234 254
-99.2215 -370.68 -1495 224 232 252
-96.0534 -370.151 -1493 222 230 250
-92.9566 -369.871 -1492 216 224 246
-89.925 -369.839 -1492 210 218 240
-86.7775 -369.314 -1490 206 214 236
-83.6952 -369.037 -1489 206 214 236
-80.5093 -368.266 -1486 211 219 241
-77.2318 -367 -1481 221 227 248
-73.9754 -365.735 -1476 225 231 253
-70.836 -364.967 -1473 228 234 254
-67.8016 -364.696 -1472 227 233 253
-64.7277 -364.178 -1470 227 233 253
-61.7044 -363.909 -1469 223 229 249
-58.6858 -363.64 -1468 217 223 244
-55.6717 -363.373 -1467 214 220 242
-52.6263 -362.86 -1465 209 215 237
-49.6571 -362.842 -1465 199 205 227
-46.6883 -362.826 -1465 192 198 220
-43.7498 -363.058 -1466 191 197 217
-40.7519 -362.797 -1465 192 198 218
-37.7842 -362.783 -1465 190 196 218
-34.8169 -362.771 -1465 190 196 217
-31.8064 -362.264 -1463 191 197 218
-28.8239 -362.006 -1462 195 201 221
-25.8457 -361.75 -1461 196 202 222
-22.8718 -361.494 -1460 197 203 223
-19.9021 -361.239 -1459 198 204 224
-16.9482 -361.233 -1459 198 204 224
-13.9849 -360.98 -1458 197 203 223
-11.0183 -360.48 -1456 196 202 224
-8.06529 -360.23 -1455 196 202 224
-5.12005 -360.228 -1455 195 201 223
-2.17766 -360.721 -1457 194 199 221
0.772108 -360.969 -1458 189 193 214
3.72611 -361.217 -1459 187 191 211
6.69316 -361.962 -1462 189 193 213
9.65939 -362.212 -1463 190 194 214
12.6037 -361.721 -1461 192 196 216
15.5508 -361.478 -1460 192 196 216
18.5193 -361.731 -1461 193 197 218
21.4478 -361.243 -1459 193 196 217
24.4187 -361.498 -1460 192 194 215
27.375 -361.507 -1460 188 190 211
30.3108 -361.269 -1459 191 194 214
33.22 -360.785 -1457 194 197 217
36.171 -360.797 -1457 199 203 223
39.0954 -360.562 -1456 205 210 229
42.0163 -360.328 -1455 208 214 232
44.8714 -359.6 -1452 211 217 235
47.7808 -359.368 -1451 215 221 239
50.6166 -358.641 -1448 219 225 243
53.5515 -358.659 -1448 224 230 248
56.4479 -358.43 -1447 225 230 248
59.4229 -358.697 -1448 224 229 247
62.3592 -358.718 -1448 227 232 250
65.2961 -358.74 -1448 228 233 250
68.2335 -358.763 -1448 228 233 250
71.1716 -358.786 -1448 229 234 251
74.1101 -358.811 -1448 227 232 250
76.9962 -358.589 -1447 225 229 249
79.8787 -358.368 -1446 224 228 248
82.8152 -358.395 -1446 224 226 246
85.7524 -358.424 -1446 223 225 245
88.6903 -358.454 -1446 221 223 243
91.6922 -358.732 -1447 220 222 242
94.6337 -358.764 -1447 222 224 243
97.6433 -359.045 -1448 223 225 245
100.519 -358.83 -1447 222 224 244
103.534 -359.113 -1448 223 225 245
106.334 -358.653 -1446 224 226 246
109.429 -359.186 -1448 225 227 247
112.3 -358.975 -1447 226 228 248
115.407 -359.51 -1449 228 230 250
118.523 -360.047 -1451 228 230 248
121.564 -360.336 -1452 226 228 247
124.353 -359.881 -1450 224 226 245
127.398 -360.172 -1451 224 226 246
130.449 -360.465 -1452 224 226 246
133.413 -360.51 -1452 225 227 246
136.472 -360.804 -1453 224 226 246
139.632 -361.348 -1455 224 226 246
142.606 -361.396 -1455 222 224 244
145.88 -362.19 -1458 222 224 244
148.556 -361.495 -1455 223 225 244
151.637 -361.795 -1456 227 228 245
154.618 -361.848 -1456 233 234 252
158.033 -362.895 -1460 240 241 255
161.686 -364.441 -1466 242 243 255
165.477 -366.238 -1473 242 243 255
168.841 -367.041 -1476 242 243 255
171.986 -367.348 -1477 241 242 253
174.899 -367.158 -1476 237 237 251
178.171 -367.716 -1478 231 230 249
181.331 -368.027 -1479 221 222 241
185.119 -369.583 -1485 216 217 235
188.554 -370.393 -1488 210 211 230
192.26 -371.704 -1493 210 211 230
195.726 -372.517 -1496 213 213 236
199.871 -374.577 -1504 216 216 242
203.781 -376.141 -1510 224 224 248
208.54 -379.201 -1522 231 232 251
213.21 -382.015 -1533 241 242 255
217.081 -383.335 -1538 250 252 255
220.975 -384.656 -1543 252 252 255
223.583 -383.735 -1539 202 202 208
-126.998 -375.187 -1499 227 237 255
-124.851 -377.897 -1510 227 237 255
-122.256 -379.356 -1516 227 237 254
-119.088 -379.064 -1515 228 237 255
-115.772 -378.274 -1512 225 233 253
-112.618 -377.984 -1511 219 227 247
-109.469 -377.696 -1510 218 226 246
-106.043 -376.408 -1505 224 232 252
-102.639 -375.122 -1500 228 236 255
-99.4545 -374.587 -1498 225 233 253
-96.1505 -373.554 -1494 223 231 251
-93.0506 -373.271 -1493 219 227 249
-89.9556 -372.99 -1492 214 222 244
-86.9236 -372.959 -1492 205 213 235
-83.7237 -372.18 -1489 202 210 232
-80.5367 -371.402 -1486 204 212 234
-77.3103 -370.376 -1482 210 216 238
-74.151 -369.6 -1479 216 222 244
-70.9564 -368.576 -1475 221 227 249
-67.9169 -368.302 -1474 224 230 251
-64.7938 -367.53 -1471 226 232 253
-61.7255 -367.008 -1469 225 231 252
-58.7058 -366.738 -1468 223 229 250
-55.6907 -366.468 -1467 221 227 249
-52.6801 -366.2 -1466 215 221 243
-49.7078 -366.183 -1466 205 211 234
-46.7361 -366.166 -1466 199 204 228
-43.7945 -366.4 -1467 195 201 222
-40.7936 -366.136 -1466 191 197 218
-37.8487 -366.372 -1467 188 194 216
-34.8762 -366.36 -1467 187 193 215
-31.8824 -366.099 -1466 186 192 213
-28.8731 -365.589 -1464 189 195 216
-25.9076 -365.58 -1464 190 196 217
-22.9266 -365.322 -1463 190 196 216
-19.9498 -365.065 -1462 191 197 217
-16.9889 -365.058 -1462 192 198 218
-14.0185 -364.804 -1461 191 197 217
-11.0523 -364.55 -1460 192 198 218
-8.09572 -364.546 -1460 193 199 219
-5.14277 -364.794 -1461 193 199 221
-2.18431 -364.792 -1461 192 197 218
0.775731 -365.541 -1464 188 192 212
3.74774 -366.291 -1467 182 186 206
6.73211 -367.042 -1470 183 187 207
9.70227 -366.795 -1469 185 189 209
12.6598 -366.3 -1467 189 192 212
15.6413 -366.554 -1468 189 191 211
18.589 -366.061 -1466 187 189 209
21.5581 -366.068 -1466 188 190 211
24.5273 -366.075 -1466 188 190 211
27.497 -366.084 -1466 185 187 208
30.4459 -365.845 -1465 186 188 208
33.3455 -365.106 -1462 189 191 211
36.3075 -365.118 -1462 191 195 215
39.2163 -364.632 -1460 197 201 221
42.1173 -364.146 -1458 199 203 223
45.0105 -363.662 -1456 205 211 230
47.8631 -362.928 -1453 210 216 235
50.7387 -362.446 -1451 213 219 238
53.6067 -361.964 -1449 217 222 242
56.5062 -361.733 -1448 219 223 243
59.4021 -361.503 -1447 221 225 245
62.3374 -361.524 -1447 224 229 248
65.3183 -361.796 -1448 223 229 246
68.2097 -361.569 -1447 221 226 244
71.1959 -361.842 -1448 218 223 241
74.1355 -361.867 -1448 216 220 240
77.0225 -361.643 -1447 214 218 238
79.8509 -361.17 -1445 213 216 236
82.8435 -361.448 -1446 216 218 238
85.7225 -361.227 -1445 216 218 238
88.6592 -361.257 -1445 214 216 236
91.6602 -361.538 -1446 213 215 235
94.666 -361.82 -1447 214 216 236
97.6094 -361.853 -1447 214 216 236
100.484 -361.637 -1446 215 217 237
103.498 -361.922 -1447 216 218 238
106.371 -361.708 -1446 216 218 238
109.391 -361.995 -1447 215 217 237
112.338 -362.033 -1447 217 219 239
115.366 -362.323 -1448 218 220 240
118.4 -362.613 -1449 218 220 240
121.522 -363.155 -1451 220 222 242
124.567 -363.448 -1452 221 223 243
127.53 -363.491 -1452 221 223 243
130.584 -363.786 -1453 221 223 243
133.643 -364.082 -1454 223 225 243
136.707 -364.379 -1455 223 225 246
139.968 -365.178 -1458 223 225 246
142.851 -364.976 -1457 220 222 243
145.93 -365.276 -1458 222 224 244
148.811 -365.076 -1457 224 226 246
151.898 -365.379 -1458 227 229 248
154.883 -365.432 -1458 231 233 252
158.303 -366.488 -1462 236 237 255
161.631 -367.296 -1465 235 236 252
165.421 -369.107 -1472 231 232 250
168.899 -370.168 -1476 228 229 247
172.045 -370.478 -1477 219 221 239
175.078 -370.538 -1477 215 215 236
178.353 -371.1 -1479 213 213 235
181.761 -371.915 -1482 211 212 232
185.308 -372.983 -1486 212 213 233
188.745 -373.801 -1489 211 212 232
192.713 -375.624 -1496 213 214 234
196.448 -376.947 -1501 217 218 240
200.339 -378.523 -1507 217 217 240
204.257 -380.1 -1513 220 220 242
208.612 -382.433 -1522 223 225 243
213.006 -384.767 -1531 238 240 254
216.733 -385.847 -1535 250 252 255
220.621 -387.18 -1540 250 251 255
223.515 -386.754 -1538 206 205 211
-127.212 -378.865 -1501 223 233 251
-125.059 -381.597 -1512 229 239 255
-122.299 -382.564 -1516 228 238 255
-119.129 -382.27 -1515 229 237 255
-115.735 -381.22 -1511 228 236 255
-112.582 -380.928 -1510 222 230 250
-109.434 -380.637 -1509 217 225 245
-106.009 -379.339 -1504 217 225 245
-102.742 -378.546 -1501 224 232 252
-99.3559 -377.25 -1496 226 234 254
-96.1193 -376.46 -1493 225 233 253
-92.958 -375.923 -1491 224 232 253
-89.866 -375.639 -1490 220 228 250
-86.7787 -375.356 -1489 210 218 240
-83.6963 -375.075 -1488 203 211 233
-80.6186 -374.794 -1487 201 209 231
-77.5456 -374.515 -1486 200 208 230
-74.3771 -373.733 -1483 206 213 235
-71.2214 -372.952 -1480 215 221 243
-68.0324 -371.92 -1476 220 226 247
-64.8602 -370.889 -1472 224 230 252
-61.7887 -370.363 -1470 226 232 253
-58.766 -370.09 -1469 227 233 255
-55.6718 -369.315 -1466 226 232 254
-52.7341 -369.548 -1467 224 230 252
-49.7588 -369.53 -1467 215 221 244
-46.8159 -369.765 -1468 208 213 238
-43.8692 -370.002 -1469 201 207 230
-40.8911 -369.987 -1469 196 202 224
-37.9133 -369.974 -1469 192 198 220
-34.9358 -369.961 -1469 192 198 220
-31.9151 -369.446 -1467 190 196 218
-28.9225 -369.183 -1466 187 193 215
-25.9518 -369.174 -1466 188 194 215
-22.9971 -369.417 -1467 187 193 213
-20.0112 -369.158 -1466 186 192 212
-17.0296 -368.9 -1465 185 191 211
-14.0617 -368.895 -1465 184 190 210
-11.0712 -368.135 -1462 186 192 212
-8.1151 -368.384 -1463 189 195 215
-5.15513 -368.633 -1464 191 197 218
-2.19114 -368.884 -1465 191 196 217
0.777058 -369.135 -1466 187 191 211
3.76447 -370.898 -1473 182 186 206
6.75278 -371.152 -1474 178 182 202
9.73877 -371.155 -1474 179 182 202
12.7419 -371.662 -1476 183 185 205
15.7213 -371.416 -1475 183 185 205
18.7096 -371.422 -1475 183 185 205
21.6538 -370.673 -1472 186 188 208
24.653 -370.933 -1473 184 186 206
27.6378 -370.942 -1473 181 183 204
30.6018 -370.7 -1472 180 182 203
33.585 -370.711 -1472 180 182 202
36.5436 -370.472 -1471 178 181 201
39.391 -369.226 -1466 185 188 208
42.2763 -368.484 -1463 190 194 214
45.1497 -367.744 -1460 195 200 219
48.0114 -367.004 -1457 198 203 223
50.8611 -366.266 -1454 203 208 228
53.7363 -365.78 -1452 209 213 233
56.6037 -365.295 -1450 213 217 237
59.5047 -365.063 -1449 216 220 240
62.4019 -364.832 -1448 218 223 242
65.2958 -364.602 -1447 217 223 242
68.186 -364.373 -1446 217 221 241
71.1712 -364.65 -1447 217 221 241
74.0586 -364.423 -1446 217 221 241
77.0489 -364.701 -1447 215 219 239
79.9335 -364.476 -1446 212 216 236
82.9295 -364.756 -1447 214 216 236
85.8112 -364.533 -1446 214 216 236
88.8125 -364.816 -1447 214 216 236
91.8187 -365.099 -1448 213 215 235
94.7641 -365.131 -1448 213 215 235
97.7104 -365.165 -1448 212 214 234
100.727 -365.451 -1449 211 213 233
103.606 -365.235 -1448 209 211 231
106.554 -365.271 -1448 211 213 233
109.58 -365.561 -1449 212 214 234
112.532 -365.599 -1449 213 215 235
115.566 -365.891 -1450 213 215 235
118.604 -366.184 -1451 214 216 236
121.647 -366.478 -1452 218 220 240
124.524 -366.268 -1451 219 221 241
127.574 -366.565 -1452 217 219 239
130.629 -366.862 -1453 217 219 239
133.597 -366.908 -1453 217 219 237
136.754 -367.46 -1455 216 219 240
139.92 -368.013 -1457 217 220 241
142.802 -367.809 -1456 217 220 241
145.881 -368.112 -1457 220 223 243
148.965 -368.416 -1458 225 227 247
151.95 -368.469 -1458 227 229 248
155.043 -368.775 -1459 230 232 252
158.467 -369.84 -1463 230 232 253
161.908 -370.907 -1467 227 228 246
165.479 -372.229 -1472 222 223 241
168.958 -373.298 -1476 222 223 241
172.105 -373.611 -1477 219 221 239
175.02 -373.418 -1476 225 226 246
178.295 -373.986 -1478 226 226 247
181.702 -374.808 -1481 221 222 241
185.497 -376.391 -1487 219 220 239
189.065 -377.469 -1491 219 220 240
193.166 -379.561 -1499 223 224 243
196.648 -380.388 -1502 223 224 243
200.675 -382.231 -1509 217 218 238
204.868 -384.328 -1517 219 220 240
208.684 -385.667 -1522 225 227 244
212.941 -387.768 -1530 242 244 255
216.243 -388.097 -1531 251 253 255
219.838 -388.934 -1534 252 252 255
223.012 -389.011 -1534 214 214 218
-126.917 -381.026 -1497 222 232 250
-125.02 -384.546 -1511 226 236 254
-122.341 -385.775 -1516 228 238 255
-119.171 -385.478 -1515 231 240 255
-115.852 -384.674 -1512 232 240 255
-112.696 -384.38 -1511 229 237 255
-109.4 -383.578 -1508 223 231 251
-106.187 -383.031 -1506 214 222 242
-102.847 -381.977 -1502 212 220 240
-99.5897 -381.179 -1499 224 232 251
-96.1527 -379.619 -1493 227 235 255
-92.9903 -379.078 -1491 225 233 254
-89.8369 -378.537 -1489 223 231 253
-86.6923 -377.998 -1487 216 224 247
-83.6128 -377.714 -1486 208 216 239
-80.5924 -377.686 -1486 202 210 233
-77.5204 -377.404 -1485 196 204 226
-74.4531 -377.123 -1484 198 205 227
-71.3905 -376.844 -1483 204 210 232
-68.1943 -375.803 -1479 213 219 241
-65.0589 -375.018 -1476 221 227 249
-61.9364 -374.233 -1473 222 228 250
-58.9065 -373.958 -1472 222 228 250
-55.8051 -373.176 -1469 223 229 251
-52.8603 -373.411 -1470 225 231 253
-49.844 -373.139 -1469 222 228 250
-46.8959 -373.377 -1470 216 221 245
-43.9143 -373.361 -1470 210 216 238
-40.9331 -373.346 -1470 205 211 233
-37.978 -373.586 -1471 200 206 228
-34.9955 -373.574 -1471 196 202 225
-31.9696 -373.054 -1469 191 196 220
-28.9719 -372.79 -1468 188 194 216
-26.014 -373.034 -1469 187 193 215
-23.0051 -372.517 -1467 185 191 213
-20.0182 -372.256 -1466 184 190 210
-17.0471 -372.25 -1466 184 190 210
-14.0761 -372.244 -1466 183 189 209
-11.1053 -372.24 -1466 180 186 206
-8.14006 -372.49 -1467 182 188 208
-5.17808 -373.25 -1470 186 192 212
-2.2008 -373.503 -1471 187 192 212
0.781569 -374.264 -1474 185 189 209
3.77592 -375.027 -1477 181 185 205
6.77348 -375.282 -1478 177 180 200
9.78836 -376.047 -1481 175 177 197
12.7982 -376.305 -1482 174 176 196
15.8335 -377.072 -1485 177 179 199
18.8175 -376.57 -1483 181 183 203
21.8379 -376.831 -1484 186 188 208
24.8624 -377.093 -1485 183 185 205
27.8914 -377.356 -1486 178 180 201
30.8413 -376.605 -1483 177 179 200
33.8478 -376.616 -1483 179 181 201
36.7551 -375.612 -1479 175 177 198
39.7004 -375.118 -1477 177 180 200
42.609 -374.37 -1474 181 185 205
45.4129 -372.862 -1468 187 191 211
48.2918 -372.116 -1465 192 196 216
51.1238 -371.117 -1461 197 201 221
53.94 -370.119 -1457 202 206 226
56.7406 -369.123 -1453 207 211 231
59.6486 -368.889 -1452 210 214 234
62.5098 -368.402 -1450 212 217 237
65.4088 -368.17 -1449 212 218 237
68.3041 -367.94 -1448 215 219 239
71.2452 -367.964 -1448 218 222 242
74.1356 -367.735 -1447 219 223 243
77.0225 -367.507 -1446 217 221 241
79.9615 -367.535 -1446 215 219 239
82.9582 -367.817 -1447 215 217 237
85.8412 -367.593 -1446 214 216 236
88.8435 -367.878 -1447 215 217 237
91.8507 -368.163 -1448 215 217 237
94.9281 -368.704 -1450 215 217 237
97.8794 -368.738 -1450 215 217 237
100.901 -369.027 -1451 214 216 236
103.785 -368.809 -1450 211 213 233
106.665 -368.591 -1449 213 215 235
109.694 -368.883 -1450 214 216 236
112.572 -368.668 -1449 213 215 235
115.526 -368.708 -1449 214 216 236
118.564 -369.003 -1450 216 218 238
121.606 -369.3 -1451 217 219 239
124.482 -369.088 -1450 216 218 238
127.706 -369.896 -1453 214 216 236
130.674 -369.941 -1453 215 217 236
133.643 -369.987 -1453 215 217 236
136.802 -370.544 -1455 212 216 237
139.969 -371.102 -1457 214 218 239
142.95 -371.152 -1457 215 219 241
146.132 -371.712 -1459 220 222 243
149.221 -372.018 -1460 224 226 246
152.421 -372.581 -1462 227 229 249
155.523 -372.89 -1463 230 232 254
158.847 -373.71 -1466 227 229 252
162.075 -374.276 -1468 230 231 250
165.537 -375.354 -1472 229 230 248
168.788 -375.922 -1474 229 230 248
172.165 -376.747 -1477 234 235 251
175.556 -377.574 -1480 243 243 255
178.96 -378.401 -1483 241 240 255
182.379 -379.231 -1486 234 235 249
186.061 -380.572 -1491 231 232 248
189.765 -381.914 -1496 231 232 249
193.492 -383.258 -1501 229 231 249
197.109 -384.348 -1505 226 227 244
201.144 -386.206 -1512 221 222 239
205.21 -388.066 -1519 228 229 247
208.62 -388.65 -1521 236 238 253
212.737 -390.513 -1528 246 248 255
216.037 -390.844 -1529 250 252 255
219.056 -390.666 -1528 252 253 255
222.072 -390.488 -1527 222 221 226
-126.707 -383.431 -1494 220 230 249
-124.816 -386.98 -1508 222 232 251
-122.061 -387.963 -1512 224 234 252
-118.898 -387.664 -1511 230 238 255
-115.586 -386.853 -1508 232 240 255
-112.512 -386.812 -1508 230 238 255
-109.366 -386.517 -1507 228 236 255
-106.013 -385.453 -1503 221 229 249
-102.746 -384.647 -1500 211 219 239
-99.5581 -384.099 -1498 213 221 241
-96.2508 -383.039 -1494 221 229 249
-92.8981 -381.723 -1489 225 233 254
-89.6269 -380.666 -1485 224 232 254
-86.5476 -380.379 -1484 221 229 253
-83.4169 -379.836 -1482 214 222 246
-80.5121 -380.32 -1484 205 213 237
-77.5997 -380.805 -1486 197 205 227
-74.5796 -380.778 -1486 194 202 224
-71.5119 -380.496 -1485 198 204 226
-68.3104 -379.447 -1481 202 208 230
-65.1699 -378.654 -1478 210 216 238
-62.0001 -377.607 -1474 217 223 245
-58.967 -377.33 -1473 221 227 249
-55.9006 -376.797 -1471 223 229 251
-52.9867 -377.291 -1473 223 229 251
-49.9632 -377.016 -1472 224 230 252
-47.0081 -377.255 -1473 220 226 248
-43.9895 -376.983 -1472 216 222 244
-41.0309 -377.225 -1473 212 218 240
-38.0429 -377.211 -1473 207 212 236
-35.0553 -377.198 -1473 202 207 232
-32.0244 -376.674 -1471 195 200 225
-29.061 -376.919 -1472 189 194 217
-26.0584 -376.654 -1471 185 191 214
-23.0444 -376.133 -1469 183 189 211
-20.0661 -376.125 -1469 182 188 208
-17.0996 -376.375 -1470 182 188 208
-14.1291 -376.626 -1471 182 188 208
-11.1471 -376.621 -1471 181 187 207
-8.18189 -377.386 -1474 180 186 206
-5.19735 -377.64 -1475 183 189 209
-2.21347 -378.662 -1479 186 191 210
0.784494 -378.662 -1479 185 190 208
3.79525 -379.943 -1484 180 185 203
6.80797 -380.201 -1485 175 179 198
9.85124 -381.484 -1490 171 173 193
12.8891 -382 -1492 170 172 192
15.9244 -382.261 -1493 173 175 195
18.9765 -382.78 -1495 176 177 197
21.9929 -382.531 -1494 180 181 201
25.0554 -383.051 -1496 181 182 202
28.0702 -382.804 -1495 176 178 199
31.1225 -383.071 -1496 174 175 196
34.088 -382.314 -1493 178 179 200
37.0664 -381.815 -1491 174 176 197
40.1176 -382.084 -1492 173 176 197
42.913 -380.05 -1484 177 181 201
45.8 -379.041 -1480 185 189 209
48.6714 -378.033 -1476 189 193 213
51.4567 -376.514 -1470 192 196 216
54.1811 -374.74 -1463 195 199 219
56.9557 -373.479 -1458 200 203 223
59.7928 -372.731 -1455 205 209 229
62.618 -371.984 -1452 207 212 232
65.4769 -371.494 -1450 209 215 234
68.3753 -371.261 -1449 215 220 239
71.2209 -370.773 -1447 218 223 243
74.1615 -370.799 -1447 220 224 244
77.1028 -370.826 -1447 221 225 245
79.9894 -370.597 -1446 222 225 245
83.0446 -371.138 -1448 222 224 244
85.9307 -370.912 -1447 222 224 244
88.9975 -371.455 -1449 222 224 244
91.9463 -371.487 -1449 221 223 243
95.0924 -372.289 -1452 220 222 242
97.9814 -372.067 -1451 221 223 243
101.076 -372.615 -1453 221 223 243
103.964 -372.394 -1452 220 222 242
106.85 -372.175 -1451 220 222 242
109.732 -371.957 -1450 220 222 242
112.689 -371.996 -1450 219 221 241
115.647 -372.036 -1450 221 223 243
118.605 -372.078 -1450 222 224 244
121.565 -372.12 -1450 219 221 241
124.526 -372.164 -1450 217 219 239
127.576 -372.465 -1451 214 216 236
130.63 -372.767 -1452 213 215 235
133.69 -373.071 -1453 213 215 235
136.756 -373.375 -1454 212 216 239
140.018 -374.195 -1457 215 219 241
142.902 -373.988 -1456 216 220 243
146.083 -374.553 -1458 222 224 245
149.274 -375.118 -1460 226 228 248
152.37 -375.429 -1461 230 232 252
155.471 -375.74 -1462 231 233 254
158.795 -376.567 -1465 229 230 254
162.021 -377.138 -1467 229 230 250
165.37 -377.967 -1470 229 230 248
168.733 -378.798 -1473 233 232 251
171.992 -379.373 -1475 240 240 254
175.143 -379.691 -1476 246 245 255
178.903 -381.298 -1482 246 245 255
182.566 -382.649 -1487 245 245 255
186.127 -383.743 -1491 244 244 255
189.832 -385.097 -1496 240 240 253
193.56 -386.452 -1501 232 233 248
197.31 -387.809 -1506 227 227 241
201.082 -389.168 -1511 235 235 248
205.147 -391.043 -1518 245 245 255
208.694 -391.889 -1521 248 249 255
212.395 -392.995 -1525 251 251 255
215.124 -392.298 -1522 252 253 255
218.703 -393.149 -1525 253 251 255
221.424 -392.453 -1522 230 228 233
222.215 -388.406 -1506 111 111 123
-126.497 -385.827 -1491 224 234 252
-124.529 -389.146 -1504 224 234 252
-122.104 -391.172 -1512 223 233 251
-118.94 -390.871 -1511 226 235 253
-115.55 -389.794 -1507 227 235 254
-112.477 -389.754 -1507 227 235 254
-109.404 -389.714 -1507 229 237 255
-105.98 -388.383 -1502 227 235 254
-102.782 -387.829 -1500 218 226 246
-99.6599 -387.534 -1499 210 218 238
-96.4137 -386.724 -1496 213 221 241
-93.0558 -385.398 -1491 221 229 251
-89.8397 -384.59 -1488 225 233 255
-86.6949 -384.042 -1486 222 230 254
-83.4464 -382.978 -1482 220 228 252
-80.5405 -383.466 -1484 213 221 245
-77.6272 -383.954 -1486 202 210 232
-74.6561 -384.186 -1487 198 205 227
-71.6334 -384.16 -1487 197 203 225
-68.4729 -383.36 -1484 196 202 224
-65.3252 -382.561 -1481 201 207 229
-62.2323 -382.022 -1479 210 216 238
-59.1881 -381.742 -1478 216 222 244
-56.0724 -380.947 -1475 217 223 245
-53.1133 -381.186 -1476 217 223 245
-50.1167 -381.168 -1476 221 227 249
-47.0885 -380.892 -1475 222 228 250
-44.0946 -380.876 -1475 219 225 247
-41.1291 -381.119 -1476 217 223 245
-38.1597 -381.363 -1477 214 219 244
-35.1629 -381.35 -1477 211 216 241
-32.1663 -381.339 -1477 206 211 235
-29.17 -381.328 -1477 198 203 228
-26.1562 -381.06 -1476 192 197 221
-23.131 -380.535 -1474 186 192 214
-20.1551 -380.785 -1475 183 189 209
-17.1521 -380.52 -1474 182 188 208
-14.1724 -380.773 -1475 182 188 208
-11.1888 -381.027 -1476 181 187 207
-8.21803 -382.056 -1480 180 186 206
-5.23093 -383.086 -1484 182 188 208
-2.22782 -384.117 -1488 185 190 209
0.790076 -384.375 -1489 184 189 206
3.81972 -385.409 -1493 180 185 202
6.86084 -386.185 -1496 175 179 197
9.90775 -386.704 -1498 169 171 191
12.9627 -387.225 -1500 168 170 190
16.0153 -387.488 -1501 170 171 191
19.1102 -388.527 -1505 171 172 192
22.2068 -389.309 -1508 172 173 193
25.3157 -390.092 -1511 174 175 195
28.3994 -390.359 -1512 168 169 190
31.3833 -389.337 -1508 167 168 189
34.4654 -389.607 -1509 174 174 196
37.4275 -388.587 -1505 175 176 197
40.5353 -389.117 -1507 172 174 194
43.362 -387.067 -1499 173 176 196
46.4044 -387.082 -1499 181 185 205
49.1503 -384.775 -1490 185 189 209
51.8951 -382.727 -1482 186 190 210
54.6448 -380.938 -1475 189 192 213
57.3276 -378.892 -1467 193 195 216
60.1017 -377.622 -1462 198 200 220
62.8559 -376.352 -1457 201 206 225
65.7259 -375.858 -1455 205 211 230
68.5409 -375.107 -1452 212 218 237
71.3938 -374.615 -1450 215 220 240
74.2903 -374.383 -1449 219 223 243
77.1834 -374.151 -1448 222 226 246
80.0731 -373.921 -1447 223 226 246
83.074 -374.208 -1448 226 228 248
85.9609 -373.98 -1447 227 229 249
88.9675 -374.269 -1448 228 230 250
91.9154 -374.301 -1448 228 230 250
95.0605 -375.11 -1451 227 229 249
98.0835 -375.403 -1452 227 229 249
101.111 -375.697 -1453 225 227 247
104.001 -375.475 -1452 226 228 248
107.035 -375.771 -1453 227 229 249
109.847 -375.292 -1451 228 230 250
112.729 -375.073 -1450 226 228 248
115.767 -375.373 -1451 225 227 247
118.647 -375.156 -1450 223 225 245
121.608 -375.198 -1450 222 224 244
124.484 -374.983 -1449 219 221 241
127.709 -375.805 -1452 216 218 238
130.587 -375.592 -1451 217 219 239
133.646 -375.898 -1452 219 221 241
136.804 -376.464 -1454 219 223 242
140.068 -377.29 -1457 220 224 243
143.149 -377.6 -1458 219 223 244
146.336 -378.169 -1460 224 226 246
149.429 -378.481 -1461 226 228 248
152.528 -378.794 -1462 228 230 251
155.739 -379.367 -1464 230 232 252
158.96 -379.942 -1466 229 231 251
162.079 -380.258 -1467 230 231 249
165.542 -381.354 -1471 235 233 252
168.793 -381.932 -1473 239 237 255
172.17 -382.771 -1476 244 242 255
175.68 -383.87 -1480 248 247 255
179.57 -385.75 -1487 249 248 255
183.245 -387.112 -1492 250 249 255
186.693 -387.957 -1495 250 249 255
190.154 -388.803 -1498 249 248 255
194.016 -390.429 -1504 247 246 255
197.643 -391.537 -1508 247 247 255
201.154 -392.388 -1511 250 250 255
204.95 -393.759 -1516 252 252 255
208.632 -394.872 -1520 252 251 255
211.913 -395.208 -1521 252 251 255
215.059 -395.284 -1521 251 251 253
218.351 -395.622 -1522 254 251 254
221.066 -394.921 -1519 237 235 240
220.966 -389.28 -1497 122 121 133
-126.203 -387.952 -1487 228 238 253
-124.242 -391.299 -1500 232 242 255
-121.825 -393.341 -1508 229 239 255
-118.904 -393.82 -1510 227 235 254
-115.668 -393.256 -1508 225 233 252
-112.442 -392.694 -1506 224 232 251
-109.298 -392.393 -1505 225 233 252
-106.018 -391.573 -1502 223 231 251
-102.887 -391.274 -1501 220 228 248
-99.6954 -390.717 -1499 215 223 243
-96.4481 -389.9 -1496 210 218 238
-93.2762 -389.345 -1494 215 223 244
-89.8717 -387.748 -1488 221 229 251
-86.5507 -386.414 -1483 224 232 255
-83.5324 -386.383 -1483 224 232 254
-80.5692 -386.615 -1484 221 229 252
-77.707 -387.368 -1487 213 221 243
-74.7329 -387.601 -1488 206 213 235
-71.7553 -387.835 -1489 198 204 226
-68.6357 -387.289 -1487 190 196 218
-65.525 -386.744 -1485 191 197 219
-62.3807 -385.94 -1482 200 206 228
-59.3293 -385.658 -1481 206 212 234
-56.2444 -385.117 -1479 208 214 236
-53.2761 -385.358 -1480 211 217 239
-50.2703 -385.339 -1480 215 221 244
-47.2649 -385.322 -1480 215 220 245
-44.2599 -385.305 -1480 218 224 246
-41.2551 -385.29 -1480 218 224 246
-38.2766 -385.536 -1481 215 220 245
-35.2707 -385.523 -1481 213 218 242
-32.2866 -385.771 -1482 208 213 236
-29.2199 -384.98 -1479 202 208 231
-26.2364 -385.23 -1480 197 203 225
-23.202 -384.7 -1478 190 196 218
-20.2033 -384.693 -1478 184 190 211
-17.2164 -384.946 -1479 180 186 207
-14.2448 -385.722 -1482 179 185 205
-11.2459 -385.977 -1483 179 185 205
-8.26533 -387.275 -1488 179 185 205
-5.25044 -387.533 -1489 179 185 205
-2.23602 -388.573 -1493 180 185 204
0.793542 -389.093 -1495 181 186 203
3.8389 -390.395 -1500 177 182 199
6.88623 -390.658 -1501 173 177 195
9.94428 -391.181 -1503 170 172 190
13.0278 -392.226 -1507 167 168 187
16.1172 -393.012 -1510 167 168 188
19.2187 -393.8 -1513 169 170 190
22.3472 -394.848 -1517 171 172 192
25.4419 -395.117 -1518 170 171 191
28.5034 -394.866 -1517 166 166 188
31.5817 -394.877 -1517 163 163 185
34.7062 -395.409 -1519 168 168 190
37.7893 -395.422 -1519 170 170 191
40.8726 -395.436 -1519 168 169 189
43.8695 -394.671 -1516 170 172 192
46.7616 -393.125 -1510 175 179 199
49.5969 -391.32 -1503 180 184 204
52.2989 -388.734 -1493 184 187 207
55.035 -386.67 -1485 189 191 211
57.6999 -384.347 -1476 191 193 213
60.5343 -383.327 -1472 194 196 216
63.2668 -381.786 -1466 197 200 220
66.1559 -381.289 -1464 200 204 224
68.9904 -380.531 -1461 206 210 228
71.764 -379.515 -1457 210 213 232
74.6246 -379.02 -1455 216 219 239
77.4241 -378.266 -1452 220 224 244
80.323 -378.033 -1451 221 225 244
83.3333 -378.323 -1452 225 227 246
86.1699 -377.833 -1450 227 229 249
89.1221 -377.864 -1450 227 229 249
92.0752 -377.897 -1450 228 230 250
95.1601 -378.451 -1452 228 230 251
98.1187 -378.486 -1452 230 232 253
101.217 -379.043 -1454 229 231 252
104.182 -379.08 -1454 233 235 255
107.147 -379.118 -1454 235 237 255
110.113 -379.157 -1454 230 232 251
112.925 -378.675 -1452 225 227 247
115.968 -378.977 -1453 226 228 248
118.853 -378.758 -1452 227 229 249
121.819 -378.802 -1452 225 227 247
124.7 -378.585 -1451 223 225 245
127.754 -378.891 -1452 222 224 244
130.723 -378.938 -1452 223 225 245
133.786 -379.246 -1453 224 226 246
136.853 -379.556 -1454 225 229 247
140.022 -380.128 -1456 226 229 248
143.004 -380.179 -1456 224 228 248
146.188 -380.753 -1458 225 227 247
149.483 -381.59 -1461 225 227 247
152.687 -382.166 -1463 226 228 248
155.795 -382.483 -1464 228 230 250
159.234 -383.585 -1468 231 233 252
162.248 -383.643 -1468 235 236 251
165.601 -384.486 -1471 242 241 255
168.853 -385.069 -1473 244 243 255
172.115 -385.654 -1475 246 245 255
175.506 -386.501 -1478 250 250 255
179.273 -388.134 -1484 251 251 255
183.065 -389.769 -1490 252 251 255
186.76 -391.144 -1495 252 251 255
190.222 -391.997 -1498 252 251 255
193.957 -393.375 -1503 252 251 255
197.452 -394.231 -1506 251 252 255
200.96 -395.088 -1509 250 252 255
204.754 -396.471 -1514 250 252 255
208.02 -396.807 -1515 251 251 255
211.572 -397.669 -1518 251 251 254
214.43 -397.222 -1516 251 251 251
217.855 -397.825 -1518 255 252 255
220.272 -396.593 -1513 236 233 239
220.013 -390.644 -1490 121 121 133
-125.739 -389.538 -1481 223 233 251
-124.204 -394.227 -1499 236 246 255
-121.95 -396.812 -1509 234 244 255
-118.868 -396.768 -1509 229 237 255
-115.864 -396.989 -1510 225 233 252
-112.483 -395.896 -1506 222 230 250
-109.41 -395.856 -1506 221 229 249
-106.126 -395.029 -1503 220 228 248
-103.061 -394.991 -1503 221 229 249
-99.7978 -394.166 -1500 217 224 244
-96.7407 -394.13 -1500 209 217 237
-93.3722 -392.782 -1495 211 219 240
-90.2061 -392.224 -1493 212 220 242
-86.8154 -390.615 -1487 220 228 249
-83.7315 -390.322 -1486 223 231 252
-80.5982 -389.767 -1484 223 231 253
-77.6827 -390.264 -1486 219 227 249
-74.7598 -390.762 -1488 214 222 244
-71.7811 -390.998 -1489 207 213 236
-68.6142 -390.185 -1486 196 202 224
-65.5926 -390.16 -1486 190 196 218
-62.5295 -389.875 -1485 188 194 216
-59.4308 -389.328 -1483 184 190 212
-56.3788 -389.044 -1482 182 188 209
-53.4393 -389.55 -1484 183 190 211
-50.4243 -389.531 -1484 189 196 218
-47.4096 -389.513 -1484 193 200 223
-44.3953 -389.497 -1484 201 207 229
-41.3815 -389.481 -1484 205 211 232
-38.3938 -389.729 -1485 206 211 235
-35.3548 -389.454 -1484 207 212 235
-32.32 -389.179 -1483 207 213 235
-29.3094 -389.168 -1483 201 206 230
-26.299 -389.158 -1483 196 201 225
-23.2888 -389.149 -1483 190 195 219
-20.2926 -389.404 -1484 183 189 211
-17.2807 -389.397 -1484 180 186 207
-14.2883 -389.916 -1486 178 184 203
-11.2727 -389.912 -1486 177 183 203
-8.26822 -390.433 -1488 173 179 200
-5.26292 -391.48 -1492 170 176 196
-2.24124 -392.528 -1496 174 179 199
0.795949 -393.315 -1499 176 180 200
3.8455 -394.103 -1502 174 177 196
6.90248 -394.63 -1504 173 175 194
9.9612 -394.895 -1505 171 172 190
13.0498 -395.949 -1509 163 164 183
16.155 -397.004 -1513 160 161 180
19.2892 -398.322 -1518 161 163 183
22.4141 -399.117 -1521 163 165 184
25.5349 -399.65 -1523 161 162 181
28.6452 -399.923 -1524 156 157 175
31.7806 -400.458 -1526 148 149 166
34.9243 -400.995 -1528 159 160 177
38.1015 -401.796 -1531 166 167 184
41.1295 -401.023 -1528 164 165 183
44.1459 -400.251 -1525 169 170 189
47.0882 -398.955 -1520 171 175 196
49.9447 -397.135 -1513 178 181 202
52.7382 -395.054 -1505 182 184 205
55.5368 -393.236 -1498 184 186 206
58.1899 -390.631 -1488 185 187 207
61.1732 -390.39 -1487 187 189 209
63.8939 -388.575 -1480 190 192 212
66.8127 -388.073 -1478 193 195 216
69.5348 -386.523 -1472 199 201 218
72.3319 -385.498 -1468 204 206 224
75.0619 -384.211 -1463 213 215 234
77.8788 -383.451 -1460 217 221 240
80.6843 -382.692 -1457 219 223 242
83.5354 -382.196 -1455 224 226 245
86.4389 -381.964 -1454 227 229 248
89.2772 -381.471 -1452 227 229 249
92.2354 -381.503 -1452 228 230 250
95.2597 -381.8 -1453 230 232 252
98.1539 -381.572 -1452 232 234 254
101.254 -382.134 -1454 234 236 255
104.291 -382.434 -1455 237 239 255
107.185 -382.209 -1454 239 241 255
110.229 -382.512 -1455 234 236 254
113.121 -382.289 -1454 229 231 252
116.09 -382.331 -1454 228 230 250
118.978 -382.11 -1453 225 227 247
122.031 -382.417 -1454 225 227 247
124.831 -381.935 -1452 225 227 247
128.065 -382.771 -1455 226 228 249
130.951 -382.554 -1454 226 228 249
134.018 -382.866 -1455 226 228 248
136.997 -382.915 -1455 227 229 249
140.169 -383.491 -1457 227 230 250
143.154 -383.543 -1457 224 228 248
146.24 -383.858 -1458 225 227 247
149.537 -384.702 -1461 224 226 246
152.743 -385.283 -1463 226 228 248
155.852 -385.603 -1464 230 232 251
159.291 -386.714 -1468 236 237 255
162.417 -387.036 -1469 240 241 254
165.436 -387.095 -1469 246 245 255
168.8 -387.947 -1472 248 247 255
172.061 -388.536 -1474 249 248 255
175.332 -389.126 -1476 251 251 254
179.338 -391.3 -1484 252 252 255
182.64 -391.893 -1486 253 253 255
186.453 -393.543 -1492 252 252 255
189.91 -394.403 -1495 252 252 255
193.64 -395.792 -1500 253 253 255
196.999 -396.391 -1502 251 253 255
200.634 -397.519 -1506 252 254 255
204.558 -399.177 -1512 251 253 255
207.958 -399.78 -1514 252 253 255
211.23 -400.121 -1515 253 253 255
214.083 -399.67 -1513 252 252 254
217.648 -400.542 -1516 254 253 255
219.916 -399.036 -1510 232 232 237
219.059 -391.98 -1483 119 120 132
-125.445 -391.632 -1477 205 217 235
-124.166 -397.154 -1498 234 245 255
-121.832 -399.495 -1507 237 247 255
-118.911 -399.981 -1509 233 242 254
-115.829 -399.938 -1509 231 238 252
-112.524 -399.102 -1506 230 237 253
-109.377 -398.796 -1505 227 234 251
-106.165 -398.227 -1503 225 232 252
-103.03 -397.924 -1502 225 232 252
-99.9005 -397.622 -1501 223 230 250
-96.7758 -397.322 -1500 218 224 244
-93.4061 -395.963 -1495 212 219 240
-90.2992 -395.664 -1494 207 215 236
-86.9636 -394.308 -1489 211 219 239
-83.8183 -393.747 -1487 219 228 248
-80.736 -393.453 -1486 221 230 252
-77.8154 -393.953 -1488 223 231 253
-74.8371 -394.19 -1489 224 231 253
-71.9035 -394.693 -1491 220 225 250
-68.6852 -393.609 -1487 210 215 238
-65.6164 -393.319 -1486 198 204 226
-62.51 -392.767 -1484 187 193 215
-59.4924 -392.745 -1484 181 187 208
-56.3992 -392.194 -1482 177 183 203
-53.4947 -392.968 -1485 168 176 196
-50.5105 -393.214 -1486 169 176 197
-47.4907 -393.196 -1486 168 176 196
-44.4713 -393.179 -1486 171 177 197
-41.4243 -392.899 -1485 175 181 201
-38.4335 -393.149 -1486 183 189 211
-35.3914 -392.871 -1485 188 194 216
-32.3753 -392.859 -1485 188 194 216
-29.3595 -392.848 -1485 188 193 217
-26.3617 -393.102 -1486 186 191 215
-23.3287 -392.829 -1485 184 189 213
-20.3409 -393.35 -1487 181 187 208
-17.3336 -393.608 -1488 178 184 204
-14.3224 -393.866 -1489 176 182 201
-11.3071 -394.126 -1490 173 179 200
-8.29912 -394.916 -1493 171 177 199
-5.27542 -395.443 -1495 170 176 196
-2.24664 -396.5 -1499 170 175 196
0.797298 -397.028 -1501 172 176 197
3.84936 -397.558 -1503 173 176 196
6.90958 -398.089 -1505 172 174 193
9.98459 -398.886 -1508 168 169 188
13.0805 -399.948 -1512 160 162 180
16.1823 -400.747 -1515 155 157 176
19.2962 -401.547 -1518 150 152 171
22.4224 -402.348 -1521 138 140 158
25.5442 -402.886 -1523 124 126 143
28.6933 -403.69 -1526 112 113 130
31.8754 -404.759 -1530 106 107 122
35.0514 -405.564 -1533 120 121 135
38.2896 -406.901 -1538 140 141 157
41.3867 -406.651 -1537 148 149 166
44.3934 -405.608 -1533 161 162 179
47.2913 -403.772 -1526 167 171 191
50.2271 -402.467 -1521 175 179 199
53.0729 -400.634 -1514 177 179 199
55.9647 -399.331 -1509 180 182 202
58.7586 -397.499 -1502 180 182 203
61.6068 -396.197 -1497 180 182 202
64.3921 -394.632 -1491 182 184 204
67.3796 -394.392 -1490 186 188 208
70.1745 -393.093 -1485 191 193 209
72.9496 -391.796 -1480 197 199 216
75.7049 -390.499 -1475 203 205 223
78.5474 -389.733 -1472 206 211 228
81.2674 -388.438 -1467 209 213 231
84.0826 -387.674 -1464 215 217 237
86.8864 -386.911 -1461 219 221 241
89.6787 -386.149 -1458 222 224 244
92.4596 -385.387 -1455 226 228 248
95.2943 -384.892 -1453 228 230 250
98.1895 -384.662 -1452 231 233 253
101.151 -384.698 -1452 232 234 253
104.114 -384.736 -1452 233 235 254
107.077 -384.774 -1452 235 237 255
110.193 -385.344 -1454 236 238 255
113.084 -385.12 -1453 236 238 255
116.212 -385.692 -1455 233 235 255
119.021 -385.204 -1453 231 233 252
122.076 -385.513 -1454 229 231 251
124.963 -385.294 -1453 229 231 251
128.023 -385.605 -1454 231 233 254
130.908 -385.387 -1453 231 233 254
133.975 -385.701 -1454 229 231 251
136.952 -385.75 -1454 226 228 248
140.124 -386.332 -1456 225 228 248
143.009 -386.118 -1455 223 227 247
146.294 -386.967 -1458 224 226 246
149.387 -387.287 -1459 223 225 245
152.694 -388.138 -1462 227 229 249
156.015 -388.991 -1465 233 235 253
159.132 -389.315 -1466 239 241 255
162.476 -390.17 -1469 242 243 255
165.609 -390.496 -1470 246 245 255
168.862 -391.089 -1472 248 247 255
172.124 -391.683 -1474 250 249 255
175.396 -392.278 -1476 251 251 254
179.282 -394.203 -1483 251 251 254
182.338 -394.27 -1483 252 252 254
186.271 -396.199 -1490 252 252 254
189.725 -397.066 -1493 252 253 254
193.453 -398.466 -1498 252 253 252
196.677 -398.804 -1499 250 252 254
200.441 -400.207 -1504 250 251 254
204.497 -402.144 -1511 250 252 254
207.76 -402.486 -1512 252 252 255
211.308 -403.362 -1515 252 252 255
214.162 -402.908 -1513 251 250 255
217.871 -404.053 -1517 252 251 255
220.142 -402.535 -1511 227 227 232
220.174 -397.021 -1490 112 113 125
-125.151 -393.712 -1473 197 209 227
-123.963 -399.546 -1495 234 246 255
-122.038 -403.242 -1509 238 247 255
-119.112 -403.732 -1511 238 246 254
-115.948 -403.422 -1510 239 246 254
-112.565 -402.311 -1506 237 244 254
-109.272 -401.469 -1503 236 243 254
-106.133 -401.162 -1502 235 242 255
-103.136 -401.391 -1503 234 241 255
-99.937 -400.819 -1501 232 240 254
-96.8112 -400.516 -1500 231 237 254
-93.6277 -399.947 -1498 225 232 250
-90.4531 -399.38 -1496 214 221 240
-87.1122 -398.012 -1491 204 211 231
-84.0744 -397.981 -1491 208 216 237
-80.9829 -397.684 -1490 214 223 246
-77.9485 -397.655 -1490 222 230 252
-74.9147 -397.626 -1490 224 232 254
-71.8815 -397.599 -1490 224 231 253
-68.7566 -397.04 -1488 220 227 248
-65.6403 -396.482 -1486 212 219 240
-62.5327 -395.925 -1484 204 210 231
-59.5542 -396.169 -1485 195 201 222
-56.4958 -395.881 -1484 187 193 215
-53.5142 -396.128 -1485 178 185 206
-50.529 -396.375 -1486 174 181 202
-47.54 -396.624 -1487 174 182 202
-44.5473 -396.874 -1488 177 184 205
-41.4953 -396.592 -1487 176 182 203
-38.4993 -396.844 -1488 172 178 200
-35.4519 -396.563 -1487 172 178 200
-32.4089 -396.284 -1486 172 178 200
-29.39 -396.273 -1486 172 178 196
-26.4068 -396.796 -1488 172 178 197
-23.4 -397.054 -1489 173 179 197
-20.3757 -397.046 -1489 172 178 196
-17.3515 -397.039 -1489 170 176 194
-14.3371 -397.3 -1490 170 176 193
-11.3111 -397.295 -1490 170 176 196
-8.2965 -397.825 -1492 168 174 196
-5.2807 -398.889 -1496 167 173 193
-2.24587 -399.421 -1498 167 172 193
0.797056 -399.954 -1500 167 171 192
3.85342 -401.021 -1504 166 170 190
6.9167 -401.556 -1506 164 167 186
9.99496 -402.359 -1509 161 162 182
13.1028 -403.697 -1514 154 156 176
16.1988 -404.236 -1516 143 145 165
19.3286 -405.309 -1520 133 135 153
22.46 -406.116 -1523 122 124 141
25.6206 -407.192 -1527 115 117 133
28.7789 -408.002 -1530 110 112 130
31.9705 -409.08 -1534 107 108 124
35.1785 -410.159 -1538 103 104 118
38.3535 -410.706 -1540 101 102 118
41.4828 -410.72 -1540 98 99 115
44.4965 -409.669 -1536 121 122 138
47.4635 -408.353 -1531 149 153 173
50.4106 -407.037 -1526 160 164 184
53.3377 -405.722 -1521 167 169 189
56.2449 -404.409 -1516 174 176 196
59.1324 -403.096 -1511 174 176 196
62.1235 -402.584 -1509 175 177 198
64.9339 -401.007 -1503 179 181 200
67.8113 -399.964 -1499 181 183 201
70.72 -399.189 -1496 182 184 199
73.5187 -397.882 -1491 184 186 202
76.2975 -396.575 -1486 190 192 207
79.0565 -395.269 -1481 196 199 215
81.9622 -394.765 -1479 201 204 222
84.6881 -393.461 -1474 205 207 227
87.5132 -392.691 -1471 208 210 230
90.2654 -391.656 -1467 213 215 235
93.0655 -390.889 -1464 219 221 241
95.7885 -389.855 -1460 223 225 245
98.5638 -389.09 -1457 225 227 247
101.328 -388.326 -1454 226 228 246
104.367 -388.631 -1455 229 231 249
107.264 -388.403 -1454 229 231 250
110.309 -388.71 -1455 231 233 253
113.126 -388.217 -1453 233 235 255
116.255 -388.793 -1455 237 239 255
119.147 -388.569 -1454 237 239 255
122.204 -388.881 -1455 235 237 255
125.095 -388.659 -1454 232 234 253
128.158 -388.973 -1455 230 232 253
131.047 -388.754 -1454 228 230 250
134.116 -389.07 -1455 227 229 249
137.191 -389.387 -1456 223 226 245
140.175 -389.438 -1456 222 226 245
143.259 -389.758 -1457 220 224 244
146.347 -390.079 -1458 224 226 246
149.544 -390.669 -1460 225 227 247
152.855 -391.527 -1463 230 232 252
156.285 -392.655 -1467 236 238 255
159.625 -393.516 -1470 241 243 255
162.979 -394.379 -1473 245 246 255
166.12 -394.708 -1474 247 247 255
169.268 -395.038 -1475 247 247 255
172.538 -395.637 -1477 247 247 255
175.936 -396.505 -1480 246 247 255
179.348 -397.374 -1483 248 249 255
183.02 -398.781 -1488 249 251 255
186.589 -399.922 -1492 250 251 255
189.796 -400.259 -1493 249 252 253
193.653 -401.939 -1499 249 252 249
197.406 -403.352 -1504 253 253 255
200.781 -403.963 -1506 251 251 253
204.437 -405.111 -1510 251 251 254
207.837 -405.724 -1512 251 250 255
211.386 -406.607 -1515 248 247 254
213.958 -405.612 -1511 247 246 254
217.664 -406.766 -1515 249 248 255
219.932 -405.237 -1509 217 217 224
219.072 -398.067 -1482 98 99 111
-124.092 -393.354 -1460 195 207 225
-123.843 -402.198 -1493 232 244 255
-121.922 -405.924 -1507 240 249 255
-119.235 -407.226 -1512 241 250 255
-115.914 -406.374 -1509 241 250 255
-112.831 -406.332 -1509 241 248 255
-109.385 -404.944 -1504 240 248 254
-106.172 -404.366 -1502 240 250 254
-103.037 -404.058 -1501 241 251 255
-99.9073 -403.751 -1500 240 249 255
-96.7177 -403.176 -1498 239 246 255
-93.6622 -403.141 -1498 237 243 255
-90.426 -402.3 -1495 228 234 252
-87.2028 -401.46 -1492 216 222 244
-84.1054 -401.159 -1491 207 214 237
-81.1214 -401.397 -1492 207 215 239
-78.0295 -401.099 -1491 216 224 246
-74.9423 -400.802 -1490 222 230 252
-71.908 -400.774 -1490 224 232 252
-68.7356 -399.941 -1487 222 230 250
-65.6202 -399.379 -1485 220 228 248
-62.4714 -398.548 -1482 219 225 245
-59.4959 -398.795 -1483 212 218 239
-56.4404 -398.504 -1482 202 208 230
-53.4979 -399.022 -1484 194 200 222
-50.5475 -399.54 -1486 187 194 215
-47.5574 -399.791 -1487 181 189 210
-44.5338 -399.774 -1487 179 185 207
-41.5384 -400.027 -1488 179 185 207
-38.5135 -400.012 -1488 182 188 210
-35.4649 -399.73 -1487 186 192 214
-32.4427 -399.717 -1487 188 194 216
-29.4205 -399.706 -1487 188 194 213
-26.3988 -399.696 -1487 187 193 211
-23.3929 -399.955 -1488 181 187 206
-20.3695 -399.947 -1488 176 182 201
-17.3346 -399.671 -1487 170 176 195
-14.3328 -400.203 -1489 165 171 190
-11.3153 -400.467 -1490 165 171 192
-8.30503 -401.27 -1493 161 167 188
-5.28264 -402.074 -1496 158 164 184
-2.24511 -402.341 -1497 156 161 182
0.797001 -402.878 -1499 157 161 182
3.85237 -403.954 -1503 159 163 183
6.91943 -404.763 -1506 161 164 184
10.0054 -405.841 -1510 162 162 183
13.1163 -407.189 -1515 158 159 180
16.2262 -408.001 -1518 149 151 170
19.3485 -408.814 -1521 138 140 158
22.4831 -409.628 -1524 129 133 149
25.6468 -410.712 -1528 128 132 147
28.7896 -411.259 -1530 126 128 146
32.0031 -412.615 -1535 123 124 140
35.2144 -413.703 -1539 118 119 133
38.3925 -414.254 -1541 106 107 121
41.4981 -414 -1540 89 91 106
44.5421 -413.209 -1537 113 115 131
47.5741 -412.42 -1534 130 134 154
50.5283 -411.094 -1529 145 148 168
53.4978 -410.037 -1525 153 155 175
56.4885 -409.251 -1522 159 161 181
59.4283 -408.197 -1518 156 158 178
62.4346 -407.682 -1516 160 162 182
65.3037 -406.361 -1511 165 167 184
68.1531 -405.041 -1506 169 171 187
71.0772 -404.26 -1503 174 177 189
73.9403 -403.21 -1499 178 181 193
76.8393 -402.431 -1496 181 184 197
79.5664 -400.846 -1490 187 189 205
82.436 -400.069 -1487 191 193 210
85.2365 -399.024 -1483 194 196 214
88.0811 -398.249 -1480 194 196 215
90.791 -396.937 -1475 199 201 220
93.4814 -395.625 -1470 209 211 230
96.2177 -394.584 -1466 213 215 235
98.9385 -393.543 -1462 215 217 237
101.714 -392.773 -1459 218 220 240
104.549 -392.273 -1457 222 224 244
107.377 -391.774 -1455 226 228 247
110.426 -392.083 -1456 228 230 250
113.245 -391.586 -1454 232 234 254
116.298 -391.898 -1455 236 238 255
119.273 -391.942 -1455 238 240 255
122.333 -392.256 -1456 237 239 255
125.141 -391.763 -1454 234 236 254
128.206 -392.08 -1455 230 232 252
131.185 -392.128 -1455 227 229 249
134.074 -391.908 -1454 226 228 248
137.053 -391.958 -1454 223 228 245
140.227 -392.549 -1456 223 228 246
143.213 -392.601 -1456 221 225 245
146.301 -392.925 -1457 223 225 245
149.702 -394.059 -1461 225 227 247
153.016 -394.925 -1464 230 232 253
156.45 -396.061 -1468 234 236 254
159.902 -397.199 -1472 238 240 255
163.371 -398.339 -1476 242 243 255
166.52 -398.67 -1477 243 244 255
169.79 -399.273 -1479 241 242 255
172.952 -399.607 -1480 237 238 254
176.12 -399.942 -1481 237 238 252
179.778 -401.359 -1486 243 244 255
183.457 -402.777 -1491 245 246 255
186.659 -403.116 -1492 248 250 255
190.248 -404.268 -1496 249 251 254
193.854 -405.42 -1500 250 252 254
197.479 -406.575 -1504 251 251 255
200.989 -407.46 -1507 248 248 254
204.649 -408.618 -1511 241 242 251
207.914 -408.966 -1512 236 237 246
211.185 -409.314 -1513 232 233 241
214.037 -408.853 -1511 239 241 248
217.746 -410.016 -1515 249 248 254
220.014 -408.474 -1509 196 196 205
-123.474 -404.03 -1488 223 235 252
-121.805 -408.6 -1505 236 246 255
-119.279 -410.456 -1512 239 248 255
-116.111 -410.14 -1511 236 245 255
-112.723 -409.012 -1507 242 249 255
-109.207 -407.342 -1501 241 249 255
-106.141 -407.302 -1501 239 248 255
-103.076 -407.262 -1501 240 249 255
-99.9445 -406.953 -1500 240 249 255
-96.7537 -406.374 -1498 241 248 255
-93.6971 -406.338 -1498 241 248 255
-90.3991 -405.219 -1494 239 246 253
-87.2937 -404.915 -1493 234 240 254
-84.193 -404.611 -1492 220 227 248
-81.2603 -405.123 -1494 209 217 240
-78.1632 -404.822 -1493 209 217 239
-75.0707 -404.522 -1492 215 223 245
-72.0313 -404.495 -1492 220 228 248
-68.7612 -403.113 -1487 224 232 252
-65.6446 -402.546 -1485 226 234 254
-62.5368 -401.98 -1483 227 233 253
-59.4778 -401.686 -1482 226 232 253
-56.4615 -401.665 -1482 219 225 247
-53.4816 -401.915 -1483 210 216 238
-50.5662 -402.709 -1486 202 209 231
-47.5751 -402.962 -1487 195 203 225
-44.5503 -402.944 -1487 191 197 219
-41.5259 -402.928 -1487 186 192 214
-38.5277 -403.184 -1488 182 188 210
-35.4542 -402.629 -1486 184 190 212
-32.4547 -402.887 -1487 188 194 216
-29.4512 -403.146 -1488 195 201 222
-26.4441 -403.407 -1489 197 203 223
-23.4016 -403.127 -1488 198 204 225
-20.3633 -402.848 -1487 199 205 226
-17.3527 -403.112 -1488 198 204 225
-14.3381 -403.377 -1489 197 203 223
-11.3195 -403.643 -1490 193 199 219
-8.30264 -404.181 -1492 186 192 212
-5.28107 -404.991 -1495 179 185 205
-2.24604 -405.532 -1497 176 181 201
0.797294 -406.073 -1499 176 180 200
3.8537 -407.158 -1503 176 180 200
6.92659 -408.243 -1507 178 181 201
10.0222 -409.601 -1512 177 178 199
13.1298 -410.689 -1516 171 174 193
16.2321 -411.236 -1518 163 166 185
19.3684 -412.326 -1522 157 159 177
22.5063 -413.147 -1525 151 155 171
25.6565 -413.969 -1528 152 156 172
28.8755 -415.605 -1534 147 149 166
32.036 -416.158 -1536 141 142 157
35.2505 -417.254 -1540 132 133 147
38.4316 -417.81 -1542 101 102 116
41.5673 -417.825 -1542 83 85 100
44.5875 -416.757 -1538 126 128 145
47.6229 -415.961 -1535 142 146 166
50.6464 -415.166 -1532 153 156 176
53.6229 -414.102 -1528 156 158 178
56.5837 -413.038 -1524 161 163 183
59.5677 -412.247 -1521 157 159 179
62.5402 -411.457 -1518 154 156 176
65.5441 -410.939 -1516 153 155 171
68.4501 -409.879 -1512 154 157 171
71.3874 -409.092 -1509 159 162 173
74.2146 -407.764 -1504 163 166 177
77.1247 -406.979 -1501 167 170 181
79.8629 -405.381 -1495 174 177 190
82.7439 -404.598 -1492 177 179 193
85.5557 -403.545 -1488 177 179 195
88.4712 -403.035 -1486 179 181 199
91.1327 -401.441 -1480 187 189 207
93.9615 -400.662 -1477 197 199 217
96.6475 -399.341 -1472 201 203 223
99.4493 -398.564 -1469 205 207 226
102.17 -397.516 -1465 209 211 231
105.019 -397.012 -1463 215 217 236
107.639 -395.695 -1458 221 223 242
110.618 -395.736 -1458 225 227 246
113.443 -395.235 -1456 232 234 253
116.421 -395.278 -1456 237 239 255
119.317 -395.051 -1455 239 241 255
122.379 -395.367 -1456 237 239 255
125.274 -395.142 -1455 236 238 254
128.341 -395.461 -1456 234 236 254
131.234 -395.238 -1455 231 233 252
134.308 -395.56 -1456 230 232 252
137.388 -395.882 -1457 225 230 247
140.568 -396.478 -1459 223 228 246
143.66 -396.803 -1460 220 224 244
146.758 -397.129 -1461 220 222 242
150.168 -398.272 -1465 221 223 244
153.596 -399.417 -1469 225 227 248
157.041 -400.563 -1473 227 229 250
