ply
format ascii 1.0
comment Created by Open3D
element vertex 1445
property double x
property double y
property double z
property uchar red
property uchar green
property uchar blue
end_header
-64.9489 327.542 -1481 65 79 112
-63.0871 333.494 -1508 66 81 112
-60.8381 337.898 -1528 50 65 97
-58.2063 340.534 -1540 45 60 92
-55.1688 340.959 -1542 44 59 91
-52.1576 341.606 -1545 45 60 92
-48.9758 341.149 -1543 54 67 106
-45.9512 341.798 -1546 51 68 106
-42.804 341.564 -1545 56 77 114
-39.8667 343.098 -1552 60 80 108
-36.7359 343.087 -1552 65 83 107
-33.7353 344.403 -1558 83 94 109
-30.6125 344.614 -1559 113 109 119
-27.5388 345.49 -1563 150 140 147
-24.418 345.924 -1565 188 156 137
-21.3165 346.801 -1569 199 158 125
-18.1644 347.016 -1570 207 157 112
-15.0179 347.453 -1572 208 159 117
-11.8709 348.112 -1575 201 152 112
-8.701 348.33 -1576 195 145 113
-5.53064 348.77 -1578 186 139 108
-2.35077 348.99 -1579 181 135 106
0.83153 348.548 -1577 170 128 103
4.01341 348.769 -1578 159 122 98
7.19935 348.992 -1579 181 150 128
10.3698 348.553 -1577 165 193 191
13.5493 348.556 -1577 143 182 181
16.7077 348.119 -1575 112 180 174
19.8834 348.124 -1575 105 174 168
23.0302 347.689 -1573 107 177 171
26.2355 348.138 -1575 108 193 181
29.4118 348.147 -1575 103 191 178
32.5677 347.935 -1574 97 190 176
35.7427 347.946 -1574 93 187 175
38.9671 348.399 -1576 93 187 176
42.1466 348.411 -1576 95 191 182
45.2977 348.203 -1575 86 187 181
48.6298 349.323 -1580 48 152 146
51.8184 349.338 -1580 97 200 196
55.0771 349.797 -1582 112 215 213
58.3076 350.035 -1583 91 195 194
61.5425 350.274 -1584 113 219 217
64.782 350.514 -1585 103 209 208
68.1119 351.198 -1588 94 198 196
71.6341 352.767 -1595 88 190 188
75.0443 353.674 -1599 58 160 158
78.6183 355.246 -1606 70 138 144
81.9662 355.712 -1608 74 122 133
85.111 355.295 -1606 85 119 133
-116.958 304.397 -1387 57 77 112
-115.13 306.995 -1399 51 74 113
-113.014 308.936 -1408 58 84 129
-110.393 309.561 -1411 66 97 140
-107.913 310.625 -1416 65 97 140
-105.34 311.47 -1420 64 99 147
-102.751 312.316 -1424 59 97 142
-100.076 312.944 -1427 52 91 134
-97.3225 313.353 -1429 47 82 127
-94.6274 313.982 -1432 38 72 116
-91.6007 313.516 -1430 31 63 106
-88.9552 314.366 -1434 25 56 99
-85.994 314.12 -1433 20 50 94
-83.1537 314.314 -1434 25 46 83
-80.2539 314.29 -1434 25 45 80
-77.5706 315.143 -1438 28 45 78
-74.7161 315.339 -1439 29 46 79
-71.9579 315.974 -1442 34 51 83
-69.284 317.049 -1447 43 58 88
-66.5905 318.124 -1452 49 65 97
-64.0964 320.295 -1462 50 67 99
-61.5207 322.248 -1471 61 78 110
-59.5859 327.926 -1497 64 80 113
-57.5087 333.384 -1522 53 68 102
-54.7947 335.558 -1532 45 60 93
-52.0744 337.951 -1543 50 66 99
-48.9294 337.717 -1542 51 69 103
-45.9375 338.579 -1546 56 74 112
-42.8189 338.566 -1546 54 73 114
-39.8291 339.649 -1551 55 74 112
-36.6539 339.199 -1549 53 73 109
-33.6386 340.284 -1554 53 76 105
-30.5248 340.493 -1555 69 81 104
-27.4777 341.579 -1560 88 94 115
-24.3483 341.79 -1561 136 123 122
-21.2694 342.878 -1566 177 153 138
-18.1358 343.311 -1568 197 162 133
-15.0038 343.962 -1571 203 161 123
-11.8598 344.615 -1574 199 156 119
-8.70389 345.269 -1577 196 150 118
-5.5326 345.705 -1579 190 142 113
-2.3531 346.141 -1581 186 137 110
0.833385 346.141 -1581 173 131 106
4.01988 346.142 -1581 164 125 101
7.21097 346.363 -1582 163 127 104
10.393 346.146 -1581 173 182 177
13.5711 345.931 -1580 164 185 182
16.724 345.279 -1577 118 179 174
19.9155 345.503 -1578 105 172 166
23.0526 344.853 -1575 101 170 164
26.261 345.298 -1577 97 182 170
29.4591 345.525 -1578 94 182 170
32.6614 345.754 -1579 86 178 165
35.868 345.983 -1580 85 184 171
39.0544 345.994 -1580 82 182 170
42.2141 345.787 -1579 82 184 175
45.3704 345.581 -1578 81 183 177
48.6458 346.252 -1581 67 169 164
51.8684 346.487 -1582 75 174 170
55.1302 346.941 -1584 115 216 213
58.4005 347.396 -1586 91 195 193
61.796 348.509 -1591 81 181 179
64.8851 347.871 -1588 100 200 198
68.3488 349.205 -1594 85 186 184
71.6574 349.664 -1596 78 163 165
75.3502 351.877 -1606 61 142 145
79.133 354.31 -1617 70 119 129
-114.273 301.906 -1389 137 162 204
-111.937 303.176 -1395 137 167 216
-109.656 304.664 -1402 132 167 215
-107.424 306.371 -1410 130 164 212
-104.641 306.556 -1411 126 160 210
-102.071 307.395 -1415 112 149 196
-99.4154 308.016 -1418 97 137 182
-96.4083 307.553 -1416 93 128 174
-93.7405 308.176 -1419 87 121 167
-90.8691 308.149 -1419 79 113 157
-88.1845 308.774 -1422 71 102 147
-85.4285 309.182 -1424 60 90 135
-82.839 310.243 -1429 51 73 115
-80.0063 310.436 -1430 40 60 100
-77.278 311.064 -1433 30 48 85
-74.4863 311.476 -1435 20 38 77
-71.6871 311.888 -1437 20 38 76
-69.0241 312.952 -1442 25 39 74
-66.2955 313.8 -1446 25 42 76
-63.6829 315.3 -1453 28 47 80
-61.0843 317.018 -1461 37 54 86
-58.6927 320.038 -1475 45 62 94
-56.4339 324.143 -1494 60 76 110
-54.2778 329.334 -1518 60 75 109
-51.7553 332.789 -1534 55 70 104
-48.788 333.642 -1538 50 71 102
-45.8644 334.93 -1544 51 71 108
-42.8062 335.35 -1546 52 71 112
-39.7917 336.206 -1550 52 70 113
-36.6666 336.195 -1550 51 72 112
-33.6285 337.052 -1554 48 75 110
-30.4961 337.042 -1554 57 76 106
-27.4168 337.684 -1557 64 82 110
-24.2943 337.894 -1558 82 85 102
-21.236 339.188 -1564 111 105 112
-18.0957 339.399 -1565 149 134 132
-14.9899 340.479 -1570 188 155 127
-11.8563 341.342 -1574 191 155 124
-8.69595 341.773 -1576 196 155 120
-5.53438 342.638 -1580 199 149 125
-2.35395 343.071 -1582 191 138 118
0.834714 343.504 -1584 177 135 109
4.02636 343.505 -1584 166 128 104
7.21785 343.507 -1584 153 120 97
10.3964 343.076 -1582 169 155 145
13.5754 342.862 -1581 189 187 179
16.7401 342.433 -1579 135 183 178
19.9221 342.439 -1579 106 168 161
23.0748 342.011 -1577 100 169 161
26.3363 343.103 -1582 90 175 164
29.5249 343.111 -1582 82 172 161
32.7757 343.771 -1585 61 157 146
35.9708 343.781 -1585 62 162 152
39.1662 343.792 -1585 69 170 160
42.3619 343.805 -1585 69 171 162
45.5006 343.384 -1583 73 175 169
48.7237 343.615 -1584 72 174 169
51.9186 343.63 -1584 61 164 157
55.2181 344.296 -1587 100 202 197
58.5304 344.964 -1590 101 202 200
61.9328 346.067 -1595 70 169 166
65.1517 346.085 -1595 86 182 179
68.5854 347.19 -1600 84 169 170
71.8605 347.428 -1601 71 133 140
75.6562 350.054 -1613 67 124 133
79.3539 352.03 -1622 78 113 127
-113.17 296.214 -1376 144 170 207
-111.022 297.903 -1384 135 168 211
-108.92 299.808 -1393 128 169 214
-105.488 298.055 -1385 123 165 210
-103.201 299.531 -1392 116 158 206
-100.671 300.362 -1396 110 150 196
-98.3348 301.838 -1403 102 141 186
-95.6312 302.24 -1405 96 131 177
-93.0523 303.073 -1409 90 125 171
-90.5222 304.121 -1414 80 114 160
-87.8485 304.74 -1417 73 105 150
-85.0435 304.93 -1418 67 99 143
-82.409 305.766 -1422 70 97 142
-79.7031 306.387 -1425 70 95 139
-77.2013 307.869 -1432 68 91 132
-74.4124 308.276 -1434 57 79 121
-71.7158 309.115 -1438 43 64 105
-68.908 309.524 -1440 31 48 86
-66.1385 310.149 -1443 24 42 77
-63.4889 311.42 -1449 21 40 73
-60.6902 312.046 -1452 27 44 76
-57.9992 313.318 -1458 31 48 81
-55.5111 315.88 -1470 45 62 96
-53.5469 321.881 -1498 62 77 111
-51.133 325.734 -1516 61 76 110
-48.6151 329.371 -1533 51 72 105
-45.7618 331.076 -1541 47 68 104
-42.766 331.923 -1545 48 68 106
-39.7543 332.77 -1549 51 69 107
-36.6086 332.544 -1548 51 68 107
-33.597 333.608 -1553 49 68 106
-30.4479 333.384 -1552 49 65 103
-27.3735 334.02 -1555 49 64 102
-24.2716 334.442 -1557 57 67 87
-21.189 335.294 -1561 68 74 89
-18.0673 335.718 -1563 90 92 101
-14.9473 336.358 -1566 128 115 111
-11.8303 337.428 -1571 166 148 140
-8.68233 338.069 -1574 185 156 137
-5.52586 338.926 -1578 194 153 132
-2.3561 340.214 -1584 189 143 121
0.835518 340.643 -1586 182 141 118
4.0352 341.073 -1588 171 134 110
7.2386 341.29 -1589 159 127 103
10.4262 340.863 -1587 153 125 107
13.6144 340.652 -1586 194 176 160
16.7777 340.012 -1583 152 181 172
19.954 339.802 -1582 111 163 156
23.1265 339.594 -1581 101 166 159
26.3785 340.46 -1585 97 179 170
29.6282 341.113 -1588 91 178 169
32.8694 341.552 -1590 66 160 152
36.0963 341.777 -1591 54 151 143
39.3523 342.217 -1593 52 149 142
42.4297 341.155 -1588 52 150 142
45.5734 340.739 -1586 62 158 153
48.7709 340.752 -1586 66 161 157
51.936 340.552 -1585 61 161 154
55.2366 341.213 -1588 82 179 175
58.5867 342.089 -1592 108 202 201
61.8758 342.536 -1594 94 182 180
65.1733 342.985 -1596 82 165 165
68.5652 343.864 -1600 69 134 139
71.8843 344.314 -1602 76 117 130
75.2118 344.766 -1604 82 115 129
-109.065 289.908 -1360 126 154 185
-84.2992 299.427 -1406 67 98 143
-81.9214 301.107 -1414 64 97 143
-79.1206 301.296 -1415 66 96 141
-76.8015 303.403 -1425 67 95 138
-74.2351 304.658 -1431 64 90 134
-71.4956 305.276 -1434 56 82 125
-68.8401 306.32 -1439 45 67 106
-66.0734 306.939 -1442 40 60 95
-63.2952 307.559 -1445 30 49 82
-60.5472 308.392 -1449 31 48 82
-57.8232 309.439 -1454 30 47 81
-55.0796 310.487 -1459 31 48 82
-52.4235 312.174 -1467 47 64 98
-50.3088 317.478 -1492 64 81 115
-48.1254 322.997 -1518 58 74 107
-45.5704 326.6 -1535 50 67 101
-42.6704 328.077 -1542 49 67 101
-39.7171 329.341 -1548 53 70 106
-36.6216 329.543 -1549 52 69 107
-33.5657 330.171 -1552 48 66 108
-30.4587 330.374 -1553 42 60 102
-27.3479 330.579 -1554 39 56 98
-24.249 330.997 -1556 43 55 79
-21.1421 331.416 -1558 49 59 80
-18.0158 331.623 -1559 60 69 87
-14.8953 332.043 -1561 78 80 92
-11.7892 333.103 -1566 111 109 117
-8.65771 333.951 -1570 150 134 131
-5.51366 335.013 -1575 180 151 138
-2.34952 336.075 -1580 186 151 133
0.834743 337.138 -1585 181 144 123
4.03153 337.564 -1587 175 139 116
7.24095 338.204 -1590 169 136 110
10.4428 338.207 -1590 161 124 98
13.6276 337.785 -1588 175 146 122
16.7938 337.151 -1585 169 176 166
19.9985 337.369 -1586 125 165 156
23.193 337.376 -1586 99 155 148
26.4374 338.021 -1589 82 158 150
29.6941 338.667 -1592 75 157 150
32.9631 339.315 -1595 73 164 157
36.1538 339.112 -1594 70 159 154
39.4395 339.761 -1597 59 147 143
42.524 338.709 -1592 53 141 139
45.6462 338.084 -1589 56 140 139
48.8181 337.885 -1588 62 143 143
51.9537 337.474 -1586 59 150 145
55.1163 337.276 -1585 67 155 153
58.4225 337.931 -1588 82 165 167
61.78 338.8 -1592 100 158 163
65.236 340.095 -1598 93 147 153
68.631 340.966 -1602 81 120 131
71.9977 341.625 -1605 83 112 128
-106.902 229.494 -1086 254 252 253
-92.3104 286.274 -1357 91 127 175
-81.0289 295.008 -1399 62 97 143
-78.8183 297.304 -1410 61 94 138
-76.2944 298.547 -1416 61 91 134
-73.8507 300.212 -1424 65 93 136
-71.3253 301.667 -1431 64 91 134
-68.6767 302.701 -1436 56 81 120
-65.9628 303.525 -1440 53 74 109
-63.1455 303.928 -1442 40 59 92
-60.3208 304.331 -1444 35 53 87
-57.5283 304.947 -1447 32 50 84
-54.7241 305.563 -1450 27 44 79
-52.0869 307.233 -1458 35 53 88
-49.519 309.537 -1469 60 78 113
-47.3191 314.58 -1493 66 84 114
-45.2011 320.887 -1523 54 71 104
-42.4922 323.614 -1536 48 66 99
-39.6287 325.498 -1545 52 69 105
-36.5638 325.909 -1547 52 70 108
-33.5344 326.741 -1551 45 65 110
-30.4695 327.364 -1554 41 61 105
-27.3401 327.356 -1554 36 56 100
-24.2576 327.98 -1557 37 48 78
-21.1496 328.395 -1559 39 48 76
-18.0107 328.389 -1559 47 55 81
-14.8718 328.385 -1559 47 62 80
-11.7557 329.013 -1562 67 79 95
-8.6221 329.431 -1564 90 90 99
-5.49118 330.482 -1569 132 117 120
-2.34295 331.956 -1576 166 146 145
0.832918 333.219 -1582 178 148 129
4.03041 334.273 -1587 177 143 121
7.24332 335.117 -1591 176 140 113
10.4529 335.33 -1592 172 136 109
13.6494 335.123 -1591 163 131 107
16.8526 335.128 -1591 175 165 153
20.0559 335.133 -1591 147 169 161
23.2448 334.929 -1590 115 154 147
26.5129 335.778 -1594 90 156 148
29.7788 336.418 -1597 79 148 141
33.057 337.059 -1600 59 134 129
36.2568 336.859 -1599 65 137 136
39.5269 337.291 -1601 59 132 132
42.6721 336.671 -1598 56 129 132
45.8627 336.473 -1597 62 126 132
48.927 335.433 -1592 66 126 133
52.0695 335.026 -1590 66 123 128
55.2741 335.042 -1590 67 119 127
58.4423 334.847 -1589 73 119 129
61.5682 334.443 -1587 77 113 124
68.2685 335.956 -1594 89 113 128
-106.773 227.027 -1085 253 253 254
-84.4274 284.635 -1363 78 110 157
-79.9636 288.347 -1381 66 99 147
-77.5663 289.786 -1388 65 96 142
-75.4107 292.269 -1400 60 89 133
-73.1555 294.545 -1411 64 90 136
-70.8067 296.612 -1421 67 93 138
-68.2747 298.053 -1428 61 88 128
-65.6234 299.077 -1433 62 84 120
-62.9962 300.311 -1439 49 69 102
-60.1783 300.711 -1441 34 53 86
-57.3529 301.112 -1443 32 51 85
-54.5953 301.931 -1447 37 54 90
-51.8219 302.75 -1451 36 54 90
-49.0667 303.779 -1456 46 65 100
-46.7036 307.521 -1474 59 81 111
-44.7432 314.601 -1508 60 80 116
-42.2035 318.344 -1526 50 68 107
-39.4379 320.836 -1538 47 61 104
-36.4825 322.076 -1544 48 65 107
-33.5032 323.318 -1550 44 65 106
-30.4412 323.935 -1553 42 63 103
-27.3322 324.135 -1554 40 61 100
-24.2507 324.754 -1557 35 54 86
-21.1164 324.747 -1557 32 48 79
-17.994 324.95 -1558 34 46 75
-14.8581 324.946 -1558 37 48 74
-11.7373 325.359 -1560 49 60 85
-8.59223 325.147 -1559 57 66 89
-5.46853 325.98 -1563 78 76 89
-2.32896 326.813 -1567 114 107 116
0.828464 328.273 -1574 149 133 127
4.01134 329.525 -1580 165 141 130
7.22314 330.986 -1587 175 143 125
10.4367 331.614 -1590 174 142 119
13.6712 332.452 -1594 169 139 118
16.8902 332.665 -1595 165 145 133
20.1131 332.879 -1596 167 174 165
23.3258 332.885 -1596 138 159 152
26.5719 333.309 -1598 103 153 148
29.8074 333.526 -1599 95 149 145
33.0681 333.952 -1601 78 137 135
36.269 333.753 -1600 65 120 124
39.565 334.39 -1603 60 115 120
42.7398 333.984 -1601 60 116 124
45.9931 334.206 -1602 65 113 124
49.128 333.593 -1599 72 115 128
52.2838 333.191 -1597 84 115 128
55.3974 332.58 -1594 88 113 128
58.3152 330.927 -1586 99 115 134
-107.944 222.732 -1075 254 253 253
-105.857 222.908 -1076 253 253 253
-94.0719 270.147 -1306 116 138 165
-91.8509 271.362 -1312 92 121 151
-89.8103 273.198 -1321 68 100 145
-87.6682 274.827 -1329 57 89 133
-85.6862 277.078 -1340 55 87 131
-83.8462 279.948 -1354 63 95 138
-81.2915 280.545 -1357 69 101 144
-79.1305 282.59 -1367 66 98 147
-77.0415 285.049 -1379 64 95 141
-74.7971 287.094 -1389 59 88 133
-72.7202 289.967 -1403 60 88 135
-70.3882 292.014 -1413 65 92 139
-67.9686 293.854 -1422 61 87 130
-65.4216 295.282 -1429 63 86 124
-62.7595 296.297 -1434 64 85 120
-59.9943 296.899 -1437 49 68 101
-57.2175 297.503 -1440 34 52 86
-54.4289 298.107 -1443 37 54 90
-51.6645 298.918 -1447 36 53 89
-48.9518 300.144 -1453 42 60 96
-46.437 302.816 -1466 57 73 109
-43.7813 304.868 -1476 63 81 118
-41.6386 311.053 -1506 60 80 117
-39.1447 315.379 -1527 50 68 107
-36.3541 317.847 -1539 44 63 103
-33.4073 319.282 -1546 42 64 103
-30.3738 320.099 -1550 43 66 106
-27.2894 320.504 -1552 40 63 103
-24.2127 321.117 -1555 36 60 97
-21.0969 321.317 -1556 35 54 88
-17.9889 321.724 -1558 35 49 80
-14.8444 321.513 -1557 36 46 76
-11.719 321.716 -1558 38 49 79
-8.57873 321.507 -1557 37 54 84
-5.45309 321.918 -1559 56 64 85
-2.31944 322.33 -1561 71 76 92
0.823489 323.156 -1565 93 92 104
3.98233 323.982 -1569 123 113 119
7.17549 325.636 -1577 153 131 128
10.3945 327.084 -1584 169 145 129
13.6416 328.532 -1591 168 144 127
16.8853 329.363 -1595 166 139 127
20.1201 329.781 -1597 169 161 152
23.3337 329.787 -1597 168 170 163
26.5976 330.414 -1600 136 168 167
29.8363 330.628 -1601 109 146 146
33.0795 330.843 -1602 89 134 135
36.3267 331.06 -1603 77 115 124
39.6031 331.484 -1605 74 110 120
42.8078 331.289 -1604 79 113 127
46.0376 331.301 -1604 78 112 127
-105.336 219.65 -1071 254 251 253
-86.9841 270.027 -1319 92 115 151
-84.8951 271.845 -1328 71 95 132
-82.5846 273.05 -1334 55 86 124
-80.4303 274.869 -1343 44 75 114
-78.2981 276.894 -1353 53 87 134
-75.8471 277.896 -1358 62 96 141
-73.8071 280.535 -1371 60 94 136
-71.9744 284.198 -1389 55 91 135
-69.721 286.428 -1400 58 92 136
-67.4717 288.864 -1412 64 91 134
-64.9457 290.278 -1419 65 90 128
-62.4357 291.897 -1427 63 86 122
-59.8105 293.107 -1433 65 87 123
-57.0822 293.909 -1437 48 68 105
-54.376 294.916 -1442 27 46 83
-51.6144 295.719 -1446 22 40 76
-48.8371 296.523 -1450 36 54 90
-46.1074 297.737 -1456 49 64 103
-43.5318 300.178 -1468 53 71 109
-40.9636 303.029 -1482 54 75 111
-38.8519 309.97 -1516 53 75 109
-36.155 313.027 -1531 47 69 105
-33.3115 315.266 -1542 44 66 107
-30.3262 316.484 -1548 39 66 108
-27.2466 316.885 -1550 35 63 106
-24.1747 317.491 -1553 37 63 106
-21.0911 318.098 -1556 37 57 95
-17.9839 318.501 -1558 35 49 80
-14.8593 318.701 -1559 34 47 76
-11.7233 318.698 -1559 32 47 76
-8.58179 318.49 -1558 29 50 77
-5.44797 318.488 -1558 43 56 84
-2.31122 318.079 -1556 46 56 84
0.819571 318.487 -1558 52 65 93
3.96349 319.306 -1562 72 78 100
7.13263 320.534 -1568 103 99 113
10.3194 321.558 -1573 146 127 122
13.5692 323.606 -1583 165 142 134
16.8488 325.45 -1592 170 143 131
20.1143 326.477 -1597 162 146 138
23.3563 326.892 -1599 182 173 167
26.6068 327.308 -1601 156 175 177
29.8466 327.52 -1602 121 142 147
33.0907 327.734 -1603 93 117 125
36.3167 327.743 -1603 85 112 125
39.5427 327.754 -1603 83 111 124
-95.2368 219.116 -1080 253 228 218
-93.8237 220.916 -1089 252 224 212
-90.1204 261.063 -1288 221 222 219
-88.0615 262.659 -1296 168 175 189
-85.971 264.257 -1304 133 143 161
-84.0407 266.462 -1315 114 128 154
-82.1285 268.871 -1327 80 106 141
-79.6895 269.659 -1331 51 80 118
-77.5244 271.46 -1340 42 75 117
-75.3793 273.465 -1350 48 81 122
-73.2485 275.673 -1361 53 85 126
-71.4364 279.299 -1379 54 89 131
-69.0545 280.899 -1387 55 89 131
-67.023 284.121 -1403 62 90 133
-64.6074 285.925 -1412 66 92 130
-62.1122 287.528 -1420 62 87 123
-59.5436 288.928 -1427 67 90 129
-56.9076 290.127 -1433 63 85 123
-54.2101 291.124 -1438 44 66 103
-51.4574 291.919 -1442 24 45 81
-48.7226 292.918 -1447 27 48 83
-45.968 293.917 -1452 47 64 102
-43.2826 295.524 -1460 54 73 110
-40.7312 298.346 -1474 48 69 106
-38.2006 301.776 -1491 50 71 110
-35.7909 306.826 -1516 52 73 112
-33.1728 310.864 -1536 45 66 106
-30.2395 312.474 -1544 43 66 108
-27.204 313.276 -1548 38 62 105
-24.1681 314.281 -1553 40 63 106
-21.0853 314.882 -1556 40 59 96
-17.9905 315.483 -1559 36 50 81
-14.8647 315.681 -1560 28 42 70
-11.7276 315.678 -1560 30 44 73
-8.57955 315.27 -1558 28 46 75
-5.44656 315.268 -1558 32 47 78
-2.30914 314.66 -1555 36 50 81
0.818287 314.862 -1556 47 61 89
3.94956 315.065 -1557 56 66 92
7.10326 316.079 -1562 65 70 92
10.2706 316.89 -1566 96 87 96
13.5055 318.917 -1576 132 120 125
16.7278 319.933 -1581 153 136 135
20.0333 321.962 -1591 157 142 141
23.2916 322.777 -1595 158 145 144
26.5495 323.391 -1598 136 144 151
29.8384 324.209 -1602 110 118 127
33.1642 325.229 -1607 103 111 125
36.5104 326.251 -1612 90 111 126
-132.201 206.647 -1026 0 0 0
-98.2055 213.92 -1065 252 231 220
-96.8582 215.701 -1074 252 228 224
-94.858 216.076 -1076 252 227 217
-93.4534 217.857 -1085 252 224 212
-87.0184 256.969 -1281 245 236 232
-85.2224 259.353 -1293 207 201 202
-82.9953 260.534 -1299 157 157 164
-80.9922 262.517 -1309 124 139 163
-79.1888 265.302 -1323 93 113 142
-76.809 266.284 -1328 57 84 118
-74.6888 268.268 -1338 34 62 99
-72.5289 270.253 -1348 41 70 110
-70.6918 273.641 -1365 53 83 124
-68.3885 275.427 -1374 57 87 128
-66.2405 278.014 -1387 60 86 130
-64.178 281.203 -1403 64 89 128
-61.7017 282.789 -1411 63 88 124
-59.277 284.777 -1421 64 88 127
-56.6935 286.164 -1428 66 89 127
-54.12 287.752 -1436 63 85 122
-51.3719 288.539 -1440 46 67 102
-48.6419 289.528 -1445 35 56 91
-45.8921 290.516 -1450 46 64 101
-43.1818 291.907 -1457 53 73 109
-40.4438 293.298 -1464 48 69 106
-37.8316 295.891 -1477 50 70 110
-35.4034 300.489 -1500 64 84 124
-32.9693 305.889 -1527 58 77 118
-30.1138 308.083 -1538 47 67 110
-27.1614 309.678 -1546 44 65 108
-24.1148 310.472 -1550 45 65 107
-21.0524 311.267 -1554 44 62 99
-17.974 312.063 -1558 39 55 87
-14.8512 312.259 -1559 32 46 73
-11.7244 312.456 -1560 30 44 72
-8.58265 312.253 -1559 30 44 75
-5.44516 312.051 -1558 32 47 78
-2.30856 311.449 -1555 33 47 79
0.818058 311.649 -1556 42 54 79
3.94344 311.449 -1555 46 57 82
7.08321 312.052 -1558 52 61 88
10.2349 312.655 -1561 62 67 89
13.4075 313.459 -1565 73 76 97
16.6174 314.665 -1571 101 103 123
19.8766 316.272 -1579 123 124 139
23.0953 316.879 -1582 126 126 138
26.3595 317.888 -1587 113 116 132
29.6812 319.297 -1594 109 114 128
33.1549 321.91 -1607 107 114 126
-97.7943 206.374 -1038 255 233 221
-96.8882 208.932 -1051 253 229 218
-95.7499 211.093 -1062 252 226 222
-93.7745 211.465 -1064 253 225 216
-92.3947 213.228 -1073 253 224 212
-90.9791 214.992 -1082 253 223 206
-86.1119 251.741 -1268 248 231 219
-84.2108 253.703 -1278 248 233 222
-82.334 255.864 -1289 226 214 207
-80.2279 257.43 -1297 159 159 171
-78.3295 259.79 -1309 133 139 157
-76.499 262.548 -1323 97 118 142
-74.0547 263.321 -1327 60 82 113
-71.9713 265.484 -1338 44 68 106
-69.7924 267.449 -1348 48 72 111
-67.9221 270.803 -1365 52 77 117
-65.6974 272.968 -1376 55 81 124
-63.5661 275.727 -1390 59 84 124
-61.5101 279.083 -1407 61 85 124
-59.0941 281.05 -1417 61 85 124
-56.5193 282.422 -1424 61 84 123
-53.9545 283.994 -1432 65 87 125
-51.3223 285.368 -1439 59 80 116
-48.5614 286.148 -1443 49 69 105
-45.8164 287.127 -1448 48 66 103
-43.0517 288.106 -1453 51 70 107
-40.2948 289.285 -1459 46 67 104
-37.5909 291.059 -1468 41 61 101
-35.0871 294.816 -1487 51 70 111
-32.5288 298.772 -1507 60 78 120
-29.9881 303.72 -1532 55 73 115
-27.0838 305.695 -1542 49 67 110
-24.0928 307.075 -1549 44 64 106
-21.0467 308.061 -1554 42 61 99
-17.9692 308.848 -1558 38 56 89
-14.8567 309.24 -1560 32 47 76
-11.7287 309.435 -1561 30 45 74
-8.59146 309.432 -1561 30 44 75
-5.45057 309.232 -1560 32 46 77
-2.31095 308.636 -1557 33 47 78
0.818165 308.636 -1557 33 47 73
3.94494 308.439 -1556 36 49 75
7.07209 308.44 -1556 43 53 81
10.2126 308.839 -1558 50 58 82
13.3781 309.635 -1562 61 69 93
16.5387 310.036 -1564 75 82 105
19.7329 310.833 -1568 92 98 118
22.9138 311.236 -1570 100 106 124
26.1364 312.035 -1574 105 109 129
29.3567 312.638 -1577 106 112 130
32.8366 315.62 -1592 105 114 128
-111.344 165.364 -838 255 231 227
-92.2326 174.046 -884 254 253 254
-86.1356 169.076 -859 249 242 244
-85.3749 171.021 -869 246 234 235
-87.5569 179.066 -910 255 235 234
-91.6456 191.439 -973 254 230 221
-95.4796 203.808 -1036 253 228 218
-94.6424 206.536 -1050 254 225 220
-93.1325 207.888 -1057 254 223 212
-91.6811 209.437 -1065 253 221 208
-79.588 252.788 -1287 236 221 218
-77.3513 253.946 -1293 145 134 136
-75.727 257.264 -1310 120 129 143
-73.7001 259.404 -1321 98 112 136
-71.8444 262.33 -1336 61 81 114
-69.5666 263.882 -1344 44 66 102
-67.4064 266.023 -1355 42 65 102
-65.3457 268.754 -1369 50 77 116
-63.2747 271.681 -1384 59 84 123
-60.9691 273.824 -1395 59 83 122
-58.7864 276.752 -1410 61 85 124
-56.3058 278.503 -1419 63 86 125
-53.7894 280.255 -1428 64 86 125
-51.1303 281.419 -1434 60 81 118
-48.4138 282.387 -1439 53 74 111
-45.7092 283.551 -1445 45 63 101
-42.9217 284.325 -1449 49 69 107
-40.1459 285.295 -1454 45 66 103
-37.4016 286.658 -1461 41 61 101
-34.7238 288.806 -1472 48 68 108
-32.2611 293.31 -1495 57 77 119
-29.7844 298.599 -1522 61 80 121
-26.9887 301.534 -1537 52 70 111
-24.0552 303.489 -1547 38 59 102
-21.0275 304.66 -1553 38 59 98
-17.9528 305.44 -1557 37 57 92
-14.8527 306.024 -1560 33 48 78
-11.7256 306.216 -1561 29 44 74
-8.5946 306.41 -1562 31 44 76
-5.45618 306.408 -1562 32 45 76
-2.31631 306.211 -1561 31 45 75
0.819515 306.014 -1560 29 43 71
3.95152 305.819 -1559 33 46 74
7.0839 305.82 -1559 38 49 78
10.2163 305.823 -1559 44 55 83
13.3574 306.022 -1560 51 63 90
16.5026 306.222 -1561 59 70 99
19.6647 306.619 -1563 70 81 105
22.8202 306.821 -1564 79 89 110
26.0132 307.416 -1567 87 94 116
29.2185 308.012 -1570 87 95 115
32.6835 310.963 -1585 77 87 104
36.1865 313.719 -1599 74 89 107
-111.595 152.445 -780 245 236 235
-110.138 152.611 -781 249 239 235
-107.897 153.92 -788 250 239 229
-107.228 155.259 -795 249 235 227
-108.032 161.254 -826 255 237 233
-94.2829 169.539 -870 255 252 251
-86.2624 161.113 -827 250 245 244
-83.049 158.168 -812 246 236 236
-81.401 158.146 -812 253 230 229
-80.0483 158.709 -815 249 223 221
-79.9346 161.804 -831 248 214 210
-87.1618 184.148 -946 252 226 217
-91.6435 197.944 -1017 255 222 214
-91.6102 202.396 -1040 255 221 209
-90.6239 204.902 -1053 255 221 206
-89.7538 207.796 -1068 253 219 200
-84.0295 240.673 -1238 252 229 218
-78.7013 247.412 -1273 250 229 218
-76.9121 249.918 -1286 226 206 199
-74.9556 252.036 -1297 128 125 130
-73.0111 254.348 -1309 117 123 139
-71.2339 257.437 -1325 89 103 131
-69.1342 259.556 -1336 56 76 111
-67.0901 262.064 -1349 41 63 98
-64.9465 264.377 -1361 40 67 102
-62.8008 266.886 -1374 54 79 117
-60.6908 269.783 -1389 57 81 120
-58.4791 272.486 -1403 58 82 121
-56.2512 275.384 -1418 61 84 123
-53.6998 276.923 -1426 62 84 123
-51.1167 278.463 -1434 59 81 119
-48.3673 279.227 -1438 55 76 113
-45.6655 280.379 -1444 51 69 108
-42.8806 281.144 -1448 51 71 109
-40.0525 281.716 -1451 47 68 107
-37.2382 282.482 -1455 44 64 104
-34.5024 284.026 -1463 44 64 105
-31.7995 286.153 -1474 48 69 111
-29.3657 291.386 -1501 59 78 119
-26.8587 297.008 -1530 57 76 116
-23.9711 299.331 -1542 47 69 112
-20.9678 300.684 -1549 47 68 109
-17.925 301.844 -1555 42 63 100
-14.8298 302.422 -1558 38 53 84
-11.7149 302.806 -1560 30 45 77
-8.59794 303.386 -1563 27 40 75
-5.45831 303.384 -1563 24 39 70
-2.31723 303.189 -1562 23 38 67
0.819817 302.995 -1561 25 39 68
3.95285 302.801 -1560 31 44 74
7.0819 302.609 -1559 35 46 76
10.2135 302.611 -1559 35 50 81
13.3453 302.614 -1559 42 56 87
16.4665 302.424 -1558 51 66 98
19.609 302.623 -1559 57 72 100
22.7411 302.628 -1559 60 75 101
25.8736 302.635 -1559 76 88 112
29.0991 303.613 -1564 88 100 122
32.5305 306.339 -1578 77 91 109
36.0863 309.648 -1595 75 92 110
-113.883 149.727 -774 223 215 215
-112.875 150.471 -778 249 241 241
-111.709 151.021 -781 254 248 244
-110.249 151.185 -782 254 248 244
-108.648 151.156 -782 255 248 243
-107.184 151.321 -783 255 246 237
-105.986 151.873 -786 254 243 234
-105.574 153.584 -795 255 247 240
-105.126 155.294 -804 255 248 242
-105.029 157.584 -816 254 247 242
-104.883 159.874 -828 255 248 244
-104.44 161.777 -838 255 248 245
-102.976 162.135 -840 255 249 247
-101.384 162.301 -841 255 250 249
-100.5 163.626 -848 255 251 250
-99.2395 164.371 -852 255 252 252
-98.3065 165.695 -859 255 251 249
-96.6714 165.863 -860 254 250 247
-93.598 163.523 -848 255 251 247
-89.9242 160.029 -830 255 252 248
-87.0686 157.885 -819 255 249 247
-84.3625 155.934 -809 255 241 239
-82.1068 154.756 -803 254 236 235
-80.4775 154.735 -803 255 233 233
-78.8488 154.714 -803 255 229 228
-77.7016 155.656 -808 252 220 217
-77.3821 158.333 -822 247 213 209
-79.6777 166.594 -865 250 212 207
-84.5024 180.631 -938 251 216 209
-90.2651 197.361 -1025 254 220 207
-89.8256 200.996 -1044 255 221 205
-89.3941 204.822 -1064 254 218 198
-88.0624 206.724 -1074 251 217 198
-83.3289 236.197 -1228 252 228 217
-78.0625 242.865 -1263 252 228 214
-76.2342 245.152 -1275 251 227 214
-74.5315 248.017 -1290 188 175 172
-72.4343 249.728 -1299 119 116 124
-71.0003 253.938 -1321 113 120 142
-69.116 256.803 -1336 74 91 127
-66.973 258.9 -1347 48 68 103
-64.6909 260.612 -1356 36 61 96
-62.4188 262.518 -1366 44 68 107
-60.369 265.576 -1382 55 79 119
-58.2553 268.636 -1398 56 80 121
-55.9985 271.311 -1412 59 82 122
-53.4975 273.026 -1421 60 82 121
-51.0321 275.125 -1432 57 79 117
-48.321 276.073 -1437 57 79 116
-45.5902 277.021 -1442 53 72 112
-42.7806 277.586 -1445 51 71 111
-39.9592 278.152 -1448 48 69 109
-37.1516 278.91 -1452 45 66 106
-34.3755 280.053 -1458 42 63 103
-31.6186 281.581 -1466 39 61 102
-29.1428 286.183 -1490 49 72 113
-26.5006 290.017 -1510 54 76 117
-23.8249 294.428 -1533 50 74 117
-20.8946 296.535 -1544 49 71 112
-17.8858 298.066 -1552 44 65 103
-14.8164 299.022 -1557 43 58 90
-11.7194 299.787 -1561 35 50 82
-8.60662 300.553 -1565 27 40 78
-5.46724 300.743 -1566 23 37 69
-2.32092 300.55 -1565 22 37 66
0.821171 300.357 -1564 25 39 69
3.95945 300.166 -1563 32 44 75
7.08465 299.591 -1560 33 44 75
10.2175 299.594 -1560 31 45 77
13.3503 299.597 -1560 36 51 82
16.4622 299.217 -1558 39 55 87
19.5913 299.221 -1558 47 63 93
22.7206 299.227 -1558 55 71 99
25.8833 299.617 -1560 65 79 107
29.0914 300.393 -1564 65 79 104
32.3983 301.937 -1572 58 73 93
35.8506 304.443 -1585 56 73 92
39.454 307.719 -1602 63 81 99
-126.099 147.8 -771 172 171 176
-124.671 147.959 -772 165 163 169
-118.194 145.756 -761 151 144 150
-116.016 144.959 -757 203 195 196
-115.519 146.269 -764 229 220 220
-114.099 146.43 -765 246 237 231
-113.264 147.357 -770 254 242 238
-112.41 148.285 -775 255 246 241
-111.107 148.638 -777 255 249 243
-109.938 149.183 -780 255 250 245
-108.341 149.154 -780 252 243 239
-107.019 149.509 -782 255 240 233
-105.689 149.863 -784 254 234 227
-104.883 150.982 -790 254 236 231
-103.792 151.72 -794 255 241 237
-103.071 153.03 -801 255 243 240
-102.829 155.105 -812 255 247 242
-101.92 156.224 -818 255 248 243
-100.498 156.579 -820 255 248 244
-99.3088 157.317 -824 255 250 247
-97.8674 157.673 -826 255 249 246
-96.5353 158.22 -829 253 247 244
-95.0772 158.577 -831 252 246 241
-93.387 158.553 -831 252 246 239
-90.8149 157.002 -823 255 246 242
-88.276 155.453 -815 255 244 240
-85.8767 154.095 -808 254 235 232
-83.6107 152.929 -802 251 225 222
-81.5742 152.145 -798 251 221 219
-79.9555 152.124 -798 254 222 220
-78.4356 152.294 -799 254 224 221
-77.0084 152.655 -801 255 225 223
-75.9501 153.779 -807 252 221 219
-76.1575 157.57 -827 244 211 208
-77.9057 164.789 -865 249 211 207
-87.6518 194.081 -1019 251 218 204
-88.3628 200.343 -1052 252 217 201
-87.4656 203.177 -1067 250 216 199
-86.1088 205.058 -1077 247 214 196
-83.1715 233.287 -1226 253 227 215
-77.5479 238.742 -1255 252 228 214
-75.5569 240.434 -1264 248 224 209
-73.8767 243.268 -1279 229 207 197
-71.9138 245.341 -1290 140 129 129
-70.4445 249.316 -1311 114 113 126
-68.5292 251.961 -1325 87 103 136
-66.6574 254.986 -1341 57 75 110
-64.4834 257.06 -1352 38 61 97
-62.2199 258.945 -1362 35 59 99
-60.0913 261.591 -1376 44 69 111
-57.907 264.237 -1390 57 81 122
-55.746 267.264 -1406 59 82 122
-53.3707 269.531 -1418 58 80 119
-50.9119 271.608 -1429 56 78 117
-48.2076 272.546 -1434 57 79 118
-45.5152 273.674 -1440 55 75 115
-42.6807 274.043 -1442 54 75 116
-39.8936 274.792 -1446 53 75 116
-37.0397 275.163 -1448 49 71 112
-34.2723 276.294 -1454 45 67 107
-31.4811 277.425 -1460 37 59 100
-28.8224 280.078 -1474 42 65 106
-26.3008 284.821 -1499 54 77 118
-23.6323 288.994 -1521 53 77 120
-20.7675 291.649 -1535 53 75 116
-17.8466 294.304 -1549 49 69 109
-14.7935 295.439 -1555 42 58 91
-11.7089 296.386 -1560 37 52 87
-8.60431 297.333 -1565 29 43 83
-5.46939 297.712 -1567 25 40 73
-2.32333 297.71 -1567 23 39 68
0.822001 297.52 -1566 25 39 70
3.96605 297.521 -1566 30 43 75
7.09631 296.953 -1563 30 42 74
10.2344 296.955 -1563 29 44 76
13.3641 296.768 -1562 30 45 77
16.4896 296.582 -1561 34 50 82
19.6114 296.396 -1560 39 56 85
22.7292 296.212 -1559 47 64 92
25.8599 296.218 -1559 54 69 98
29.0652 296.985 -1563 55 70 97
32.2868 297.753 -1567 56 72 95
35.6152 299.282 -1575 51 69 89
39.2468 302.902 -1594 48 65 85
-129.652 144.973 -764 221 215 224
-128.41 145.319 -766 242 235 240
-126.663 145.096 -765 252 246 248
-125.412 145.442 -767 252 249 244
-123.831 145.41 -767 248 244 239
-122.57 145.757 -769 237 232 228
-120.043 144.588 -763 224 216 212
-117.232 143.042 -755 231 221 216
-115.373 142.633 -753 249 238 231
-113.977 142.792 -754 251 244 236
-113.026 143.52 -758 251 248 240
-112.353 144.627 -764 255 249 242
-111.656 145.734 -770 255 250 243
-110.65 146.462 -774 254 248 241
-109.346 146.812 -776 253 245 238
-107.896 146.973 -777 251 242 236
-106.444 147.134 -778 255 237 230
-105.122 147.485 -780 255 233 227
-104.059 148.214 -784 255 231 226
-103.111 149.133 -789 255 234 230
-102.658 150.807 -798 255 237 234
-101.663 151.726 -803 255 237 232
-100.897 153.022 -810 255 237 230
-99.369 153.185 -811 255 238 229
-98.3192 154.104 -816 255 235 228
-96.8945 154.456 -818 255 235 228
-95.4625 154.809 -820 255 239 232
-94.0231 155.162 -822 255 238 230
-92.2394 154.95 -821 254 234 225
-90.0192 153.983 -816 254 233 228
-87.3869 152.262 -807 248 224 218
-85.3232 151.485 -803 249 215 209
-83.2764 150.708 -799 248 210 204
-81.451 150.31 -797 251 209 204
-79.7345 150.101 -796 253 211 205
-78.219 150.269 -797 254 214 209
-76.7001 150.438 -798 255 218 216
-75.366 150.984 -801 255 224 220
-74.3886 152.284 -808 250 219 215
-75.1843 157.353 -835 245 210 207
-86.1673 188.778 -1002 254 217 206
-87.6683 196.668 -1044 250 216 202
-87.1972 200.413 -1064 249 215 200
-85.9267 202.463 -1075 246 213 196
-84.4566 204.136 -1084 245 214 200
-84.3594 221.017 -1174 240 210 196
-82.7431 229.633 -1220 253 226 212
-80.7441 230.93 -1227 254 229 214
-78.7811 232.415 -1235 254 228 214
-77.0337 234.653 -1247 252 229 215
-75.0594 236.328 -1256 249 227 213
-73.4535 239.319 -1272 243 216 206
-71.6724 241.934 -1286 180 163 158
-70.1578 245.679 -1306 112 105 109
-68.4081 248.859 -1323 86 100 130
-66.4415 251.475 -1337 72 88 121
-64.2284 253.339 -1347 49 71 109
-62.0212 255.392 -1358 33 58 99
-59.6829 257.069 -1367 36 62 105
-57.5589 259.874 -1382 54 78 119
-55.375 262.68 -1397 59 82 122
-53.1313 265.487 -1412 59 81 120
-50.6495 267.354 -1422 59 81 120
-48.0272 268.657 -1429 57 79 118
-45.3772 269.962 -1436 56 78 117
-42.581 270.514 -1439 52 74 114
-39.8007 271.256 -1443 50 72 112
-36.979 271.81 -1446 47 69 110
-34.24 273.116 -1453 46 68 110
-31.4514 274.236 -1459 40 62 105
-28.6978 275.92 -1468 40 63 105
-25.9432 277.98 -1479 49 73 114
-23.3777 282.861 -1505 51 75 118
-20.5998 286.238 -1523 52 75 116
-17.7614 289.804 -1542 50 70 110
-14.7611 291.679 -1552 43 60 96
-11.6984 292.992 -1559 43 60 97
-8.60221 294.117 -1565 36 52 92
-5.46806 294.491 -1567 28 45 79
-2.32277 294.49 -1567 23 39 70
0.822309 294.49 -1567 25 38 71
3.96759 294.49 -1567 30 43 75
7.10363 294.116 -1565 30 44 75
10.2448 294.118 -1565 31 46 78
13.3777 293.933 -1564 30 45 77
16.4853 293.373 -1561 31 46 77
19.6064 293.19 -1560 36 50 78
22.7671 293.571 -1562 47 61 87
25.9031 293.577 -1562 59 73 102
29.1135 294.336 -1566 51 65 93
32.4227 295.848 -1574 60 76 101
35.6739 296.608 -1578 73 91 114
39.1135 298.686 -1589 75 93 115
-131.369 143.609 -765 243 235 237
-129.449 143.2 -763 251 243 246
-128.376 143.73 -766 254 248 248
-126.63 143.509 -765 254 248 245
-124.726 143.102 -763 255 248 240
-122.992 142.882 -762 255 247 239
-121.105 142.476 -760 251 241 234
-118.911 141.696 -756 245 233 228
-116.425 140.541 -750 250 238 233
-114.424 139.949 -747 255 247 242
-113.343 140.482 -750 254 248 242
-112.4 141.202 -754 254 246 240
-111.589 142.11 -759 255 243 238
-110.902 143.205 -765 255 241 236
-109.764 143.738 -768 255 244 237
-108.895 144.646 -773 254 242 235
-107.452 144.805 -774 253 240 232
-106.006 144.965 -775 255 235 228
-104.826 145.499 -778 255 233 226
-103.767 146.22 -782 253 228 222
-102.823 147.129 -787 250 227 221
-101.86 148.037 -792 252 231 226
-101.131 149.32 -799 255 231 227
-100.373 150.602 -806 253 231 224
-99.0985 151.137 -809 252 233 222
-98.0531 152.046 -814 255 233 224
-96.6329 152.395 -816 255 237 229
-95.2053 152.744 -818 255 244 234
-93.5416 152.72 -818 255 243 233
-91.7665 152.509 -817 255 238 227
-89.555 151.553 -812 252 222 213
-87.2563 150.411 -806 240 206 197
-85.1952 149.642 -802 245 200 190
-83.2551 149.061 -799 247 197 188
-81.4302 148.667 -797 251 198 189
-79.7141 148.46 -796 255 201 192
-78.1009 148.44 -796 255 204 196
-76.4883 148.421 -796 255 205 200
-74.9705 148.588 -797 254 214 206
-73.7253 149.315 -801 255 223 214
-72.9147 150.974 -810 245 215 209
-74.0921 156.919 -842 239 207 201
-85.0434 188.743 -1013 248 214 200
-85.1856 198.574 -1066 246 213 198
-83.8899 200.601 -1077 245 213 201
-82.9298 203.56 -1093 241 210 197
-82.4228 207.823 -1116 239 205 190
-83.9787 217.671 -1169 236 207 189
-82.4509 226.379 -1216 253 227 207
-80.3945 227.475 -1222 255 230 212
-78.506 229.131 -1231 255 228 213
-76.4583 230.414 -1238 250 227 212
-74.4428 231.884 -1246 247 225 211
-72.6266 234.098 -1258 246 216 209
-71.097 237.43 -1276 210 189 182
-69.3881 240.389 -1292 116 104 98
-67.7704 243.907 -1311 93 105 129
-66.1265 247.61 -1331 77 92 121
-64.0214 249.826 -1343 58 80 119
-61.8228 251.856 -1354 36 61 102
-59.5369 253.701 -1364 29 55 98
-57.3361 256.104 -1377 47 71 112
-55.0835 258.508 -1390 56 80 120
-52.8168 261.098 -1404 59 81 120
-50.423 263.316 -1416 59 80 120
-47.8806 264.978 -1425 58 78 118
-45.2393 266.267 -1432 57 79 118
-42.4814 267 -1436 52 74 114
-39.763 268.105 -1442 52 74 113
-36.9696 268.839 -1446 52 74 115
-34.2548 270.318 -1454 52 74 116
-31.4004 270.867 -1457 47 68 113
-28.6123 272.161 -1464 40 64 106
-25.8314 273.827 -1473 47 71 112
-23.1544 277.167 -1491 48 72 115
-20.3648 279.95 -1506 47 70 112
-17.6417 284.778 -1532 47 69 110
-14.7004 287.377 -1546 47 65 105
-11.6655 289.046 -1555 48 66 105
-8.58896 290.531 -1563 40 57 97
-5.45958 290.901 -1565 29 46 80
-2.32074 291.086 -1566 24 41 72
0.822618 291.457 -1568 27 41 73
3.96642 291.272 -1567 31 45 77
7.10189 290.902 -1565 32 46 78
10.2488 291.09 -1566 30 45 77
13.3828 290.907 -1565 29 44 76
16.5022 290.539 -1563 29 42 73
19.6389 290.543 -1563 32 44 71
22.7614 290.363 -1562 43 55 79
25.9296 290.741 -1564 55 68 95
29.1062 291.12 -1566 45 59 87
32.4144 292.615 -1574 53 68 96
35.6647 293.367 -1578 67 84 110
39.0544 295.05 -1587 64 82 105
-132.917 142.056 -765 246 236 232
-131.335 142.023 -765 255 248 244
-129.586 141.804 -764 254 248 246
-128.009 141.771 -764 254 247 243
-125.771 140.997 -760 255 249 244
-123.55 140.223 -756 255 246 242
-121.67 139.821 -754 255 245 240
-119.64 139.234 -751 255 243 237
-117.623 138.648 -748 253 242 237
-115.775 138.247 -746 255 245 240
-113.936 137.848 -744 255 246 242
-112.559 138.004 -745 255 242 238
-111.477 138.531 -748 254 240 235
-110.531 139.244 -752 254 233 230
-110.149 140.697 -760 250 228 225
-109.307 141.595 -765 252 230 225
-108.304 142.308 -769 254 230 225
-107.147 142.836 -772 255 229 223
-105.705 142.994 -773 250 229 222
-104.664 143.707 -777 249 227 219
-103.741 144.605 -782 246 221 213
-102.667 145.319 -786 244 220 212
-102.092 146.772 -794 252 229 220
-101.105 147.671 -799 254 229 222
-99.9744 148.384 -803 253 230 221
-98.5835 148.729 -805 249 228 218
-97.6669 149.813 -811 254 230 221
-96.2532 150.158 -813 255 237 228
-94.9484 150.688 -816 255 240 230
-93.518 151.033 -818 255 241 231
-91.631 150.641 -816 255 237 226
-89.422 149.695 -811 247 205 194
-87.2342 148.75 -806 234 188 177
-85.2798 148.174 -803 239 184 173
-83.2341 147.415 -799 242 182 171
-81.4096 147.026 -797 245 183 170
-79.694 146.821 -796 250 187 173
-78.0812 146.801 -796 250 187 174
-76.373 146.597 -795 252 190 178
-74.8575 146.763 -796 250 198 186
-73.5227 147.297 -799 255 212 200
-72.3563 148.201 -804 252 219 211
-72.05 150.947 -819 240 207 200
-78.4225 226.417 -1230 255 225 208
-76.3774 227.686 -1237 251 227 210
-74.3046 228.955 -1244 246 223 207
-72.6083 231.514 -1258 248 217 212
-70.912 234.256 -1273 228 204 195
-69.0485 236.631 -1286 133 115 104
-67.3399 239.742 -1303 93 101 123
-65.9113 244.141 -1327 77 89 116
-63.91 246.7 -1341 62 85 125
-61.716 248.708 -1352 42 66 108
-59.4346 250.532 -1362 26 52 95
-57.0719 252.173 -1371 36 60 101
-54.832 254.55 -1384 48 71 111
-52.6155 257.296 -1399 58 80 119
-50.3392 260.041 -1414 57 77 117
-47.7342 261.316 -1421 57 78 118
-45.1016 262.592 -1428 57 79 120
-42.382 263.501 -1433 51 74 115
-39.6979 264.778 -1440 50 74 114
-36.9349 265.687 -1445 52 74 115
-34.1991 266.966 -1452 52 74 116
-31.3709 267.693 -1456 48 69 114
-28.5465 268.605 -1461 43 66 107
-25.7373 269.885 -1468 45 69 109
-23.0089 272.452 -1482 49 74 117
-20.2785 275.756 -1500 50 74 117
-17.5337 279.98 -1523 49 71 114
-14.6112 282.549 -1537 52 70 112
-11.6251 284.936 -1550 52 70 112
-8.57043 286.772 -1560 45 62 102
-5.45131 287.321 -1563 37 54 89
-2.31872 287.688 -1565 31 48 81
0.821356 287.872 -1566 28 43 75
3.96545 288.056 -1567 28 43 76
7.10451 287.874 -1566 29 44 78
10.2593 288.244 -1568 31 46 78
13.405 288.247 -1568 29 44 75
16.5508 288.25 -1568 29 40 70
19.6968 288.255 -1568 30 41 66
22.8432 288.26 -1568 39 49 70
26.0723 289.186 -1573 45 57 82
29.2289 289.193 -1573 36 49 76
32.4474 289.752 -1576 44 59 90
35.6559 290.128 -1578 49 64 92
38.9708 291.24 -1584 41 56 82
-131.126 137.015 -746 249 237 238
-131.32 138.818 -756 255 247 243
-130.272 139.336 -759 255 249 245
-128.875 139.487 -760 255 248 248
-127.139 139.271 -759 255 248 245
-124.912 138.506 -755 254 245 241
-122.702 137.741 -751 255 244 241
-120.51 136.977 -747 255 241 237
-118.654 136.58 -745 254 235 230
-116.807 136.184 -743 255 232 226
-115.28 136.155 -743 255 234 228
-113.754 136.126 -743 254 233 227
-112.38 136.281 -744 251 230 225
-111.151 136.619 -746 250 228 223
-110.356 137.507 -751 254 227 224
-109.687 138.578 -757 252 225 222
-108.708 139.283 -761 249 225 219
-107.855 140.171 -766 250 224 217
-106.843 140.876 -770 252 225 217
-105.816 141.581 -774 254 227 221
-104.773 142.286 -778 249 221 214
-103.715 142.992 -782 238 207 198
-102.771 143.88 -787 236 206 195
-101.809 144.769 -792 250 221 209
-100.827 145.657 -797 252 224 213
-99.4515 145.998 -799 251 223 213
-98.4364 146.887 -804 250 225 216
-97.2812 147.593 -808 254 227 217
-95.9923 148.117 -811 255 228 219
-94.692 148.641 -814 253 231 220
-93.266 148.983 -816 255 233 224
-91.4958 148.777 -815 252 227 218
-89.3997 148.025 -811 239 185 170
-87.2124 147.09 -806 223 166 151
-85.1523 146.339 -802 221 158 144
-83.2133 145.77 -799 227 160 145
-81.3893 145.385 -797 232 162 148
-79.6741 145.183 -796 236 167 150
-78.0617 145.163 -796 239 170 153
-76.45 145.144 -796 244 174 157
-74.8389 145.125 -796 242 181 164
-73.5044 145.654 -799 252 195 180
-72.1583 146.183 -802 250 212 202
-71.3285 147.805 -811 254 219 210
-70.9784 150.521 -826 246 213 205
-72.1626 156.699 -860 235 202 189
-80.7489 223.546 -1228 253 226 207
-78.403 223.891 -1230 253 226 206
-76.6053 225.874 -1241 250 227 207
-74.5847 227.311 -1249 247 225 205
-72.5903 228.931 -1258 246 219 207
-70.8944 231.643 -1273 231 208 195
-69.085 234.173 -1287 147 128 113
-67.2199 236.703 -1301 81 88 107
-65.2989 239.234 -1315 78 90 114
-63.7988 243.584 -1339 60 85 125
-61.6551 245.751 -1351 48 72 114
-59.289 247.192 -1359 33 57 100
-56.9329 248.814 -1368 33 57 98
-54.6204 250.801 -1379 41 64 104
-52.4521 253.698 -1395 56 78 117
-50.1487 256.231 -1409 56 78 118
-47.7224 258.401 -1421 56 78 118
-45.0588 259.481 -1427 55 77 119
-42.3715 260.561 -1433 51 73 115
-39.6054 261.278 -1437 51 74 115
-36.9257 262.723 -1445 54 76 117
-34.1436 263.624 -1450 53 75 116
-31.3201 264.343 -1454 47 69 113
-28.4808 265.063 -1458 43 66 106
-25.6608 266.147 -1464 41 65 104
-22.9101 268.322 -1476 48 74 118
-20.1519 271.044 -1491 54 80 124
-17.3682 274.311 -1509 46 70 114
-14.4935 277.216 -1525 45 63 107
-11.5547 280.121 -1541 52 70 113
-8.51878 281.937 -1551 53 70 110
-5.4326 283.207 -1558 46 63 100
-2.31226 283.752 -1561 35 52 87
0.820621 284.479 -1565 29 44 76
3.96196 284.661 -1566 26 41 73
7.09828 284.481 -1565 24 39 73
10.2633 285.21 -1569 26 41 75
13.4187 285.395 -1570 27 41 74
16.5678 285.398 -1570 30 43 74
19.7673 286.13 -1574 33 44 70
22.9101 285.953 -1573 38 49 71
26.0492 285.778 -1572 45 56 84
29.2401 286.148 -1574 37 48 77
32.4599 286.701 -1577 39 52 84
35.647 286.891 -1578 62 76 106
38.9366 287.81 -1583 82 96 125
42.3795 289.638 -1593 87 101 123
-141.935 134.288 -738 123 118 136
-136.775 133.638 -735 127 120 135
-133.725 133.57 -735 144 138 150
-132.382 133.719 -736 201 193 198
-131.036 133.868 -737 248 239 241
-130.214 134.562 -741 255 245 245
-129.724 135.619 -747 255 246 243
-129.21 136.676 -753 255 246 243
-127.825 136.825 -754 255 247 245
-126.102 136.612 -753 255 243 238
-123.723 135.674 -748 255 236 230
-121.201 134.556 -742 253 229 220
-119.351 134.163 -740 252 226 216
-117.669 133.952 -739 254 222 212
-116.15 133.923 -739 254 218 209
-114.786 134.076 -740 254 216 207
-113.419 134.229 -741 252 214 205
-112.05 134.382 -742 249 211 204
-110.975 134.898 -745 247 209 203
-110.035 135.594 -749 250 213 208
-109.37 136.653 -755 249 215 210
-108.396 137.35 -759 244 212 206
-107.687 138.409 -765 242 211 202
-106.816 139.287 -770 247 217 206
-105.789 139.985 -774 246 211 206
-104.612 140.501 -777 241 205 199
-104.087 141.922 -785 232 193 184
-102.877 142.439 -788 231 191 180
-101.912 143.317 -793 248 209 197
-100.802 144.015 -797 252 211 198
-99.4269 144.352 -799 250 211 197
-98.1672 144.869 -802 251 214 199
-97.1368 145.748 -807 253 214 200
-95.8503 146.266 -810 251 211 197
-94.6686 146.965 -814 251 214 200
-93.3572 147.484 -817 254 216 205
-91.5854 147.28 -816 249 207 196
-89.3776 146.356 -811 227 164 148
-87.299 145.612 -807 210 145 129
-85.2374 144.869 -803 205 136 121
-83.2969 144.307 -800 209 139 123
-81.4713 143.926 -798 214 143 127
-79.7545 143.726 -797 219 147 131
-78.0424 143.527 -796 224 151 134
-76.4311 143.508 -796 230 157 137
-74.8204 143.489 -796 233 164 146
-73.3023 143.651 -797 245 178 160
-71.8707 143.994 -799 245 198 188
-70.6075 144.697 -803 254 214 204
-69.5863 145.941 -810 254 221 213
-69.2086 148.627 -825 255 232 220
-80.4661 220.306 -1224 251 223 205
-78.0651 220.467 -1225 250 224 202
-76.3396 222.608 -1237 248 225 203
-74.6858 225.108 -1251 245 222 202
-72.7455 226.89 -1261 239 215 199
-70.9326 229.211 -1274 232 211 193
-69.0144 231.353 -1286 163 145 125
-66.9451 233.135 -1296 64 73 89
-65.0844 235.817 -1311 75 88 110
-63.3068 239.039 -1329 53 80 120
-61.5487 242.621 -1349 56 79 118
-59.1436 243.866 -1356 41 63 102
-56.7942 245.47 -1365 28 50 90
-54.4486 247.255 -1375 35 57 97
-52.3264 250.298 -1392 50 72 113
-50.1008 253.163 -1408 56 78 119
-47.5764 254.769 -1417 56 79 120
-44.9531 256.016 -1424 53 76 118
-42.302 257.264 -1431 49 71 113
-39.5406 257.973 -1435 48 70 111
-36.8144 259.043 -1441 53 75 116
-34.0175 259.753 -1445 54 76 118
-31.2478 260.824 -1451 47 71 114
-28.3957 261.356 -1454 41 65 105
-25.6019 262.607 -1461 39 63 102
-22.8424 264.579 -1472 42 69 114
-20.0659 266.91 -1485 52 78 124
-17.2949 270.141 -1503 50 75 121
-14.414 272.653 -1517 44 62 106
-11.4919 275.526 -1533 42 60 103
-8.48934 277.86 -1546 51 69 109
-5.40674 278.757 -1551 51 68 106
-2.30729 280.014 -1558 38 55 92
0.817792 280.373 -1560 33 48 80
3.95343 280.913 -1563 29 43 76
7.08733 280.914 -1563 29 42 77
10.2476 281.635 -1567 28 43 77
13.407 281.998 -1569 28 43 76
16.5848 282.54 -1572 31 45 76
19.775 283.084 -1575 26 40 67
22.9628 283.449 -1577 22 35 59
26.1422 283.635 -1578 34 46 74
29.3445 284.001 -1580 36 47 76
32.5755 284.548 -1583 42 52 85
35.7963 284.916 -1585 64 77 108
39.0746 285.644 -1589 91 105 136
42.6883 288.53 -1605 95 109 134
-155.159 135.175 -750 127 119 133
-152.362 134.056 -744 128 119 133
-150.605 133.838 -743 132 121 135
-149.254 133.981 -744 129 120 135
-144.018 133.332 -741 128 118 133
-141.515 132.397 -736 134 124 136
-139.794 132.183 -735 150 142 153
-137.891 131.789 -733 171 162 173
-136.369 131.755 -733 171 162 174
-134.848 131.722 -733 182 174 184
-133.51 131.868 -734 221 213 222
-132.349 132.195 -736 249 243 242
-131.181 132.521 -738 255 246 246
-130.358 133.207 -742 255 243 243
-129.345 133.714 -745 255 240 238
-128.492 134.4 -749 254 233 231
-126.946 134.369 -749 255 231 226
-125.066 133.979 -747 255 226 216
-123.031 133.41 -744 252 217 206
-120.845 132.663 -740 252 212 201
-119.16 132.455 -739 252 209 198
-117.322 132.067 -737 253 205 194
-115.807 132.039 -737 251 200 190
-114.603 132.369 -739 250 199 189
-113.239 132.52 -740 250 200 190
-112.022 132.85 -742 247 198 189
-110.947 133.36 -745 243 195 187
-110.008 134.049 -749 242 197 190
-109.343 135.096 -755 243 199 192
-108.512 135.964 -760 241 200 193
-108.083 137.369 -768 233 195 185
-107.206 138.236 -773 234 197 186
-106.447 139.283 -779 232 196 188
-105.259 139.794 -782 221 184 174
-104.326 140.662 -787 210 169 157
-102.982 140.994 -789 209 166 152
-101.887 141.684 -793 227 184 169
-100.777 142.374 -797 239 192 176
-99.2781 142.528 -798 241 193 177
-98.2655 143.397 -803 240 194 177
-97.113 144.087 -807 240 190 171
-95.9451 144.778 -811 235 186 167
-94.6454 145.29 -814 234 185 166
-93.3343 145.803 -817 233 178 162
-91.6752 145.78 -817 224 166 150
-89.5761 145.045 -813 210 141 126
-87.494 144.31 -809 199 130 115
-85.4288 143.575 -805 193 122 108
-83.4847 143.02 -802 193 123 108
-81.6555 142.643 -800 197 127 112
