ply
format ascii 1.0
comment Created by Open3D
element vertex 714
property double x
property double y
property double z
property double nx
property double ny
property double nz
property uchar red
property uchar green
property uchar blue
end_header
-121.759 -602.432 -1708.9 0.399293 -0.0451133 -0.0738805 91 90 99
-123.222 -599.812 -1710.26 0.40898 0.0251572 -0.168546 89 87 96
31.8061 -672.851 -1712.2 -0.953138 0.266563 -0.126219 181 178 184
34.0314 -664.479 -1712.13 -0.947639 0.288206 -0.128737 183 180 186
37.805 -652.371 -1711.63 -0.954836 0.247532 -0.115138 187 184 190
38.4222 -644.975 -1708.95 -0.963219 0.183404 -0.144826 191 187 194
40.3384 -634.248 -1711.55 -0.938582 0.153119 -0.283322 194 190 196
40.9912 -622.879 -1709.3 -0.908254 0.13402 -0.386936 183 181 186
43.4685 -615.682 -1712.11 -0.945842 0.12648 -0.259805 185 181 186
-232.777 255.611 -1709.62 0.324315 -0.833218 -0.384635 176 144 135
-222.863 263.748 -1713.29 0.502736 -0.706123 -0.47491 192 198 203
-222.218 264.095 -1712.81 0.521305 -0.684096 -0.490121 194 200 206
-198.817 270.569 -1708.41 -0.293173 -0.516154 -0.421212 187 146 131
-185.463 263.826 -1712.95 0.274632 -0.886117 -0.376987 212 159 131
-204.42 272.824 -1709.2 -0.0903415 -0.502434 -0.356875 186 152 145
-177.817 266.897 -1712.04 0.483019 -0.774455 -0.39794 222 170 138
-169.026 274.294 -1708.11 0.801231 -0.539293 -0.233512 226 173 138
-166.94 277.888 -1706.33 0.868073 -0.465867 -0.168538 228 174 139
-164.575 285.721 -1710.08 0.886467 -0.440986 -0.0767135 226 172 136
-156.938 304.03 -1710.2 0.894489 -0.356923 0.246511 220 168 132
-157.169 306.465 -1708.84 0.909698 -0.271127 0.261896 220 167 131
-156.918 321.217 -1712.47 0.947611 0.0959524 0.269868 194 145 113
83.7873 86.6515 -1709.92 -0.630344 0.310939 -0.705989 226 229 241
84.4219 93.8421 -1708.92 -0.666586 0.21148 -0.709902 223 226 238
88.181 107.92 -1706.27 -0.459473 0.312977 -0.797373 227 230 242
-73.8742 280.247 -1708.74 -0.61299 -0.771656 0.0976251 216 171 134
-80.0075 286.367 -1710.07 -0.786226 -0.469014 0.383581 210 162 125
-82.4629 295.042 -1707.02 -0.838801 -0.314112 0.427862 197 150 113
-54.4702 256.931 -1709.43 -0.408888 -0.354223 -0.782873 204 151 161
-60.0004 264.168 -1708.83 -0.509205 -0.417007 -0.633044 178 111 113
-53.775 259.791 -1710.88 -0.399543 -0.40304 -0.746153 196 137 149
-59.4818 264.778 -1709.66 -0.502448 -0.457203 -0.602526 179 114 114
-38.0263 249.32 -1709.22 9.75002e-05 -0.436309 -0.799612 246 243 242
-40.0735 257.014 -1713.07 -0.139707 -0.299835 -0.921009 253 252 254
-31.9737 251.373 -1708.17 0.0592494 -0.508017 -0.669685 232 223 218
123.649 -1183.59 -1707.96 0.155426 -0.964022 0.142956 75 65 64
120.172 -1185.71 -1715.7 0.129283 -0.968606 0.181854 74 64 63
65.3101 -988.34 -1716.48 -0.270282 -0.00887846 0.290182 191 183 185
64.7336 -982.183 -1717.42 -0.153992 -0.0382014 0.372013 191 183 185
61.6788 -948.46 -1713.29 -0.0259175 -0.0326355 0.342942 199 193 196
65.7597 -969.725 -1712.44 -0.175903 -0.0279385 0.356159 195 188 190
63.0101 -956.622 -1717.33 0.167956 -0.104463 0.542572 190 183 185
63.6616 -953.353 -1709.3 -0.208603 -0.019667 0.30172 200 194 197
92.1551 246.99 -1716.22 -0.146106 -0.223474 -0.0681106 226 227 232
-318.772 -996.938 -1705.08 0.208418 0.213057 -0.61816 195 192 195
-318.124 -990.092 -1699.77 -0.013519 0.16072 -0.90948 188 185 188
-325.073 -976.157 -1701.61 -0.0427923 0.128797 -0.924478 184 181 183
-309.68 -997.811 -1700.66 0.076507 0.297237 -0.929974 202 199 203
-297.524 -1001.33 -1701.66 0.0577666 0.208345 -0.928022 194 191 193
-294.031 -983.898 -1700 -0.138002 -0.129702 -0.995328 189 186 187
-292.365 -978.11 -1702.62 -0.00710407 -0.0758955 -0.909852 185 182 184
-325.338 -966.819 -1704.23 -0.0259345 0.117428 -0.901664 180 177 179
-326.644 -952.687 -1700.49 -0.30628 0.122347 -0.869272 152 149 152
-291.233 -974.196 -1703.58 0.0883753 -0.00561056 -0.848777 183 180 182
-292.147 -950.962 -1705.76 0.699152 0.0363004 -0.383977 192 189 191
-263.935 -997.308 -1700 -0.102397 0.0873584 -0.94321 186 182 187
-286.835 -977.779 -1702.92 0.127409 -0.0783858 -0.874705 183 180 182
-281.7 -978.247 -1700.75 0.17293 -0.0951523 -0.919976 184 181 183
-289.137 -973.505 -1704.32 0.210518 0.0236494 -0.78715 183 179 181
-281.823 -972.87 -1704.2 0.671751 0.0814073 -0.560889 183 179 181
-282.615 -963.696 -1700.52 0.411647 0.199718 -0.783198 189 186 187
-283.984 -949.852 -1701.97 0.329072 0.0746069 -0.583537 196 192 195
25.7833 -1163.54 -1703.72 -0.57043 -0.779433 -0.0435936 211 166 146
58.7033 -1176.69 -1701.93 -0.267541 -0.940847 -0.14924 183 137 122
45.314 -1174.05 -1702.49 -0.288517 -0.880608 -0.201379 184 146 130
58.3792 -1176.33 -1704.35 -0.305792 -0.936128 -0.132607 189 143 126
72.5447 -1179.37 -1702.89 -0.306592 -0.93491 0.00651541 196 147 132
78.0891 -1180.06 -1700.25 -0.203258 -0.954267 0.061101 178 135 124
-7.87038 -1157.52 -1702.91 -0.124774 -0.541338 -0.175081 219 171 143
-19.488 -1151.17 -1704.62 -0.434035 -0.00280881 -0.0039542 201 157 132
3.97427 -1157.24 -1703.45 -0.177604 -0.956709 -0.320025 214 168 141
8.96068 -1158.51 -1701.36 -0.238777 -0.94366 -0.236449 216 169 144
23.9915 -1162.83 -1703.55 -0.55939 -0.788519 -0.0706526 212 166 146
5.11828 -942.556 -1705.69 0.290423 -0.111827 0.9525 204 194 197
-4.22343 -935.845 -1703.41 0.108572 0.0731979 0.972006 191 182 184
-17.3515 -931.097 -1705.28 -0.0964207 0.461158 0.865618 178 172 174
-0.618524 -928.599 -1704.25 0.00725342 0.0768698 0.97619 180 173 175
2.19945 -928.766 -1704.22 0.0874301 0.000441624 0.964576 183 176 177
5.99563 -922.05 -1703.73 0.0446864 -0.129846 0.942121 185 179 180
10.9344 -920.584 -1704.15 0.212678 -0.218746 0.899705 193 187 188
-7.99543 -912.548 -1704.93 -0.38204 -0.0997974 0.887408 179 175 176
-3.10518 -917.094 -1704.11 -0.264277 -0.00925138 0.931021 177 173 174
-0.211883 -910.445 -1700.61 -0.284638 -0.271175 0.917624 182 179 180
-17.4661 -900.284 -1704.38 -0.345435 -0.398255 0.841923 187 183 184
-18.651 -895.4 -1702.2 -0.333687 -0.411444 0.843311 188 184 185
9.07781 -919.209 -1703.26 0.0840155 -0.198711 0.936691 188 183 184
9.43595 -909.04 -1700.07 0.0234213 -0.290833 0.941702 192 188 189
21.1549 -908.156 -1704.17 0.266171 -0.267972 0.903967 200 195 196
20.726 -896.521 -1702.96 0.330675 -0.0846153 0.925267 199 194 195
24.1337 -904.54 -1704.95 0.252944 -0.17516 0.915247 201 196 197
46.2878 -927.372 -1703.11 -0.660019 0.13381 0.269963 176 171 174
48.8644 -929.892 -1700.85 -0.568576 0.0532923 0.419723 175 171 173
43.555 -910.448 -1704.16 -0.844467 0.0342544 0.014887 192 188 192
44.4042 -900.87 -1702.66 -0.852507 -0.00514223 0.194375 177 173 177
-74.8285 -847.702 -1705.18 -0.593302 -0.221107 0.671085 221 217 219
-55.1662 -888.555 -1705.59 -0.39088 -0.381973 0.825137 183 176 177
-58.3844 -880.942 -1702.53 -0.369847 -0.372629 0.837894 187 180 182
-52.3079 -882.992 -1701.86 -0.262655 -0.412431 0.858954 183 177 178
46.384 -420.959 -1705 -0.983036 -0.0477042 -0.1304 206 203 208
45.2332 -407.929 -1699.62 -0.980016 -0.0382698 -0.163357 199 196 203
44.3897 -398.211 -1700.52 -0.973961 -0.13634 -0.142153 189 186 193
44.1165 -391.64 -1704.05 -0.983762 -0.131924 -0.108678 186 183 189
43.4049 -376.199 -1703.36 -0.992026 -0.0572874 -0.0913487 200 197 203
42.4275 -365.449 -1706.01 -0.977994 -0.151344 -0.0849523 205 202 209
39.5627 -354.283 -1700.36 -0.94655 -0.209351 -0.182279 200 197 203
-293.071 -351.295 -1702.08 0.993854 -0.031032 0.0547633 202 199 205
-291.38 -335.512 -1704.71 0.961118 -0.0893267 -0.163766 207 204 210
-288.791 -331.093 -1699.75 0.912862 -0.222074 -0.316654 212 209 215
-285.221 -312.064 -1705.99 0.898001 -0.300267 -0.287428 219 216 223
-282.16 -299.544 -1705.09 0.884382 -0.151748 -0.428966 219 216 224
-199.225 262.604 -1700.13 0.128125 0.000959422 -0.745533 200 134 135
-198.98 268.764 -1705.42 -0.167598 -0.341729 -0.535555 189 141 131
-191.179 262.913 -1705.07 0.236541 -0.398422 -0.467557 209 160 139
-203.088 271.789 -1705.38 -0.165332 -0.341612 -0.501419 181 137 134
-174.291 264.401 -1702.45 0.634638 -0.632294 -0.440109 226 174 142
-170.013 271.688 -1704.36 0.787707 -0.518521 -0.293624 228 175 140
-165.979 279.609 -1702.87 0.899002 -0.405897 -0.150511 229 176 140
-162.245 292.544 -1703.59 0.944403 -0.311828 -0.00856682 225 174 137
-159.932 311.372 -1699.34 0.964642 -0.0659842 0.170657 220 171 133
-159.607 313.575 -1700.38 0.967413 -0.0302338 0.180925 218 168 131
-159.461 331.045 -1703.69 0.980404 0.0816421 0.133808 202 153 118
-160.346 333.467 -1701.5 0.965249 0.146239 0.140662 207 157 121
35.0148 -71.9265 -1702.01 -0.803063 0.266626 -0.520902 214 213 222
36.4611 -64.4461 -1700.59 -0.786787 0.223173 -0.546598 217 216 225
41.6933 -53.709 -1702.58 -0.797615 0.193592 -0.5425 215 214 225
43.4053 -53.4834 -1705.24 -0.851139 0.180155 -0.367243 215 214 225
42.9155 -38.858 -1701.2 -0.846524 0.144353 -0.446772 214 213 223
45.925 -30.1727 -1701.03 -0.821288 0.236683 -0.464985 213 212 222
50.6558 -24.7029 -1705.65 -0.872163 0.249268 -0.178413 221 220 230
53.2589 -11.5808 -1704.97 -0.895702 0.0780656 -0.038251 212 212 222
54.3556 0.898978 -1703.54 -0.96477 0.118327 0.0720033 208 208 217
59.8921 12.3511 -1703.84 -0.858167 0.253982 0.139716 214 215 223
63.6256 14.8316 -1706.64 -0.790625 0.120787 0.514017 210 210 219
73.7694 23.9355 -1699.88 -0.335826 -0.122571 -0.754607 232 235 245
-42.166 409.645 -1704.71 -0.0536258 0.623387 -0.257701 57 45 46
-34.2056 416.422 -1700.85 -0.00652499 0.800019 -0.290708 50 41 40
-30.9658 424.952 -1705.57 -0.114352 0.741648 -0.241571 50 40 40
-132.335 -1108 -1702.4 -0.029565 -0.111938 0.162191 112 102 99
-312.513 257.454 -1692.55 -0.0332825 -0.550527 -0.778359 205 207 213
-130.22 -1170.61 -1691.15 -0.471439 -0.823379 -0.337876 46 36 36
-133.941 -1169.55 -1689.64 -0.429976 -0.847103 -0.359417 49 37 36
-229.212 -1158.6 -1686.74 0.303876 -0.890312 -0.336205 207 161 135
-220.199 -1155.1 -1689.05 0.258411 -0.908064 -0.330565 207 160 131
-206.55 -1152.38 -1686.71 0.23234 -0.917163 -0.312886 198 153 120
-199.24 -1147.63 -1692.14 0.300111 -0.825782 -0.444279 168 131 103
-187.782 -1146.01 -1693.5 0.045146 -0.856067 -0.489192 81 65 52
-178.984 -1151.5 -1687.36 -0.149651 -0.896252 -0.387331 69 55 47
-156.627 -1158.89 -1687.81 -0.245911 -0.768019 -0.28039 60 51 49
-168.486 -1154.44 -1688.49 -0.320777 -0.861173 -0.422635 59 49 45
-150.171 -1158.29 -1692.17 -0.272276 -0.499498 -0.208906 57 51 49
-264.931 -782.026 -1690.29 0.852692 0.391428 -0.260662 188 185 188
-269.453 -769.09 -1691.57 0.918594 0.187305 -0.300297 184 181 184
-267.772 -763.266 -1688.49 0.914997 0.136568 -0.347752 183 180 183
-273.458 -745.197 -1688.72 0.940611 0.258512 -0.187625 144 140 142
-279.482 -731.141 -1692.79 0.911742 0.365241 -0.18469 186 183 187
-290.176 -594.987 -1688.9 0.957179 -0.146162 -0.137467 183 180 184
-171.974 -675.225 -1691.88 -0.821749 0.241255 -0.523667 188 185 188
-169.293 -659.996 -1690.93 -0.816238 0.152997 -0.47067 195 192 194
-168.271 -649.006 -1688.49 -0.844179 0.193429 -0.514396 195 192 195
-165.493 -644.058 -1689.96 -0.766567 0.268216 -0.619436 193 190 193
-163.885 -635.041 -1688.01 -0.77988 0.221252 -0.589219 189 185 189
-164.923 -625.776 -1685.7 -0.810581 0.0384196 -0.562712 186 183 187
-165.724 -615.197 -1687.19 -0.82005 -0.109391 -0.568904 181 179 182
-163.875 -607.647 -1690.35 -0.770318 -0.0317808 -0.619483 177 175 178
-163.221 -597.579 -1688.89 -0.767337 0.149218 -0.616199 180 178 181
-160.786 -593.219 -1690.5 -0.735534 0.195716 -0.646648 178 175 178
-158.608 -582.512 -1689.57 -0.752418 0.149728 -0.633357 176 172 175
-79.7894 -836.477 -1692.37 -0.14254 -0.0766503 -0.13013 204 201 204
-34.6379 -793.699 -1691.28 0.207301 0.543644 -0.81465 185 181 186
-36.2796 -787.569 -1687.63 0.286761 0.437149 -0.849603 182 178 183
-25.6728 -793.93 -1689.69 0.15922 0.552456 -0.825123 185 181 186
-28.169 -790.183 -1687.12 0.159989 0.560928 -0.826566 183 179 184
-13.9217 -877.141 -1692.35 -0.331176 -0.140762 0.920441 192 188 189
-8.61708 -868.794 -1692.7 0.146282 0.0340279 0.965946 197 193 194
-17.7206 -860.852 -1691.85 -0.00749978 -0.194651 1.01416 203 199 202
-18.4115 -853.095 -1691.02 0.062854 -0.164181 1.02321 216 213 216
-13.0804 -846.876 -1691.34 0.150959 -0.153026 0.728549 215 212 215
-10.8919 -845.323 -1691.29 0.164404 -0.176275 0.623999 215 212 215
-6.47669 -841.812 -1691.56 0.254834 -0.234518 0.0559274 211 207 209
-2.98922 -851.551 -1692.33 0.167755 -0.2023 0.985056 207 203 205
-5.63435 -843.06 -1691.31 0.223731 -0.226937 0.262778 211 208 210
8.1992 -841.659 -1692.38 0.106421 -0.198301 0.716541 210 205 206
28.836 -842.717 -1689.74 -0.712655 -0.333917 0.316386 182 179 182
42.0954 -374.899 -1692 -0.937316 -0.0664738 -0.271583 202 199 207
39.341 -362.538 -1690.27 -0.901614 -0.15127 -0.330643 206 203 209
36.583 -352.573 -1686.36 -0.903888 -0.130174 -0.264675 199 197 204
-285.952 -342.278 -1686.84 0.8508 -0.259941 -0.447671 216 214 221
-284.725 -337.133 -1688.17 0.836023 -0.299212 -0.452403 220 217 224
-279.513 -318.963 -1686.18 0.882445 -0.164297 -0.436737 223 221 228
-279.374 -313.564 -1688.17 0.88341 -0.23041 -0.396687 221 218 225
-276.703 -307.309 -1686.36 0.869278 -0.286091 -0.391764 221 218 227
-274.422 -295.612 -1688.31 0.881255 -0.214249 -0.393766 222 219 227
-272.787 -288.494 -1688.2 0.860449 -0.178352 -0.447423 221 218 226
-527.518 105.069 -1687.51 0.106109 0.398426 -0.835839 97 76 77
-514.026 110.223 -1692.37 -0.0309795 0.534078 -0.713764 116 101 105
-493.721 86.8786 -1691.67 0.346817 -0.357684 -0.733896 139 118 126
-489.288 94.7686 -1691.6 0.473005 -0.385431 -0.83177 97 62 68
-487.464 96.2223 -1690.68 0.507833 -0.367655 -0.820832 96 59 65
-486.34 103.877 -1690.83 0.596547 -0.137269 -0.786735 83 36 42
-454.63 82.874 -1689.13 -0.0709944 0.2823 -0.522902 192 187 198
-498.925 113.018 -1691.97 0.0868235 0.548169 -0.736841 65 44 44
-489.918 108.754 -1692.88 0.467994 0.113334 -0.822043 70 31 36
-450.838 88.0839 -1686.76 -0.443237 0.601841 -0.655175 175 167 175
-442.495 92.4602 -1687.83 -0.291693 0.579818 -0.760199 164 158 166
-437.785 94.7825 -1686.75 -0.180596 0.579984 -0.786247 162 158 166
-425.504 94.2636 -1686.41 -0.0662842 0.704637 -0.703787 168 164 173
-421.478 92.5609 -1689.16 -0.0160821 0.677759 -0.716021 180 176 185
-411.767 86.6916 -1692.53 0.167702 0.538672 -0.791187 175 170 180
-403.143 83.2023 -1689.89 0.319498 0.377732 -0.870458 164 160 171
-401.749 88.6683 -1686.45 0.302391 0.456755 -0.836269 181 176 187
59.7735 101.003 -1686.89 -0.621128 0.0206845 -0.781831 244 243 250
61.3981 93.0815 -1688.28 -0.622757 0.0831165 -0.777469 247 246 252
64.7243 97.7733 -1690.7 -0.624613 0.0731569 -0.779131 246 245 252
60.9159 111.91 -1688.02 -0.569967 0.0122881 -0.813265 243 243 249
63.964 114.449 -1689.73 -0.504432 0.0630803 -0.848455 243 244 249
66.6648 117.574 -1690.72 -0.445915 0.146211 -0.874656 243 245 250
67.6881 128.821 -1687.65 -0.414782 0.272234 -0.867615 247 248 252
68.4836 129.42 -1687.95 -0.410225 0.264086 -0.871307 246 248 252
78.3094 134.216 -1692.4 -0.555707 0.176289 -0.806171 237 241 250
74.6374 139.069 -1690.17 -0.450008 0.089982 -0.869413 244 246 253
73.843 143.005 -1689.87 -0.418365 0.0219384 -0.892778 246 248 254
78.6365 149.269 -1692.35 -0.493226 -0.00890349 -0.86212 244 247 253
69.6335 156.691 -1686.69 -0.462976 0.0974241 -0.86861 250 251 253
79.4268 152.558 -1692.81 -0.511985 -0.0259706 -0.854724 245 247 253
-307.481 -1162.21 -1681.38 0.236415 -0.777424 -0.307684 198 162 146
-290.817 -1159.43 -1684.15 0.202076 -0.705897 -0.017221 192 157 139
-283.122 -1157.11 -1685.3 0.178776 -0.882132 -0.0636235 192 155 133
-273.384 -1158 -1679.79 -0.157822 -0.94865 -0.201698 206 163 137
-246.919 -1162.98 -1681.31 -0.0524317 -0.905459 -0.275859 207 161 135
-223.369 -1185.8 -1683.66 -0.206622 -0.880412 -0.0706918 58 40 41
-192.766 -845.756 -1684.02 -0.849314 0.0519827 -0.535614 213 209 214
-191.667 -839.075 -1685.16 -0.798395 0.0143914 -0.59916 217 214 219
-234.257 -825.245 -1684.14 0.470241 0.00114868 -0.67125 177 174 177
-208.95 -812.897 -1680.88 -0.438447 -0.531991 -0.751633 217 215 219
-199.072 -826.025 -1681.17 -0.624366 -0.287992 -0.732173 227 224 230
-206.653 -818.367 -1679.21 -0.468484 -0.44452 -0.722139 225 222 227
-205.237 -817.355 -1680.87 -0.491926 -0.457146 -0.744168 224 221 226
-195.784 -824.501 -1684.44 -0.595256 -0.271692 -0.75981 227 224 230
-210.248 -805.191 -1684.27 -0.330232 -0.512558 -0.799508 199 196 200
-214.869 -803.351 -1684.01 -0.42162 -0.469578 -0.777058 195 192 198
-220.897 -794.035 -1683.21 -0.636424 -0.134737 -0.730805 191 188 195
-220.828 -785.357 -1679.51 -0.651409 0.269303 -0.666223 186 183 189
-287.684 -401.298 -1680.66 0.854409 -0.451261 -0.270835 209 206 212
-283.142 -394.359 -1679.85 0.844746 -0.378972 -0.347723 218 215 221
-283.178 -381.707 -1684.22 0.78103 -0.0362739 -0.634285 214 211 218
-280.541 -371.919 -1678.17 0.798008 0.171336 -0.585791 205 201 209
-287.637 -366.581 -1685.36 0.838918 0.144932 -0.505809 206 202 209
-287.251 -364.449 -1683.68 0.836654 0.178036 -0.504647 204 200 207
-123.307 -1177.55 -1682.39 -0.335177 -0.916406 -0.129641 65 49 49
-121.031 -1179.34 -1680.36 -0.315837 -0.894417 -0.0805527 67 50 51
-105.101 -1186.05 -1683.44 -0.176918 -0.653133 -0.0768183 67 49 49
-94.6605 -1186.84 -1681.35 0.0702859 -0.853997 0.000865426 84 59 61
-88.2863 -1183.53 -1681.31 0.419807 -0.851792 0.183402 132 93 91
-81.7058 -1174.34 -1683.01 0.852418 -0.495397 0.211537 170 123 108
-78.0961 -1166.48 -1686.03 0.92094 -0.409133 0.0332134 180 133 113
-21.8107 -1191.17 -1678.6 -0.837332 0.278962 0.379581 103 81 77
-20.4164 -1181.16 -1682.69 -0.755937 0.360825 0.32789 177 136 120
24.0089 -679.955 -1683.13 -0.93895 -0.030036 -0.267123 194 191 198
-78.3983 -656.173 -1685.87 0.567766 0.296056 -0.767276 177 173 178
-81.4793 -642.349 -1681.37 0.616133 0.313919 -0.711797 179 175 180
-83.635 -636.707 -1681.54 0.664116 0.276961 -0.690072 181 177 181
-87.5407 -622.655 -1681.05 0.718202 0.235881 -0.654265 182 178 181
-82.4268 -634.027 -1679.25 0.663577 0.274357 -0.692679 180 176 181
-67.1089 -672.986 -1680.88 0.738558 0.0680908 -0.673124 189 185 189
-71.3846 -667.088 -1684.26 0.654173 0.203949 -0.722753 180 176 180
-72.9807 -649.142 -1679.53 0.469123 0.390047 -0.793097 180 176 181
-90.636 -618.6 -1682.79 0.720675 0.256342 -0.637955 187 183 187
-93.5399 -610.037 -1681.24 0.725467 0.293492 -0.595619 188 184 188
-97.1127 -595.603 -1680.49 0.695756 0.160054 -0.686672 182 178 183
-103.677 -584.409 -1685.17 0.687547 0.107361 -0.713528 181 177 180
-104.17 -568.821 -1684.49 0.671427 0.159363 -0.708005 168 164 167
-475.768 78.9028 -1685.07 0.270483 0.0263762 -0.440841 210 207 219
-382.856 54.4193 -1684.96 -0.106883 -0.0748112 -0.917314 192 190 204
-361.371 38.1089 -1685.94 -0.0199264 0.0560791 -0.95559 189 186 200
-353.424 38.8682 -1684.54 -0.0257367 0.159681 -0.945074 187 185 198
-364.503 45.798 -1685.68 -0.147257 0.0126678 -0.948635 176 173 186
-367.2 51.1253 -1683.54 -0.242889 0.00373918 -0.917973 180 177 190
-360.258 50.5257 -1685.15 -0.192435 0.00617966 -0.950688 180 176 189
-350.294 45.4046 -1684.24 0.0362757 0.026047 -0.970249 191 189 203
-347.749 49.3924 -1684.1 0.102925 -0.0502561 -0.977859 197 195 210
-386.142 66.0662 -1680.72 -0.171172 -0.236533 -0.867183 179 177 189
-380.549 56.7544 -1681.51 -0.213843 -0.200662 -0.863202 183 181 194
-392.137 70.4367 -1685.7 -0.00594195 -0.108085 -0.921777 183 181 193
-393.36 79.3577 -1685.6 0.301347 0.206059 -0.915646 168 165 177
-380.144 73.9817 -1680.83 -0.128805 -0.161333 -0.903704 192 190 202
-383.709 80.1803 -1682.53 0.120386 0.096948 -0.944321 196 195 206
-374.588 79.4308 -1682.85 -0.101533 -0.0187329 -0.934701 206 205 218
-359.157 59.0624 -1684.31 -0.337911 -0.0118745 -0.929545 191 188 201
-364.094 67.4728 -1683.03 -0.394062 -0.217804 -0.874878 194 191 204
-351.538 59.5294 -1686.99 -0.194248 0.0804063 -1.0001 203 203 218
-354.476 67.5936 -1684.8 -0.177619 0.0238376 -0.961923 204 205 220
-367.684 70.313 -1682.59 -0.368912 -0.255529 -0.865473 194 191 203
-362.13 69.299 -1683.38 -0.311929 -0.158849 -0.898979 198 196 210
-362.656 76.3716 -1683.98 -0.109298 -0.0295822 -0.934643 210 209 223
-350.746 71.7353 -1683.36 0.0115527 0.13805 -0.948385 205 206 222
-354.06 78.0297 -1681.79 0.0322439 0.171371 -0.931392 207 208 223
-324.077 -119.859 -1685.23 -0.822769 -0.106929 -0.386978 56 57 70
-292.177 -116.697 -1682.73 0.727898 0.186504 -0.634555 214 219 236
-293.834 -110.327 -1682.34 0.710091 0.17837 -0.681522 214 219 236
-233.959 238.873 -1682.88 0.210809 -0.790297 -0.544869 249 247 248
-226.623 239.371 -1683.53 0.0800453 -0.788336 -0.587315 244 243 244
-212.23 242.808 -1684.64 0.113855 -0.690186 -0.684316 202 171 179
-208.268 239.248 -1680.34 0.0272594 -0.696626 -0.710197 193 165 174
-189.455 244.228 -1682.74 0.212142 -0.600843 -0.680344 172 117 112
-196.099 244.442 -1684.93 0.0854251 -0.69616 -0.703369 176 103 111
-182.619 252.166 -1684.72 0.434629 -0.454793 -0.618594 211 164 142
-176.979 253.907 -1684.65 0.496482 -0.5574 -0.510395 222 176 149
-175.275 254.946 -1684.41 0.531801 -0.558021 -0.492871 225 178 150
39.8343 -16.7646 -1682.53 -0.941333 0.108125 -0.115951 207 206 216
42.1729 -2.51557 -1680.69 -0.823655 0.227192 -0.219087 214 215 224
43.7538 3.73456 -1679.59 -0.767466 0.256161 -0.323079 216 217 227
46.1798 12.4282 -1681.29 -0.709256 0.226878 -0.531235 220 221 230
48.1809 16.2503 -1683.02 -0.677071 0.235194 -0.616237 226 227 236
49.6869 30.8063 -1681.14 -0.531188 0.101924 -0.831063 246 246 254
49.3954 36.807 -1680.89 -0.589131 0.00589868 -0.790634 245 246 253
50.3598 42.9252 -1681.96 -0.592972 -0.016527 -0.79285 245 245 252
48.521 53.6029 -1680.2 -0.598915 0.00168376 -0.801068 246 244 249
54.0342 57.8766 -1683.34 -0.642181 0.0934304 -0.753145 245 244 250
49.7252 66.4273 -1679.48 -0.511008 0.0658632 -0.850904 249 248 253
49.8527 71.0662 -1679.78 -0.499397 0.0117415 -0.856498 249 248 253
48.9244 76.8622 -1679.84 -0.525744 -0.0308342 -0.83936 246 244 250
128.987 -1182.25 -1692.45 0.197434 -0.951515 0.0814729 73 64 65
117.384 -1176.61 -1681.24 0.252026 -0.955252 0.0301904 87 76 78
-369.163 -1205.9 -1673.79 0.499534 -0.646786 -0.544175 98 88 89
-368.097 -1205.08 -1672.69 0.499226 -0.646259 -0.545734 99 89 90
-363.904 -1195.96 -1676.93 0.49653 -0.658456 -0.5204 93 84 85
-357.087 -1187.78 -1676.07 0.471467 -0.691063 -0.471381 84 76 78
-349.879 -1180.52 -1676.31 0.477816 -0.685932 -0.484903 79 72 73
-331 -1176.64 -1672.75 0.159394 -0.802387 -0.557668 194 161 147
-320.934 -1172.36 -1674.21 0.34995 -0.824852 -0.420631 201 163 148
-311.265 -1167.38 -1675.06 0.306926 -0.75268 -0.467588 205 166 148
-308.961 -1163.47 -1678.17 0.264761 -0.716407 -0.48253 202 165 147
-284.831 -1180.18 -1675.03 0.050813 -0.890772 -0.0600659 156 110 102
-272.346 -1181.88 -1678.42 0.408401 -0.905892 0.0999891 171 121 107
-266.488 -1179.74 -1677.83 0.404738 -0.914909 -0.0286732 193 144 123
-283.218 -1170.3 -1676.53 -0.192343 -0.375456 -0.285538 177 138 127
-272.586 -1167.92 -1675.28 -0.00726305 -0.751583 -0.189446 189 146 130
-261.852 -1177.31 -1678.29 0.457968 -0.86677 -0.108662 205 157 132
-252.595 -1167.8 -1677.47 0.453607 -0.653456 -0.197006 206 160 134
-288.411 -428.717 -1672.41 0.759823 -0.132515 -0.5918 213 210 214
-289.337 -419.415 -1675.44 0.888576 -0.000847541 -0.426222 197 194 198
-286.935 -401.447 -1676.74 0.865602 -0.44517 -0.225561 203 200 205
-281.659 -393.095 -1672.83 0.878899 -0.39984 -0.174397 201 197 202
-279.679 -384.585 -1677.89 0.829852 -0.195098 -0.438034 208 204 211
-279.977 -377.752 -1679.26 0.80098 0.00455736 -0.569896 207 203 211
-284.463 -359.504 -1678.37 0.810526 0.121761 -0.559782 205 202 208
-280.675 -354.032 -1674.75 0.766047 -0.0431358 -0.616974 216 212 220
-126.356 -1177.51 -1678.7 -0.329667 -0.906501 -0.160902 65 50 49
-108.362 -1185.19 -1672.79 -0.198502 -0.875962 0.050426 66 48 50
-106.13 -1185.99 -1676.13 -0.170043 -0.784143 0.0262713 67 49 51
-88.4264 -1182.48 -1673.87 0.526502 -0.796861 0.122906 139 98 93
6.39459 -726.649 -1672.88 -0.741563 0.192019 -0.556655 176 171 177
11.5023 -719.227 -1678.68 -0.884061 0.308842 -0.267213 189 184 191
17.5012 -704.52 -1678.49 -0.939518 0.336795 -0.0764154 188 185 191
20.0038 -696.743 -1678.21 -0.918582 0.351309 -0.131646 192 189 195
20.9547 -679.921 -1673.37 -0.877206 -0.252988 -0.328572 193 190 197
22.3241 -680.238 -1678.16 -0.910328 -0.128593 -0.319346 194 191 198
-76.2461 -636.58 -1675.03 0.538719 0.349681 -0.753649 187 183 188
-79.011 -635.678 -1676.67 0.600158 0.312986 -0.725365 183 179 184
-80.326 -627.219 -1674.96 0.659995 0.263386 -0.702591 187 183 187
-60.2361 -665.926 -1675.28 0.598956 0.0293516 -0.799683 184 179 185
-58.5782 -667.807 -1674.19 0.573086 0.0238059 -0.819301 185 180 186
-67.9654 -652.817 -1678.69 0.51096 0.274473 -0.80091 183 179 184
-58.6575 -658.852 -1673.43 0.572823 0.087838 -0.807896 184 178 184
-279.542 -345.508 -1676.04 0.721958 -0.213001 -0.644734 224 221 229
-277.089 -343.95 -1674.33 0.675553 -0.225615 -0.695686 228 225 233
-275.674 -337.054 -1674.79 0.709582 -0.205067 -0.661773 226 223 232
-275.035 -318.254 -1677.51 0.856159 -0.134699 -0.496251 220 217 225
-273.821 -316.594 -1676.21 0.830927 -0.176435 -0.517459 220 217 226
-271.912 -308.597 -1677.93 0.787604 -0.288692 -0.53535 226 223 232
-268.398 -300.058 -1678.23 0.768199 -0.26412 -0.576212 228 225 235
-289.975 -294.343 -1676.85 0.709917 -0.149507 -0.666303 214 214 224
-291.224 -278.941 -1678.16 0.775343 -0.246328 -0.547244 219 220 229
-285.619 -290.589 -1676.97 0.715944 -0.138949 -0.649831 216 215 225
-279.254 -286.937 -1672.98 0.674741 -0.20111 -0.683973 220 218 227
-434.258 103.594 -1678.75 -0.00946308 0.660942 -0.735774 153 150 158
-427.668 102.285 -1678.59 0.0145827 0.702041 -0.708892 151 148 156
-415.41 108.102 -1674.34 -0.123577 0.603895 -0.75791 206 204 212
-409.904 103.715 -1678.98 0.0504753 0.642139 -0.737728 199 196 204
-401.423 106.081 -1675.74 0.173835 0.517309 -0.823759 207 205 213
-401.988 109.758 -1673.73 0.121622 0.519872 -0.833275 212 210 218
-393.112 96.9808 -1678.77 0.208551 0.423336 -0.868142 205 203 213
-396.618 108.521 -1673.08 0.236469 0.482152 -0.846306 220 219 227
-387.965 104.639 -1673.1 0.174223 0.448239 -0.867769 228 228 236
-377.081 96.5704 -1677.7 -0.0183676 0.412137 -0.908008 220 219 231
-377.634 103.781 -1674.64 -0.0890979 0.358698 -0.918166 215 215 226
-358.064 93.7769 -1678.47 0.0988758 0.281835 -0.945418 213 214 229
-357.451 89.8049 -1679.1 0.17119 0.313956 -0.928428 217 217 233
-345.312 93.1939 -1674.71 0.426767 0.162094 -0.845253 214 217 236
-362.421 98.2612 -1677.24 0.0133654 0.347051 -0.934782 209 209 224
-364.877 103.996 -1674.78 -0.0115542 0.368621 -0.928544 208 209 222
-352.403 98.5622 -1675.87 0.161173 0.276978 -0.913224 210 212 228
-357.007 103.311 -1674.65 0.0366565 0.381713 -0.913337 207 208 222
-368.443 109.526 -1672.63 -0.0321803 0.3315 -0.935248 207 208 221
29.012 -72.3914 -1672.29 -0.739341 0.0299537 -0.361378 220 224 239
29.3071 -62.6888 -1672.08 -0.698952 0.122574 -0.228234 223 226 242
34.9794 -57.1397 -1678.76 -0.841611 0.255903 0.297662 209 210 219
34.9838 -41.2508 -1674.08 -0.756939 -0.0190988 -0.397363 226 228 241
36.6282 -33.4342 -1678.02 -0.82138 0.110982 -0.276279 219 220 231
44.7277 86.5759 -1676.89 -0.64841 0.0465663 -0.754128 236 231 241
42.3603 90.483 -1673.1 -0.698496 0.108371 -0.702445 242 238 246
46.447 98.4454 -1676.2 -0.657315 0.079008 -0.740802 244 241 248
47.8639 107.946 -1677.02 -0.666648 0.0471093 -0.73886 249 248 251
44.9438 121.466 -1672.68 -0.650647 0.0331718 -0.750608 253 253 254
46.203 126.948 -1673.91 -0.589098 0.0159488 -0.794498 253 253 254
52.6365 126.742 -1678.18 -0.638509 0.138234 -0.754883 251 253 255
50.7287 132.417 -1676.77 -0.560533 0.0886399 -0.811082 252 253 254
-246.492 -1168.36 -1668.51 -0.0777329 -0.769994 -0.504106 203 156 130
-291.064 -1160.37 -1671.26 0.345696 -0.835823 -0.227472 208 169 149
-278.146 -1157.31 -1667.57 0.0310057 -0.935886 -0.202958 212 169 147
-275.51 -1157.29 -1670.37 -0.122428 -0.957397 -0.144076 212 168 146
-229.985 -1167.63 -1668.95 0.385042 -0.786274 -0.311774 204 157 130
-309.2 -657.16 -1672.09 0.562498 0.219916 -0.802214 191 189 197
-303.08 -651.782 -1672.21 0.605344 0.171486 -0.7671 200 199 206
-307.081 -646.543 -1669.68 0.558394 0.161858 -0.812178 195 193 201
-307.371 -641.151 -1667 0.527245 0.124548 -0.835404 195 194 201
-302.657 -636.747 -1671.43 0.51043 0.0818259 -0.839826 187 186 195
-309.19 -630.226 -1668.89 0.400757 0.0609914 -0.904723 191 191 199
-302.531 -633.289 -1670.02 0.443779 0.0593614 -0.875579 192 192 200
-275.946 -672.725 -1670.07 0.854557 0.0765963 -0.509318 208 209 213
-279.592 -651.581 -1672.18 0.830697 0.0754222 -0.536253 211 211 215
-279.026 -643.36 -1670.64 0.825378 0.0749855 -0.539136 204 203 208
-276.526 -638.996 -1667.2 0.827914 0.0981303 -0.539418 191 190 194
-280.241 -634.135 -1671.18 0.858216 0.0682807 -0.490072 191 189 193
-283.804 -618.483 -1670.55 0.882728 0.200355 -0.408158 190 187 192
-284.898 -613.562 -1668.6 0.897132 0.179255 -0.371166 199 196 201
-283.987 -600.927 -1666.73 0.908607 -0.00289704 -0.404814 206 203 208
-286.335 -588.865 -1670.37 0.832761 0.0556383 -0.503088 211 207 212
-284.759 -585.171 -1668.26 0.747611 0.0208592 -0.633731 216 212 217
-12.7447 -836.327 -1670.42 -0.190923 -0.141576 -0.240672 195 191 195
-4.83074 -833.682 -1666.99 -0.279762 -0.11695 -0.377776 188 184 188
4.46803 -826.508 -1672.99 -0.251767 -0.076121 -0.151515 195 190 194
15.2626 -832.478 -1665.94 -0.250859 -0.109569 -0.419078 193 189 193
14.9912 -825.492 -1672.22 -0.265032 -0.114953 -0.453043 191 187 191
22.6605 -833.291 -1669.14 -0.252109 -0.112643 -0.380604 191 186 191
-34.7092 -736.827 -1670.64 0.246052 0.387756 -0.876549 194 190 194
-34.555 -734.606 -1669.47 0.226859 0.390933 -0.87723 191 187 191
31.6275 -452.384 -1669.78 -0.723123 -0.119908 -0.682508 215 213 219
28.4785 -442.769 -1667.43 -0.748788 -0.0255072 -0.660638 211 209 216
31.2394 -436.019 -1668.91 -0.726636 0.0996327 -0.678088 211 210 217
31.4827 -426.435 -1667.83 -0.73173 0.0409771 -0.675385 214 213 219
28.6405 -414.242 -1666.27 -0.734236 -0.0529292 -0.682353 215 213 220
32.9324 -411.067 -1671.47 -0.757374 -0.0303687 -0.647155 215 213 219
31.1632 -401.634 -1669.89 -0.82704 -0.04004 -0.542396 213 212 218
29.4582 -391.751 -1666.76 -0.829175 -0.0618014 -0.528179 215 214 221
26.5482 -382.643 -1665.93 -0.717202 -0.211467 -0.656661 218 217 225
26.2788 -371.91 -1667.66 -0.800265 -0.0958739 -0.580038 220 218 226
28.5438 -370.874 -1670.67 -0.832828 -0.102497 -0.537146 219 218 226
24.2155 -355.386 -1667.23 -0.706814 -0.127161 -0.673203 223 221 228
-304.727 -15.7908 -1672.4 0.542284 0.275621 -0.790656 216 220 241
-294.205 -25.1348 -1666.89 0.690283 0.120306 -0.713215 219 224 246
-307.561 -7.27069 -1671.32 0.533339 0.222333 -0.813847 214 218 238
-304.124 -2.1422 -1668.23 0.53056 0.223738 -0.815772 215 219 239
-304.671 -6.46128 -1669.63 0.528867 0.227711 -0.815031 215 219 240
-316.74 22.1989 -1670.04 0.611768 0.15624 -0.770566 213 217 235
-315.856 12.792 -1671.16 0.628746 0.231993 -0.740346 214 217 235
-307.598 9.48191 -1666.76 0.563194 0.239069 -0.790753 212 216 236
-315.31 26.471 -1668.66 0.585019 0.102744 -0.800643 213 218 236
-279.438 -22.113 -1669.3 0.684203 0.109588 -0.702526 218 223 240
-281.278 -16.4078 -1670.14 0.668925 0.1519 -0.713669 218 222 241
-283.398 -6.02826 -1670.18 0.669782 0.169599 -0.743834 217 222 241
-282.118 0.417812 -1667.43 0.695935 0.168765 -0.709473 218 223 242
-257.777 -14.9195 -1667.49 0.80944 0.0277602 -0.577477 223 229 244
-260.085 -10.8535 -1670.01 0.771422 0.0817643 -0.613568 220 226 241
-283.982 6.09261 -1668.08 0.732658 0.174489 -0.651766 219 224 242
-286.347 12.3826 -1669.3 0.702738 0.177127 -0.643148 219 224 242
-269.837 13.2768 -1671.88 0.719074 0.193121 -0.661202 217 222 239
-285.592 17.8742 -1667.04 0.746002 0.181836 -0.636208 219 224 242
-288.485 25.1258 -1669.71 0.656396 0.173209 -0.722098 217 222 241
-270.554 25.7028 -1669.76 0.865215 0.0917641 -0.493471 218 224 242
-169.094 332.167 -1666.89 0.836613 0.396585 0.361409 206 156 124
-162.984 327.74 -1671.72 0.854529 0.344869 0.37 201 154 121
-174.43 351.017 -1668.18 0.884456 0.17623 0.428173 208 159 125
-210.249 357.271 -1670.89 0.717392 0.402152 -0.464798 48 40 43
-216.55 372.208 -1669.52 0.792108 0.0434926 -0.555252 98 79 79
-215.346 376.161 -1666.19 0.757515 -0.036336 -0.631806 133 108 106
-198.352 354.15 -1666.67 0.3153 0.733686 -0.509133 62 45 42
-194.995 361.045 -1667.65 0.382622 0.629274 -0.515711 96 71 64
-202.033 377.857 -1670.94 0.595928 0.321243 -0.418598 150 115 105
-185.218 378.836 -1669.37 0.894759 0.255069 0.0492949 163 119 103
-221.914 385.281 -1671.87 0.741075 0.318871 -0.567878 87 70 73
-221.116 387.492 -1669.93 0.661134 0.317197 -0.634779 103 83 83
-224.384 397.825 -1667.2 0.616804 0.0190994 -0.719087 87 70 73
-224.797 400.849 -1667.73 0.661444 -0.0645766 -0.705606 82 66 69
-202.057 391.412 -1668.32 0.889617 0.0542363 -0.130405 110 80 72
-185.326 382.148 -1672.04 0.887898 0.173638 0.0723653 151 109 95
-204.403 397.344 -1671.57 0.866446 0.092238 -0.215239 100 74 69
-182.444 393.203 -1668.39 0.913002 -0.183269 0.0713129 95 70 63
-178.582 365.602 -1668.98 0.891228 0.386157 0.0640838 196 148 120
-178.998 366.137 -1669.46 0.891479 0.391276 0.0599117 196 148 120
-179.236 401.62 -1669.31 0.921585 0.0238405 -0.151061 73 57 58
1.07512 193.359 -1666.2 -0.218913 -0.273557 -0.92874 253 253 253
2.70178 203.633 -1669.82 -0.223867 -0.294639 -0.91923 253 253 253
-11.1561 206.385 -1666.32 -0.2284 -0.321869 -0.914146 253 253 253
-9.29489 215.482 -1670.58 -0.25983 -0.421643 -0.863035 253 253 253
-5.20987 204.791 -1667.59 -0.243135 -0.301251 -0.912864 253 253 253
-1.97248 213.466 -1672.07 -0.309101 -0.41211 -0.846448 253 253 253
17.4592 191.463 -1666.11 -0.241614 -0.323458 -0.8762 253 253 253
16.1374 198.405 -1669.11 -0.1313 -0.36005 -0.898941 253 253 253
22.609 193.891 -1669.37 -0.317596 -0.247289 -0.878572 253 253 253
24.5203 201.501 -1671.32 -0.250203 -0.19071 -0.917108 253 253 253
19.5311 205.427 -1671.61 -0.0946479 -0.29352 -0.927892 253 253 253
-18.3052 223.11 -1671.45 -0.0686928 -0.554591 -0.804392 253 253 253
60.4253 -922.538 -1676.22 -0.590245 -0.0133244 0.50545 169 165 167
59.5591 -914.103 -1674.1 -0.594771 -0.00922314 0.499518 169 165 167
60.8592 -910.253 -1669 -0.58529 -0.016445 0.503497 169 165 167
57.7737 -898.761 -1676.89 -0.599019 -0.0450376 0.513244 169 165 168
-103.886 -850.222 -1667.72 -0.401602 -0.162518 0.415321 211 207 210
-107.201 -841.138 -1677.67 -0.429418 -0.167994 0.495835 213 209 211
-89.0973 -843.067 -1674.74 -0.388525 -0.163189 0.32852 210 207 209
-98.208 -848.652 -1668.9 -0.404366 -0.159941 0.385568 211 207 209
-99.1446 -839.248 -1677.18 -0.477746 -0.171529 0.593753 214 210 212
-81.0767 -842.301 -1676.42 -0.371807 -0.179235 0.376678 211 208 210
-82.3295 -840.883 -1679.19 -0.389284 -0.158453 0.294227 211 207 210
57.4184 -889.138 -1674.32 -0.591118 -0.139594 0.562301 169 165 168
50.8402 -868.538 -1669.52 -0.598637 -0.263636 0.563608 167 163 167
51.6498 -868.296 -1672.03 -0.595603 -0.257072 0.584072 168 164 168
50.6824 -864.416 -1674.84 -0.58312 -0.271349 0.60125 159 155 159
-19.1129 464.763 -1677.63 -0.254908 0.307969 -0.576169 61 50 51
-22.8871 492.902 -1673.73 -0.302151 -0.0227494 -0.511926 57 48 50
-22.819 488.099 -1668.75 -0.380771 -0.140955 -0.603554 53 45 47
-370.273 -1212.5 -1663.46 0.498752 -0.643356 -0.551633 101 90 91
-360.548 -1202.17 -1664.12 0.499338 -0.638583 -0.561172 100 89 90
-352.158 -1195.61 -1662.76 0.533007 -0.632808 -0.538413 97 87 89
-344.022 -1187.8 -1665.04 0.47566 -0.637647 -0.566663 120 105 105
-331.928 -1183.85 -1662.57 0.324458 -0.80864 -0.469907 198 162 155
-329.508 -1183.36 -1661.46 0.33774 -0.839423 -0.416538 205 166 157
-312.809 -1173.52 -1663.52 0.334344 -0.858406 -0.333079 192 156 142
-310.118 -1172.48 -1662.58 0.294706 -0.872986 -0.306521 181 147 135
-291.587 -1166.25 -1659.64 0.306014 -0.809881 -0.372749 196 158 141
-268.598 -1177.54 -1664.68 0.225099 -0.961012 -0.00456519 193 142 124
-263.925 -1171.62 -1665.1 0.150927 -0.878429 -0.118986 190 143 128
-261.004 -1168.38 -1661.19 0.102322 -0.698892 -0.089965 204 158 138
-262.961 -351.161 -1661.47 0.70989 -0.335477 -0.581446 196 193 198
-114.899 -1182.07 -1662.98 -0.247104 -0.970765 0.0577793 66 49 50
-103.909 -1184.69 -1664.53 -0.0927802 -0.981899 0.0876654 66 47 48
-96.6677 -1185.39 -1665.76 0.0977168 -0.955907 0.0629024 86 60 59
-81.7555 -1185.22 -1660.21 0.385866 -0.739263 -0.432896 145 102 93
-79.2128 -1181.11 -1661.21 0.555463 -0.596822 -0.473837 165 120 106
-76.798 -1175.38 -1661.64 0.72759 -0.451487 -0.433742 180 134 115
-71.6167 -1163.89 -1662.61 0.727036 -0.536648 -0.465264 179 132 108
-57.4002 -1165.56 -1659.69 0.211021 -0.753667 -0.481044 161 117 98
-40.364 -1166.13 -1663.1 -0.0163938 -0.936533 -0.309284 95 80 76
-38.9364 -1165.44 -1665.08 -0.00205902 -0.930349 -0.334781 88 76 73
-20.6789 -1163.59 -1665 -0.40758 -0.727361 -0.348971 79 68 70
-60.4075 -1161.15 -1665.79 0.163485 -0.729809 -0.393677 166 121 102
22.5254 -566.378 -1662.77 -0.773943 -0.0993094 -0.512111 204 201 208
20.4982 -547.061 -1660.76 -0.71639 0.036324 -0.667064 203 202 210
24.2223 -546.036 -1664.95 -0.754408 0.0761517 -0.624418 205 203 211
20.2333 -530.203 -1662.69 -0.739519 -0.0569974 -0.662169 203 200 208
17.0557 -524.997 -1660.15 -0.655944 -0.139568 -0.697632 197 194 202
16.4409 -515.828 -1660.02 -0.486377 -0.135779 -0.816885 201 198 204
14.0078 -513.045 -1659.34 -0.3647 -0.0885075 -0.915366 207 203 208
17.1695 -503.137 -1659.95 -0.387552 0.028638 -0.900008 210 206 212
-269.695 -131.607 -1665.65 0.661945 0.0391137 -0.747345 221 225 246
-279.34 -108.287 -1665.96 0.553216 0.201441 -0.799143 214 218 236
-264.75 -118.181 -1659.35 0.6265 0.0775008 -0.773036 219 224 244
-270.396 -113.57 -1662.24 0.567582 0.182291 -0.798069 217 222 241
-255.03 -130.563 -1665.18 0.706649 0.0701587 -0.679996 226 228 246
-249.033 -129.257 -1660.63 0.657978 0.0376317 -0.734356 225 228 247
-237.52 -126.848 -1661.81 0.717969 0.119472 -0.677144 230 232 250
-252.715 -119.768 -1662.31 0.639552 0.0662833 -0.750641 222 225 243
-254.43 -108.346 -1662.6 0.638766 0.14421 -0.751456 218 221 240
-238.607 -112.145 -1664.44 0.704116 -0.0313991 -0.703236 229 231 249
-277.626 -97.3261 -1664.51 0.452701 0.0140033 -0.888379 216 218 237
-268.075 -107.053 -1659.6 0.526969 0.167113 -0.831133 217 222 241
-268.176 -98.1258 -1659.48 0.521133 0.0633752 -0.842162 217 222 241
-275.777 -91.6374 -1663.91 0.432672 0.00516642 -0.900653 216 219 237
-276.163 -84.4086 -1663.54 0.455054 0.0981318 -0.878381 216 219 238
-257.471 -101.127 -1664.84 0.592696 0.1312 -0.786184 218 220 237
-257.737 -95.3546 -1664.53 0.585374 0.130712 -0.7905 219 221 238
-237.682 -107.157 -1664.22 0.666146 -0.0315939 -0.739484 229 231 249
-251.061 -92.3288 -1659.34 0.602956 0.14055 -0.780017 219 222 239
-260.028 -84.8087 -1665.51 0.620355 0.162168 -0.747062 222 224 242
-240.358 -88.111 -1664.97 0.549497 0.0568463 -0.830436 219 221 239
-291.209 -44.2574 -1665.29 0.686881 0.0843413 -0.72131 220 224 246
-432.125 117.499 -1663.38 -0.108756 0.615789 -0.745823 221 220 228
-433.637 124.274 -1659.91 -0.250486 0.395236 -0.852166 229 226 234
-427.05 131.074 -1659.92 -0.348561 0.307837 -0.877103 210 206 213
-417.705 126.777 -1664.76 -0.295746 0.306067 -0.887698 209 205 213
-416.437 130.565 -1662.46 -0.20312 0.393784 -0.868752 217 213 221
-408.068 124.489 -1664.91 -0.0252951 0.444041 -0.86882 219 217 224
-412.232 129.716 -1662.84 -0.109316 0.41244 -0.871545 222 219 226
-403.796 134.823 -1660.21 -0.0214985 0.310538 -0.913035 236 235 241
-396.054 129.16 -1662.3 -0.0638025 0.301729 -0.911074 228 227 234
-392.233 131.993 -1662.51 -0.146022 0.178019 -0.941838 222 221 228
-384.68 130.775 -1664.1 -0.159802 0.261162 -0.929269 216 216 224
-372.907 129.369 -1665.18 -0.0420879 0.336999 -0.932675 213 214 226
-368.992 134.955 -1664.09 -0.0385081 0.176369 -0.979036 218 218 231
-351.382 128.271 -1665.74 -0.000799864 0.233333 -0.970117 212 213 230
-346.685 134.406 -1663.5 0.145576 0.218622 -0.945446 223 224 239
-403.893 136.385 -1659.89 -0.0551081 0.285761 -0.919231 235 234 240
12.4105 -350.932 -1659.16 -0.447294 -0.315065 -0.838009 224 223 231
18.2782 -350.391 -1663.64 -0.545004 -0.284673 -0.781417 224 223 231
16.4375 -339.044 -1665.69 -0.589347 -0.217655 -0.771201 227 225 234
14.3695 -331.487 -1665.1 -0.666052 -0.175066 -0.717926 232 230 238
3.0805 -317.975 -1659.46 -0.505716 -0.316015 -0.765722 230 228 237
2.89506 -316.118 -1660.44 -0.49607 -0.361576 -0.750015 229 228 237
-7.53617 -301.069 -1664.37 -0.625262 -0.285543 -0.714586 219 218 229
-0.942789 -308.532 -1664.53 -0.485664 -0.482945 -0.706099 224 223 232
-9.45411 -294.883 -1663.51 -0.705048 -0.201762 -0.654064 212 211 222
-11.4981 -285.604 -1664.28 -0.713496 -0.219511 -0.635541 217 216 226
-11.8438 -281.971 -1664.91 -0.704975 -0.210548 -0.654186 218 217 228
15.2438 145.611 -1658.77 -0.30629 -0.234043 -0.909331 253 253 253
22.6921 142.198 -1660.4 -0.311217 -0.254064 -0.89859 253 253 253
25.5433 143.92 -1662.14 -0.418445 -0.161816 -0.870574 253 253 253
15.7906 153.597 -1659.48 -0.342714 -0.0485782 -0.92941 253 253 253
20.9014 155.317 -1661.51 -0.350584 -0.0681894 -0.922597 253 253 253
23.233 158.611 -1662.9 -0.397071 -0.0801209 -0.902721 253 253 253
-17.0978 188.539 -1659.24 -0.188924 -0.2934 -0.934866 253 253 253
-3.2735 181.234 -1659.54 -0.208143 -0.320423 -0.913564 253 253 253
-2.70879 187.766 -1663.06 -0.228142 -0.303742 -0.918804 253 253 253
3.04885 183.603 -1661.51 -0.196016 -0.261002 -0.930592 253 253 253
19.7337 168.38 -1662.34 -0.326386 -0.123215 -0.922979 253 253 253
14.9026 174.615 -1661.56 -0.242331 -0.134664 -0.949444 253 253 253
23.0236 166.449 -1663.4 -0.385686 -0.107592 -0.903567 253 253 253
10.222 179.624 -1661.37 -0.198359 -0.157464 -0.95619 253 253 253
17.0743 178.416 -1662.83 -0.311307 -0.153872 -0.919544 253 253 253
16.9603 187.923 -1664.77 -0.2865 -0.269315 -0.882588 253 253 253
-82.7514 212.451 -1661.05 -0.294616 -0.54899 -0.751302 211 167 174
-77.559 215.945 -1664.9 -0.226405 -0.520668 -0.789012 208 161 171
-108.543 235.466 -1660.37 -0.287725 -0.122944 -0.922663 236 186 161
-112.799 237.687 -1659.13 -0.214819 -0.0372879 -0.970155 234 183 157
-103.432 240.874 -1661.88 -0.381031 -0.00481991 -0.89649 234 185 160
-268.48 -690.436 -1657.38 0.828353 -0.0854758 -0.538738 202 202 206
-268.427 -687.698 -1657.68 0.851365 -0.0771126 -0.508541 203 203 208
-233.359 -770.096 -1657.7 -0.353666 0.435031 -0.81886 171 170 177
-234.865 -764.288 -1655.43 -0.218382 0.334824 -0.901573 179 177 184
-224.645 -759.301 -1656.83 -0.393364 0.341985 -0.828793 184 181 188
-226.054 -753.16 -1653.89 -0.350794 0.297556 -0.867344 194 191 197
-218.153 -752.287 -1658.9 -0.577634 0.293375 -0.7492 188 185 191
-216.302 -744.039 -1657.75 -0.631842 0.269095 -0.73084 199 196 203
-214.976 -735.144 -1653.62 -0.582884 0.386607 -0.717248 208 205 212
-208.803 -727.406 -1653.92 -0.640481 0.378329 -0.661379 205 202 208
-204.554 -721.572 -1657.2 -0.740756 0.224681 -0.603736 203 200 206
-204.794 -709.496 -1655.92 -0.751395 -0.0231202 -0.631009 204 201 207
-261.534 -355.696 -1653.46 0.797555 -0.500064 -0.319839 147 144 146
-118.476 -1180.2 -1653.94 -0.261526 -0.961238 0.0742458 64 51 51
-103.521 -1184.49 -1655.15 -0.144417 -0.997335 0.014449 60 44 43
-97.0364 -1186.06 -1653.93 -0.0732395 -0.994449 -0.0514509 70 48 46
-92.1124 -1186.94 -1654.46 0.00421726 -0.974003 -0.119761 82 54 52
-76.0912 -1184.95 -1653.37 0.610071 -0.533868 -0.48836 171 122 105
-71.5477 -1175.67 -1652.91 0.695553 -0.50294 -0.300703 162 119 101
-66.5452 -1166 -1658.8 0.605526 -0.580082 -0.550789 173 124 101
-56.5781 -1166.92 -1656.1 0.21345 -0.785695 -0.412385 169 121 100
-44.6551 -1168.36 -1652.15 -0.00104166 -0.981632 -0.142275 136 102 88
-37.7583 -1167.72 -1652.81 0.0689766 -0.988802 -0.122586 94 78 74
-24.3761 -1165.96 -1653.33 0.0807166 -0.993992 -0.12939 61 59 61
3.95549 -562.513 -1652.73 -0.237375 0.0514533 -0.965572 210 205 213
14.0509 -566.043 -1655.26 -0.362385 0.0182915 -0.820347 209 204 213
8.41884 -556.771 -1653.12 -0.233193 0.0858249 -0.951031 210 205 213
8.35459 -553.288 -1652.82 -0.252352 0.0914518 -0.947413 210 205 213
18.7442 -549.256 -1658.94 -0.680128 0.0476547 -0.679633 203 201 209
15.1631 -546.707 -1656.34 -0.572023 0.0340274 -0.777744 206 203 211
7.02016 -518.366 -1654.76 -0.48994 -0.317628 -0.79298 171 171 177
15.681 -538.982 -1656.82 -0.672662 0.00983357 -0.730201 204 202 210
12.697 -525.701 -1655.57 -0.623476 -0.126169 -0.717346 178 177 185
10.4182 -517.523 -1656.85 -0.479012 -0.262003 -0.81122 183 181 187
3.08926 -513.674 -1654.17 -0.488225 -0.286467 -0.809177 172 172 178
11.2276 -506.406 -1657.79 -0.302276 0.0748634 -0.942802 199 196 201
10.3499 -505.702 -1657.16 -0.377484 0.0515667 -0.904543 195 191 196
-252.285 -239.715 -1658.41 0.688594 -0.128418 -0.707095 228 227 244
-248.994 -240.099 -1656 0.651991 -0.122743 -0.734364 228 227 243
-249.488 -235.442 -1656.66 0.66496 -0.101397 -0.733981 226 225 243
-259.895 -227.41 -1654 0.708052 -0.0716793 -0.70073 227 225 244
-263.137 -221.442 -1658.12 0.733798 -0.0122592 -0.678083 229 227 246
-243.413 -221.263 -1652.78 0.702841 0.0225394 -0.701911 232 232 247
-263.727 -215.143 -1658.21 0.728297 0.0613854 -0.683634 233 231 249
-265.371 -190.857 -1658.79 0.705414 -0.0471024 -0.698311 231 233 249
-262.371 -208.779 -1655.96 0.690808 0.0595895 -0.719429 226 225 242
-242.78 -213.636 -1652.78 0.692941 0.0330741 -0.710304 235 235 249
-242.762 -203.339 -1654.04 0.680051 0.0304493 -0.717928 239 241 252
-243.473 -196.685 -1655.07 0.688135 0.00675558 -0.701892 236 237 250
-244.429 -192.641 -1655.93 0.691646 -0.00471721 -0.697035 234 234 248
-264.178 -184.154 -1658.55 0.738463 -0.11944 -0.659725 239 241 255
-262.997 -177.698 -1658.02 0.768914 -0.123241 -0.626655 238 239 255
-246.275 -187.776 -1657.45 0.699452 -0.0196527 -0.690691 232 232 246
-248.061 -176.591 -1658.81 0.73566 -0.0521349 -0.668928 240 241 253
-261.77 -172.353 -1657.61 0.76079 -0.108967 -0.63881 234 235 253
-258.496 -166.602 -1654.25 0.738572 -0.123728 -0.663901 234 235 252
-237.61 -171.625 -1652.16 0.614839 -0.0488885 -0.752994 232 233 243
-238.792 -165.201 -1653.65 0.647098 -0.0536506 -0.732788 237 238 246
-257.941 -159.906 -1654.32 0.719865 -0.0356646 -0.690499 226 227 246
-243.96 -159.205 -1658.23 0.742685 -0.0215758 -0.652358 237 239 251
-243.296 -149.322 -1658.19 0.701547 0.054774 -0.687394 233 235 252
-395.803 147.244 -1659.01 -0.23175 0.25591 -0.909918 224 223 230
-385.267 154.324 -1657.81 -0.183625 0.435871 -0.870969 233 232 238
-386.588 156.871 -1656.18 -0.214224 0.437609 -0.864355 233 233 239
-382.576 158.935 -1655.99 -0.175532 0.394162 -0.891402 232 232 238
-371.417 157.831 -1657.59 -0.0501606 0.330658 -0.936079 231 231 239
-366.612 160.9 -1657.79 -0.0665625 0.213608 -0.957858 233 233 242
-353.617 154.976 -1658.9 0.0200506 0.34913 -0.939382 226 225 236
-389.704 163.148 -1652.74 -0.2266 0.335251 -0.901419 237 237 243
-380.938 165.173 -1654.87 -0.188646 0.253599 -0.932734 233 233 238
-374.048 166.267 -1655.89 -0.147857 0.211572 -0.953845 234 234 240
-374.979 173.099 -1654.88 -0.160258 0.137491 -0.974702 237 238 244
-381.217 181.601 -1652.39 -0.149241 0.175167 -0.978306 245 245 249
-373.174 185.592 -1654.38 -0.214055 0.0365368 -0.96202 243 244 249
-367.53 167.222 -1657 -0.133786 0.148896 -0.967677 235 235 243
-366.945 170.669 -1656.79 -0.156911 0.10371 -0.975897 236 236 244
-357.593 162.564 -1658.59 -0.0764312 0.064301 -0.982938 236 237 246
-354.889 173.046 -1658.46 -0.109778 0.0377693 -0.988392 240 241 248
-363.519 175.54 -1657.13 -0.190797 0.0678251 -0.978767 237 237 245
-368.833 187.761 -1655.85 -0.212804 -0.0371491 -0.961384 245 245 250
-359.303 186.109 -1657.18 -0.150227 -0.0237771 -0.977966 244 244 249
-348.097 178.6 -1657.77 -0.0158415 0.0560202 -0.99064 242 243 250
-350.757 186.313 -1657.83 0.0103956 0.000777517 -0.982396 245 245 250
-473.623 221.754 -1653.17 -0.125757 -0.701718 -0.668029 176 177 190
-479.079 225.436 -1652.77 -0.124114 -0.641946 -0.68629 183 180 193
-472.09 224.448 -1656.44 -0.0935809 -0.772825 -0.620523 165 169 184
-458.387 220.978 -1658.65 -0.0686733 -0.769325 -0.627482 161 166 180
-194.904 360.424 -1657.74 0.502696 0.387226 -0.530693 155 120 111
-207.583 366.104 -1655.07 0.438344 0.151359 -0.802794 142 112 108
-196.864 377.94 -1658.43 0.665683 0.0773946 -0.652572 154 114 106
