ply
format ascii 1.0
comment Created by Open3D
element vertex 1457
property double x
property double y
property double z
property uchar red
property uchar green
property uchar blue
end_header
-186.984 -503.746 -1883 53 57 57
-183.025 -503.411 -1882 52 56 55
-178.787 -502.274 -1878 49 53 52
-175.032 -502.476 -1879 49 53 52
-171.183 -502.412 -1879 47 51 52
-167.782 -503.687 -1884 44 48 47
-163.926 -503.626 -1884 41 45 44
-160.496 -504.903 -1889 40 46 47
-156.55 -504.577 -1888 44 49 50
-152.69 -504.52 -1888 44 48 49
-148.989 -504.999 -1890 44 48 50
-145.28 -505.479 -1892 45 49 52
-141.566 -505.961 -1894 45 49 50
-137.698 -505.91 -1894 45 49 50
-134.115 -506.928 -1898 46 50 51
-130.104 -506.345 -1896 46 50 51
-126.236 -506.298 -1896 46 50 51
-122.305 -505.986 -1895 47 51 52
-118.816 -507.543 -1901 48 50 52
-114.82 -506.967 -1899 48 50 52
-111.125 -507.726 -1902 48 50 52
-107.588 -509.287 -1908 50 51 53
-103.865 -510.049 -1911 51 51 53
-100.182 -511.079 -1915 50 50 52
-96.6349 -512.911 -1922 48 49 51
-93.0118 -514.478 -1928 46 48 50
-89.3189 -515.779 -1933 46 48 50
-85.5621 -516.814 -1937 44 46 48
-81.874 -518.384 -1943 43 45 47
-78.1624 -519.955 -1949 46 48 50
-74.8075 -524.196 -1965 48 50 52
-71.7487 -531.104 -1991 49 51 53
-69.1288 -542.282 -2033 48 49 52
-66.3386 -553.46 -2075 43 43 47
-63.4979 -565.705 -2121 40 44 47
-287.69 -538.074 -1988 51 54 60
-280.286 -531.744 -1965 51 53 58
-274.807 -528.934 -1955 50 53 55
-269.787 -526.938 -1948 49 51 54
-265.072 -525.486 -1943 49 51 54
-259.977 -523.224 -1935 50 52 56
-255.313 -521.776 -1930 51 53 56
-250.412 -519.79 -1923 50 52 54
-246.44 -519.697 -1923 49 51 54
-241.712 -517.984 -1917 49 51 55
-237.384 -517.084 -1914 45 49 52
-233.436 -516.996 -1914 42 46 49
-229.37 -516.64 -1913 42 46 49
-225.193 -516.015 -1911 44 48 51
-221.141 -515.662 -1910 44 48 51
-216.868 -514.771 -1907 43 48 50
-212.832 -514.421 -1906 45 50 52
-208.364 -512.993 -1901 46 50 52
-204.133 -512.107 -1898 47 49 51
-199.811 -510.952 -1894 48 50 52
-195.507 -509.8 -1890 50 52 54
-191.019 -508.109 -1884 53 55 57
-186.954 -507.5 -1882 53 56 57
-183.287 -507.97 -1884 51 55 56
-178.948 -506.555 -1879 49 53 54
-175.283 -507.028 -1881 49 53 54
-171.247 -506.425 -1879 48 52 53
-167.844 -507.709 -1884 44 48 48
-164.073 -507.917 -1885 40 44 43
-160.64 -509.204 -1890 44 48 49
-156.773 -509.145 -1890 46 51 52
-152.908 -509.088 -1890 46 50 51
-149.122 -509.301 -1891 46 50 52
-145.411 -509.785 -1893 45 49 50
-141.618 -510.001 -1894 44 48 49
-137.895 -510.488 -1896 45 49 50
-134.164 -510.976 -1898 45 49 50
-130.427 -511.466 -1900 47 51 52
-126.283 -510.341 -1896 46 50 51
-122.35 -510.026 -1895 47 51 52
-118.672 -510.789 -1898 49 52 53
-114.862 -511.015 -1899 48 51 52
-111.166 -511.78 -1902 49 51 53
-107.515 -512.816 -1906 51 52 54
-103.957 -514.391 -1912 51 52 54
-100.376 -515.967 -1918 48 50 52
-96.7208 -517.276 -1923 48 49 51
-92.9495 -518.048 -1926 47 48 50
-89.3979 -520.166 -1934 44 46 48
-85.7261 -521.747 -1940 43 45 47
-81.9885 -523.061 -1945 42 44 46
-78.151 -523.838 -1948 43 45 47
-74.9873 -529.457 -1969 48 50 52
-71.8832 -536.152 -1994 47 49 51
-69.2561 -547.419 -2036 45 46 49
-66.5868 -559.761 -2082 42 43 47
-63.7909 -572.642 -2130 38 41 44
-288.522 -543.708 -1993 50 54 59
-280.819 -536.781 -1968 49 53 56
-275.051 -533.404 -1956 51 53 57
-269.889 -531.12 -1948 49 51 55
-265.035 -529.383 -1942 48 50 54
-260.074 -527.376 -1935 48 50 54
-255.409 -525.916 -1930 49 51 54
-250.767 -524.458 -1925 49 51 53
-246.917 -524.637 -1926 47 51 53
-242.181 -522.911 -1920 47 51 54
-237.969 -522.276 -1918 45 49 52
-233.646 -521.371 -1915 42 46 49
-229.576 -521.011 -1914 42 46 49
-225.395 -520.381 -1912 44 48 51
-221.108 -519.481 -1909 44 48 51
-217.063 -519.126 -1908 44 48 51
-212.577 -517.685 -1903 45 49 51
-208.442 -517.062 -1901 47 51 52
-204.21 -516.169 -1898 48 50 52
-199.675 -514.462 -1892 48 50 52
-195.684 -514.116 -1891 50 52 54
-191.597 -513.499 -1889 51 53 55
-187.321 -512.341 -1885 52 54 56
-183.453 -512.272 -1885 50 54 54
-179.015 -510.573 -1879 48 52 53
-175.442 -511.322 -1882 47 51 52
-171.584 -511.257 -1882 46 50 51
-167.995 -512.008 -1885 44 48 49
-164.309 -512.489 -1887 41 45 45
-160.955 -514.058 -1893 42 46 47
-156.915 -513.455 -1891 45 49 50
-152.884 -512.854 -1889 45 49 50
-149.178 -513.341 -1891 47 51 52
-145.388 -513.557 -1892 46 50 51
-141.596 -513.775 -1893 45 49 50
-137.873 -514.266 -1895 46 50 51
-134.214 -515.029 -1898 47 51 52
-130.269 -514.708 -1897 47 51 52
-126.33 -514.389 -1896 45 49 50
-122.395 -514.071 -1895 47 51 52
-118.591 -514.297 -1896 49 53 54
-114.844 -514.796 -1898 49 53 54
-111.324 -516.382 -1904 50 52 54
-107.724 -517.697 -1909 51 53 55
-104.105 -519.013 -1914 49 51 53
-100.413 -520.06 -1918 49 51 53
-96.7567 -521.378 -1923 48 49 51
-93.2254 -523.512 -1931 46 46 48
-89.6161 -525.375 -1938 43 44 46
-85.7138 -525.614 -1939 42 43 45
-82.2298 -528.564 -1950 43 44 46
-78.18 -527.992 -1948 44 46 48
-75.0534 -533.927 -1970 49 51 53
-71.8738 -540.133 -1993 48 50 52
-69.8603 -556.367 -2053 44 46 49
-66.8995 -566.639 -2091 39 41 45
-64.0542 -579.351 -2138 36 38 40
-288.776 -548.269 -1994 49 52 57
-280.783 -540.737 -1967 48 52 55
-275.155 -537.607 -1956 50 52 56
-270.545 -536.404 -1952 49 51 55
-265.545 -534.379 -1945 48 50 54
-260.441 -532.081 -1937 46 48 52
-255.903 -530.885 -1933 47 49 52
-251.383 -529.69 -1929 47 49 51
-247.138 -529.046 -1927 46 50 52
-242.651 -527.855 -1923 46 50 53
-238.68 -527.764 -1923 45 49 52
-234.1 -526.302 -1918 43 47 50
-230.023 -525.94 -1917 43 47 50
-225.834 -525.304 -1915 44 48 51
-221.539 -524.397 -1912 44 48 51
-217.372 -523.765 -1910 44 48 51
-212.769 -522.039 -1904 45 49 51
-208.301 -520.588 -1899 47 51 52
-204.179 -519.962 -1897 47 49 51
-199.645 -518.241 -1891 48 50 52
-195.758 -518.166 -1891 51 53 55
-191.568 -517.271 -1888 50 52 54
-187.392 -516.378 -1885 52 54 55
-183.522 -516.308 -1885 50 54 53
-179.559 -515.965 -1884 50 54 54
-175.601 -515.624 -1883 50 54 55
-171.649 -515.285 -1882 49 53 54
-168.058 -516.042 -1885 47 51 52
-164.457 -516.8 -1888 43 47 48
-160.931 -517.834 -1892 43 47 48
-156.974 -517.5 -1891 44 48 49
-153.022 -517.168 -1890 44 48 49
-149.155 -517.111 -1890 45 49 50
-145.366 -517.329 -1891 46 50 51
-141.649 -517.822 -1893 46 50 51
-137.925 -518.317 -1895 48 52 53
-134.194 -518.813 -1897 49 53 54
-130.25 -518.489 -1896 47 51 52
-126.244 -517.894 -1894 45 49 50
-122.377 -517.847 -1894 47 51 52
-118.573 -518.075 -1895 48 52 53
-114.948 -519.125 -1899 49 53 54
-111.483 -520.996 -1906 51 53 55
-107.934 -522.595 -1912 49 51 53
-104.198 -523.374 -1915 48 50 52
-100.503 -524.429 -1919 51 51 53
-96.7426 -525.212 -1922 49 49 51
-93.3569 -528.182 -1933 46 46 48
-89.5571 -528.967 -1936 46 46 48
-85.8343 -530.3 -1941 43 43 45
-82.0497 -531.362 -1945 43 43 45
-78.6107 -534.883 -1958 44 45 47
-75.3862 -540.317 -1978 49 51 53
-72.5501 -549.304 -2011 48 50 52
-69.8524 -560.476 -2052 43 45 48
-67.0845 -572.468 -2096 37 39 43
-64.0481 -583.641 -2137 37 39 41
-289.031 -552.838 -1995 48 52 56
-281.604 -546.356 -1972 47 51 54
-275.26 -541.816 -1956 50 52 56
-270.51 -540.327 -1951 50 52 56
-265.51 -538.286 -1944 49 51 55
-260.675 -536.523 -1938 47 49 53
-256.133 -535.317 -1934 47 49 53
-251.609 -534.113 -1930 48 50 52
-247.361 -533.464 -1928 49 52 54
-243.123 -532.817 -1926 46 50 53
-238.647 -531.618 -1922 45 49 52
-234.555 -531.251 -1921 44 48 51
-229.87 -529.503 -1915 43 47 50
-225.566 -528.587 -1912 44 48 51
-221.507 -528.225 -1911 44 48 51
-217.227 -527.312 -1908 45 49 52
-212.738 -525.848 -1903 47 49 52
-208.38 -524.663 -1899 47 49 51
-204.041 -523.479 -1895 46 48 50
-199.826 -522.573 -1892 48 50 52
-195.832 -522.222 -1891 49 51 53
-191.641 -521.319 -1888 49 51 53
-187.96 -521.799 -1890 52 54 56
-183.494 -520.072 -1884 49 53 52
-179.722 -520.279 -1885 48 52 53
-175.947 -520.487 -1886 49 53 54
-171.896 -519.869 -1884 47 51 52
-168.211 -520.356 -1886 44 48 49
-164.607 -521.121 -1889 43 47 48
-160.906 -521.611 -1891 41 45 46
-157.033 -521.55 -1891 43 47 48
-153.08 -521.215 -1890 43 47 48
-149.133 -520.882 -1889 45 49 50
-145.19 -520.55 -1888 46 50 51
-141.628 -521.599 -1892 47 51 52
-137.686 -521.27 -1891 48 52 53
-133.891 -521.494 -1892 47 51 52
-130.093 -521.72 -1893 45 49 50
-126.158 -521.395 -1892 45 49 50
-122.294 -521.348 -1892 46 50 51
-118.931 -523.507 -1900 47 51 52
-115.476 -525.391 -1907 50 54 55
-111.701 -525.899 -1909 51 53 55
-108.088 -527.234 -1914 48 50 52
-104.346 -528.021 -1917 47 49 51
-100.698 -529.359 -1922 49 49 51
-97.0812 -530.974 -1928 47 47 49
-93.3438 -532.039 -1932 46 46 48
-89.7761 -534.208 -1940 46 46 48
-85.9551 -535 -1943 43 43 45
-82.2916 -536.896 -1950 43 43 45
-78.6403 -539.068 -1958 45 47 49
-75.7579 -547.023 -1987 49 51 53
-72.5414 -553.326 -2010 48 50 52
-70.5258 -570.091 -2071 43 45 48
-67.6541 -581.626 -2113 37 39 43
-64.1322 -588.758 -2139 38 40 42
-288.708 -556.3 -1992 48 51 56
-281.856 -550.884 -1973 47 51 54
-275.366 -546.03 -1956 48 52 55
-270.614 -544.529 -1951 48 52 55
-265.749 -542.751 -1945 48 50 54
-260.372 -539.859 -1935 49 51 55
-255.966 -538.922 -1932 49 51 55
-251.706 -538.266 -1930 50 52 54
-247.456 -537.612 -1928 49 52 55
-243.09 -536.681 -1925 46 50 53
-238.49 -535.194 -1920 46 50 53
-234.645 -535.382 -1921 45 49 52
-229.958 -533.62 -1915 44 48 51
-225.652 -532.697 -1912 43 47 50
-221.708 -532.611 -1912 44 48 51
-217.424 -531.691 -1909 45 49 52
-213.043 -530.494 -1905 47 50 52
-208.68 -529.299 -1901 47 49 51
-204.55 -528.662 -1899 46 48 50
-199.797 -526.358 -1891 48 50 52
-195.7 -525.725 -1889 48 50 52
-191.511 -524.816 -1886 48 50 52
-187.833 -525.299 -1888 51 53 55
-183.662 -524.393 -1885 50 53 53
-179.791 -524.324 -1885 48 52 52
-176.015 -524.533 -1886 46 50 51
-172.144 -524.467 -1886 43 47 48
-168.276 -524.401 -1886 41 45 46
-164.757 -525.45 -1890 40 44 45
-160.968 -525.665 -1891 40 44 45
-157.01 -525.326 -1890 44 48 49
-153.058 -524.989 -1889 45 49 50
-149.189 -524.931 -1889 45 49 50
-145.169 -524.319 -1887 45 49 50
-141.532 -525.097 -1890 44 48 49
-137.738 -525.322 -1891 46 50 51
-134.013 -525.825 -1893 47 51 52
-130.073 -525.497 -1892 47 51 52
-126.273 -525.726 -1893 46 50 51
-122.47 -525.956 -1894 45 49 50
-119.039 -527.853 -1901 46 50 51
-115.58 -529.752 -1908 47 51 52
-111.977 -531.097 -1913 47 49 51
-108.129 -531.332 -1914 45 47 49
-104.44 -532.402 -1918 45 47 49
-100.789 -533.751 -1923 47 47 49
-97.0678 -534.823 -1927 47 47 49
-93.3793 -536.174 -1932 47 47 49
-89.6713 -537.527 -1937 47 47 49
-85.9435 -538.881 -1942 46 46 48
-82.3651 -541.346 -1951 44 44 46
-78.831 -544.367 -1962 46 47 49
-75.7866 -551.274 -1987 47 48 50
-73.3271 -563.453 -2031 47 49 51
-70.7569 -576.187 -2077 42 44 47
-67.8079 -587.256 -2117 40 42 45
-64.3665 -595.276 -2146 39 41 43
-288.82 -560.598 -1992 47 51 56
-282.823 -556.828 -1979 47 51 54
-275.473 -550.248 -1956 47 51 54
-270.997 -549.298 -1953 47 51 54
-265.305 -545.819 -1941 48 50 54
-260.338 -543.748 -1934 48 50 54
-255.8 -542.523 -1930 48 50 54
-251.542 -541.862 -1928 48 52 55
-247.295 -541.203 -1926 48 52 55
-243.184 -540.827 -1925 46 50 53
-238.831 -539.89 -1922 46 50 53
-234.247 -538.394 -1917 45 49 52
-229.927 -537.461 -1914 44 48 51
-225.621 -536.531 -1911 44 48 51
-221.33 -535.602 -1908 45 49 52
-217.28 -535.236 -1907 45 49 52
-213.237 -534.872 -1906 46 49 51
-208.98 -533.948 -1903 46 48 50
-204.953 -533.587 -1902 47 49 51
-200.085 -530.984 -1893 48 50 52
-195.982 -530.346 -1891 47 49 51
-191.585 -528.869 -1886 48 50 52
-187.707 -528.796 -1886 51 53 55
-183.733 -528.443 -1885 51 53 55
-180.051 -528.934 -1887 51 54 55
-176.176 -528.865 -1887 47 51 52
-172.302 -528.797 -1887 45 49 50
-168.608 -529.292 -1889 41 45 46
-164.733 -529.227 -1889 39 43 44
-161.03 -529.725 -1891 41 45 46
-157.07 -529.383 -1890 45 49 50
-153.116 -529.043 -1889 46 50 51
-149.247 -528.985 -1889 45 49 50
-145.225 -528.368 -1887 45 49 50
-141.511 -528.872 -1889 44 48 49
-137.646 -528.818 -1889 44 48 49
-133.852 -529.046 -1890 44 48 49
-129.986 -528.995 -1890 46 50 51
-126.255 -529.505 -1892 47 51 52
-122.646 -530.577 -1896 47 51 52
-119.272 -532.769 -1904 46 50 51
-115.867 -534.962 -1912 44 48 49
-112.079 -535.477 -1914 45 47 49
-108.227 -535.715 -1915 44 46 48
-104.59 -537.072 -1920 43 45 47
-100.723 -537.313 -1921 45 45 47
-97.0547 -538.673 -1926 46 46 48
-93.3668 -540.035 -1931 46 46 48
-89.752 -541.957 -1938 45 45 47
-85.9765 -543.042 -1942 47 47 49
-82.3122 -544.967 -1949 46 46 48
-78.9416 -549.13 -1964 48 48 50
-75.8538 -555.81 -1988 46 46 48
-73.3191 -567.524 -2030 47 47 49
-70.9545 -582.033 -2082 44 45 47
-68.0902 -594.027 -2125 42 44 47
-64.3911 -599.872 -2146 39 41 43
-288.643 -564.334 -1990 49 52 57
-281.79 -558.834 -1971 48 52 55
-275.722 -554.755 -1957 49 53 56
-271.38 -554.081 -1955 49 53 56
-265.545 -550.291 -1942 47 49 53
-260.979 -549.055 -1938 46 48 52
-256.033 -546.97 -1931 47 49 53
-251.38 -545.455 -1926 47 51 54
-247.263 -545.074 -1925 46 50 53
-243.279 -544.977 -1925 46 50 53
-238.675 -543.468 -1920 45 49 52
-234.217 -542.243 -1916 45 49 52
-230.017 -541.586 -1914 44 48 51
-225.473 -540.082 -1909 43 47 50
-221.184 -539.146 -1906 43 47 50
-217.707 -540.192 -1910 43 47 50
-213.32 -538.976 -1906 44 47 50
-209.281 -538.611 -1905 46 48 50
-204.924 -537.399 -1901 48 50 52
-200.057 -534.776 -1892 47 49 51
-195.748 -533.568 -1888 46 48 50
-191.456 -532.362 -1884 47 49 51
-187.381 -531.723 -1882 48 50 52
-183.512 -531.65 -1882 49 51 53
-179.93 -532.427 -1885 49 51 53
-176.151 -532.64 -1886 48 50 52
-172.186 -532.289 -1885 45 49 50
-168.584 -533.071 -1888 41 45 46
-164.797 -533.288 -1889 41 45 46
-161.007 -533.507 -1890 44 48 49
-157.131 -533.444 -1890 45 49 50
-153.257 -533.384 -1890 45 49 50
-149.147 -532.478 -1887 44 48 49
-145.281 -532.421 -1887 45 49 50
-141.491 -532.648 -1888 47 51 52
-137.626 -532.593 -1888 46 50 51
-133.833 -532.823 -1889 45 49 50
-130.105 -533.335 -1891 45 49 50
-126.504 -534.414 -1895 48 51 52
-122.693 -534.647 -1896 47 49 51
-119.256 -536.574 -1903 44 48 49
-115.73 -538.22 -1909 42 46 47
-112.064 -539.303 -1913 46 46 48
-108.325 -540.106 -1916 43 44 46
-104.684 -541.474 -1921 40 41 43
-100.762 -541.435 -1921 41 41 43
-97.1426 -543.087 -1927 44 44 46
-93.4512 -544.459 -1932 44 44 46
-89.8329 -546.396 -1939 44 44 46
-86.0541 -547.489 -1943 44 44 46
-82.513 -550.274 -1953 46 46 48
-79.1732 -554.751 -1969 48 48 50
-76.3793 -563.736 -2001 48 48 50
-73.6003 -573.849 -2037 47 47 49
-71.3228 -589.315 -2092 45 46 48
-68.0844 -598.302 -2124 42 44 46
-64.4461 -604.755 -2147 41 43 45
-299.228 -581.042 -2033 50 53 59
-289.483 -570.066 -1995 48 51 56
-282.616 -564.524 -1976 48 52 55
-276.394 -560.128 -1961 47 51 54
-270.793 -556.878 -1950 46 50 53
-265.376 -553.917 -1940 45 47 51
-260.543 -552.1 -1934 45 48 51
-255.869 -550.57 -1929 44 47 51
-251.74 -550.185 -1928 44 48 51
-247.489 -549.515 -1926 44 48 51
-243.248 -548.848 -1924 45 49 52
-238.769 -547.611 -1920 46 50 53
-234.553 -546.948 -1918 44 48 51
-229.747 -544.86 -1911 44 48 51
-225.444 -543.915 -1908 45 49 52
-221.503 -543.827 -1908 44 48 51
-217.45 -543.455 -1907 43 47 50
-213.404 -543.085 -1906 44 47 49
-209.363 -542.717 -1905 46 48 50
-205.005 -541.496 -1901 48 50 52
-200.559 -539.992 -1896 47 49 51
-196.032 -538.205 -1890 46 48 50
-191.836 -537.275 -1887 48 50 52
-187.654 -536.346 -1884 49 51 53
-183.876 -536.557 -1885 49 51 53
-180.001 -536.486 -1885 49 51 53
-176.22 -536.7 -1886 47 49 51
-172.436 -536.916 -1887 44 48 49
-168.74 -537.418 -1889 42 46 47
-164.862 -537.353 -1889 42 46 47
-161.155 -537.858 -1891 44 48 49
-157.11 -537.226 -1889 47 51 52
-153.155 -536.881 -1888 45 49 50
-149.047 -535.969 -1885 43 47 48
-145.261 -536.195 -1886 46 50 51
-141.472 -536.423 -1887 48 52 53
-137.607 -536.369 -1887 49 53 54
-133.814 -536.6 -1888 46 50 51
-130.156 -537.4 -1891 42 46 47
-126.42 -537.918 -1893 45 48 50
-122.871 -539.29 -1898 47 49 51
-119.302 -540.663 -1903 42 46 47
-115.775 -542.322 -1909 40 44 45
-112.166 -543.698 -1914 43 43 45
-108.311 -543.939 -1915 41 41 43
-104.616 -545.033 -1919 39 39 41
-100.854 -545.845 -1922 41 41 43
-97.13 -546.942 -1926 46 46 48
-93.4394 -548.325 -1931 46 46 48
-89.868 -550.561 -1939 46 45 47
-86.2205 -552.513 -1946 46 45 47
-82.7142 -555.603 -1957 46 46 48
-79.1638 -558.695 -1968 48 48 50
-76.2182 -566.613 -1996 48 48 50
-73.6651 -578.506 -2038 44 45 47
-71.18 -592.386 -2087 42 43 45
-68.2072 -603.713 -2127 40 42 44
-64.5011 -609.647 -2148 42 44 46
-289.598 -574.386 -1995 47 50 55
-282.442 -568.226 -1974 46 51 54
-275.94 -563.221 -1957 47 51 54
-271.04 -561.385 -1951 47 51 54
-266.029 -559.264 -1944 46 50 53
-260.781 -556.57 -1935 47 50 55
-256.368 -555.604 -1932 47 50 55
-251.97 -554.64 -1929 45 49 52
-247.715 -553.966 -1927 44 48 51
-243.471 -553.293 -1925 45 49 52
-238.988 -552.047 -1921 45 49 52
-234.646 -551.091 -1918 44 48 51
-229.958 -549.275 -1912 44 48 51
-226.242 -549.759 -1914 44 48 51
-221.591 -547.946 -1908 45 49 52
-217.651 -547.859 -1908 45 49 52
-213.488 -547.199 -1906 45 48 50
-209.446 -546.828 -1905 47 49 51
-204.87 -545.024 -1899 48 50 52
-200.427 -543.508 -1894 47 49 51
-196.109 -542.282 -1890 46 49 50
-191.81 -541.057 -1886 48 50 52
-187.529 -539.835 -1882 50 52 54
-183.754 -540.048 -1883 48 50 52
-179.881 -539.976 -1883 48 50 52
-176.102 -540.192 -1884 46 48 50
-172.413 -540.696 -1886 46 50 51
-168.806 -541.489 -1889 42 46 47
-164.927 -541.423 -1889 41 45 46
-161.219 -541.931 -1891 44 48 49
-157.255 -541.582 -1890 47 51 52
-153.215 -540.947 -1888 45 49 50
-149.105 -540.028 -1885 43 47 48
-145.318 -540.256 -1886 44 48 49
-141.302 -539.627 -1884 46 50 51
-137.734 -540.717 -1888 48 52 53
-134.079 -541.522 -1891 47 51 52
-130.345 -542.043 -1893 43 47 48
-126.603 -542.565 -1895 43 46 48
-122.79 -542.802 -1896 45 47 49
-119.224 -544.185 -1901 42 46 47
-115.699 -545.857 -1907 40 44 45
-112.151 -547.529 -1913 43 43 45
-108.58 -549.203 -1919 40 40 42
-104.876 -550.305 -1923 38 38 40
-101.051 -550.837 -1925 41 41 43
-97.2186 -551.37 -1927 43 43 45
-93.3792 -551.905 -1929 45 45 47
-89.8105 -554.157 -1937 48 46 48
-86.1213 -555.839 -1943 48 45 48
-82.6621 -559.239 -1955 45 45 47
-79.3558 -564.069 -1972 46 46 48
-76.5156 -572.906 -2003 47 47 49
-73.8749 -584.317 -2043 43 45 47
-71.2421 -597.159 -2088 42 44 46
-68.3622 -609.428 -2131 40 42 44
-290.295 -579.871 -1999 43 48 52
-282.556 -572.504 -1974 44 50 53
-276.615 -568.622 -1961 46 50 53
-271.148 -565.612 -1951 45 49 52
-265.041 -561.156 -1936 46 50 53
-260.481 -559.891 -1932 46 50 54
-256.205 -559.208 -1930 47 50 56
-251.94 -558.526 -1928 44 49 52
-247.686 -557.847 -1926 43 48 51
-243.695 -557.748 -1926 45 49 52
-238.959 -555.914 -1920 45 49 52
-234.74 -555.24 -1918 44 48 51
-230.411 -554.278 -1915 44 48 51
-226.214 -553.608 -1913 44 48 51
-221.447 -551.492 -1906 45 49 52
-217.966 -552.562 -1910 45 49 52
-213.573 -551.318 -1906 44 47 50
-209.2 -550.077 -1902 46 48 50
-204.844 -548.837 -1898 47 49 51
-200.507 -547.599 -1894 47 49 51
-196.084 -546.075 -1889 47 51 52
-191.886 -545.13 -1886 49 52 53
-187.703 -544.187 -1883 50 52 54
-183.729 -543.823 -1882 47 49 51
-179.857 -543.751 -1882 47 49 51
-176.079 -543.969 -1883 47 49 51
-172.39 -544.477 -1885 45 49 50
-168.695 -544.987 -1887 40 44 46
-164.905 -545.209 -1888 41 45 47
-161.198 -545.721 -1890 42 46 48
-157.151 -545.08 -1888 43 47 48
-153.195 -544.73 -1887 43 47 48
-149.165 -544.092 -1885 42 46 47
-145.221 -543.745 -1884 42 46 47
-141.433 -543.976 -1885 43 47 48
-137.862 -545.075 -1889 45 49 50
-133.991 -545.02 -1889 47 51 52
-130.328 -545.834 -1892 45 49 50
-126.52 -546.071 -1893 42 46 47
-122.838 -546.886 -1896 44 46 48
-119.208 -547.992 -1900 44 47 48
-115.927 -550.829 -1910 42 46 47
-112.313 -552.226 -1915 44 44 46
-108.849 -554.489 -1923 41 41 43
-104.972 -554.734 -1924 39 39 41
-101.196 -555.558 -1927 39 39 41
-97.2572 -555.519 -1927 40 40 42
-93.6099 -557.211 -1933 42 42 44
-89.8461 -558.327 -1937 47 45 48
-86.2885 -560.886 -1946 48 45 48
-82.4833 -562.006 -1950 45 45 47
-79.1859 -566.873 -1967 46 46 48
-76.584 -577.505 -2004 47 47 49
-73.9402 -589.002 -2044 43 45 47
-71.3045 -601.94 -2089 41 43 45
-68.3571 -613.726 -2130 40 42 44
-290.558 -584.502 -2000 44 50 55
-282.67 -576.788 -1974 44 50 53
-276.586 -572.584 -1960 47 51 54
-271.536 -570.428 -1953 46 50 53
-266.38 -567.983 -1945 46 50 53
-261.53 -566.124 -1939 44 48 52
-256.574 -563.975 -1932 43 46 52
-252.173 -562.997 -1929 40 46 50
-247.657 -561.728 -1925 40 46 49
-243.92 -562.212 -1927 41 45 48
-239.304 -560.656 -1922 41 45 48
-235.079 -559.976 -1920 43 47 50
-230.744 -559.008 -1917 44 48 51
-226.66 -558.624 -1916 44 48 51
-222.349 -557.658 -1913 44 48 51
-217.825 -556.112 -1908 43 47 50
-213.883 -556.025 -1908 44 48 50
-208.953 -553.317 -1899 46 48 50
-204.818 -552.651 -1897 47 49 51
-200.481 -551.404 -1893 47 49 51
-196.162 -550.159 -1889 48 52 53
-191.76 -548.625 -1884 49 52 53
-187.878 -548.548 -1884 48 50 52
-183.998 -548.473 -1884 48 50 52
-179.929 -547.818 -1882 47 49 51
-176.149 -548.037 -1883 46 48 51
-172.459 -548.549 -1885 46 48 50
-168.762 -549.062 -1887 41 44 46
-164.971 -549.286 -1888 40 44 46
-161.348 -550.093 -1891 42 46 47
-157.38 -549.738 -1890 42 46 47
-153.337 -549.094 -1888 43 47 48
-149.145 -547.87 -1884 43 47 48
-145.357 -548.102 -1885 42 46 47
-141.34 -547.463 -1883 43 47 48
-137.698 -548.279 -1886 44 48 49
-133.902 -548.515 -1887 45 49 50
-130.38 -549.915 -1892 46 50 51
-126.503 -549.864 -1892 43 47 48
-122.823 -550.685 -1895 44 46 48
-119.193 -551.799 -1899 46 49 51
-116.034 -555.239 -1911 44 48 49
-112.475 -556.936 -1917 44 44 46
-108.893 -558.635 -1923 41 41 43
-105.123 -559.463 -1926 39 39 41
-101.551 -561.455 -1933 38 38 40
-97.5484 -561.125 -1932 38 38 40
-93.6957 -561.667 -1934 41 41 43
-89.9748 -563.083 -1939 43 42 44
-86.3229 -565.08 -1946 46 45 47
-82.6432 -567.079 -1953 47 47 49
-79.8619 -575.757 -1983 46 46 48
-76.6528 -582.113 -2005 46 46 48
-74.2592 -595.728 -2052 43 45 47
-71.6401 -609.053 -2098 41 43 45
-68.7055 -621.217 -2140 41 43 45
-291.839 -591.203 -2008 44 50 55
-283.501 -582.548 -1979 44 50 53
-276.84 -577.136 -1961 46 51 54
-271.646 -574.669 -1953 48 52 55
-266.489 -572.206 -1945 46 50 53
-261.232 -569.451 -1936 45 48 53
-256.413 -567.58 -1930 42 45 51
-252.537 -567.771 -1931 41 47 52
-247.886 -566.198 -1926 41 47 51
-243.892 -566.098 -1926 39 45 48
-239.277 -564.53 -1921 40 44 47
-235.42 -564.727 -1922 42 46 49
-230.838 -563.163 -1917 43 47 50
-226.634 -562.483 -1915 43 47 50
-222.207 -561.216 -1911 43 47 50
-218.142 -560.833 -1910 42 46 49
-213.634 -559.277 -1905 43 47 49
-209.368 -558.311 -1902 45 47 49
-204.793 -556.466 -1896 46 48 50
-200.244 -554.622 -1890 48 50 52
-196.346 -554.542 -1890 49 53 54
-191.837 -552.702 -1884 50 53 55
-187.954 -552.625 -1884 49 51 53
-183.975 -552.257 -1883 46 48 52
-180.097 -552.183 -1883 47 49 53
-176.314 -552.404 -1884 47 49 53
-172.62 -552.919 -1886 45 47 49
-168.741 -552.85 -1886 42 44 46
-164.95 -553.076 -1887 41 45 46
-161.242 -553.596 -1889 44 47 49
-157.194 -552.945 -1887 44 47 48
-153.237 -552.589 -1886 44 48 49
-149.285 -552.235 -1885 43 47 48
-145.415 -552.175 -1885 42 46 47
-141.472 -551.824 -1884 43 47 48
-137.753 -552.353 -1886 43 47 48
-134.027 -552.884 -1888 44 48 49
-130.294 -553.416 -1890 46 50 51
-126.554 -553.95 -1892 43 47 48
-123.067 -555.656 -1898 45 47 49
-119.43 -556.778 -1902 46 50 51
-116.142 -559.657 -1912 44 48 49
-112.579 -561.367 -1918 43 43 45
-109.107 -563.664 -1926 39 40 42
-105.22 -563.913 -1927 38 38 40
-101.382 -564.457 -1929 38 38 41
-97.5371 -565.002 -1931 39 39 41
-93.8303 -566.426 -1936 41 41 43
-90.1039 -567.852 -1941 41 40 43
-86.3133 -568.986 -1945 45 44 47
-82.7611 -571.878 -1955 46 46 48
-79.5716 -577.695 -1975 46 46 48
-77.066 -589.363 -2015 47 47 49
-75.1218 -606.881 -2075 45 45 47
-71.9422 -615.918 -2106 43 44 45
-68.7653 -626.126 -2141 42 44 45
-291.813 -595.276 -2007 44 50 55
-283.617 -586.853 -1979 43 48 51
-277.094 -581.697 -1962 47 51 54
-272.036 -579.509 -1955 47 51 54
-266.872 -577.027 -1947 46 50 53
-262.014 -575.14 -1941 45 49 52
-256.917 -572.663 -1933 43 46 51
-252.64 -571.966 -1931 43 48 52
-248.245 -570.974 -1928 42 47 50
-243.865 -569.985 -1925 39 45 48
-239.624 -569.293 -1923 42 46 49
-235.516 -568.9 -1922 43 47 50
-231.294 -568.212 -1920 42 46 49
-226.726 -566.638 -1915 42 46 49
-222.414 -565.659 -1912 43 47 50
-217.774 -563.793 -1906 43 47 50
-213.609 -563.113 -1904 43 46 50
-208.573 -560.07 -1894 43 45 48
-204.877 -560.576 -1896 44 46 48
-200.008 -557.832 -1887 47 49 51
-196.01 -557.456 -1886 49 51 53
-191.712 -556.194 -1882 52 53 55
-187.931 -556.412 -1883 52 52 54
-183.952 -556.04 -1882 48 50 53
-180.075 -555.966 -1882 46 49 51
-176.386 -556.484 -1884 45 49 50
-172.599 -556.708 -1885 46 48 50
-168.72 -556.638 -1885 43 45 47
-164.93 -556.865 -1886 42 46 47
-161.137 -557.094 -1887 46 48 50
-157.258 -557.029 -1887 46 48 50
-153.299 -556.67 -1886 45 49 50
-149.425 -556.609 -1886 44 48 48
-145.474 -556.253 -1885 43 47 46
-141.454 -555.605 -1883 42 47 48
-137.736 -556.138 -1885 43 49 50
-133.869 -556.082 -1885 44 50 51
-130.278 -557.209 -1889 46 50 51
-126.606 -558.041 -1892 43 47 48
-123.182 -560.055 -1899 44 48 49
-119.604 -561.48 -1904 46 50 51
-116.128 -563.496 -1911 43 47 48
-112.566 -565.219 -1917 41 43 45
-108.867 -566.353 -1921 38 39 41
-105.208 -567.783 -1926 38 38 40
-101.423 -568.625 -1929 38 40 43
-97.6777 -569.764 -1933 39 40 43
-93.8684 -570.609 -1936 40 40 42
-90.0939 -571.751 -1940 43 40 45
-86.5703 -574.662 -1950 46 44 48
-83.2605 -579.342 -1966 44 44 45
-79.8457 -583.729 -1981 45 45 46
-77.5946 -597.546 -2028 45 45 47
-75.0435 -610.479 -2072 44 44 46
-72.0739 -621.351 -2109 42 43 45
-68.8574 -631.338 -2143 42 44 45
-292.661 -601.142 -2012 45 50 55
-284.452 -592.657 -1984 45 48 52
-277.633 -586.865 -1965 47 50 54
-271.731 -582.869 -1952 47 51 55
-266.708 -580.667 -1945 45 49 53
-262.122 -579.364 -1941 44 47 51
-257.422 -577.764 -1936 44 47 51
-252.483 -575.569 -1929 44 48 51
-248.348 -575.167 -1928 43 47 50
-244.219 -574.767 -1927 41 47 50
-240.222 -574.667 -1927 42 47 50
-235.858 -573.673 -1924 43 47 50
-231.509 -572.682 -1921 43 47 50
-227.057 -571.395 -1917 42 46 49
-222.389 -569.514 -1911 42 46 49
-218.092 -568.529 -1908 43 47 49
-213.584 -566.95 -1903 44 47 50
-208.989 -565.075 -1897 45 47 51
-204.745 -564.097 -1894 45 47 50
-200.409 -562.822 -1890 48 50 52
-196.194 -561.846 -1887 49 51 53
-191.995 -560.873 -1884 49 50 52
-188.108 -560.795 -1884 51 51 53
-184.126 -560.42 -1883 50 52 54
-180.244 -560.345 -1883 49 51 53
-176.459 -560.569 -1884 46 50 51
-172.67 -560.795 -1885 46 48 50
-168.7 -560.427 -1884 44 46 48
-164.735 -560.061 -1883 43 47 48
-161.032 -560.589 -1885 45 48 50
-157.156 -560.523 -1885 45 47 49
-153.28 -560.46 -1885 44 48 49
-149.486 -560.695 -1886 44 48 49
-145.534 -560.337 -1885 42 46 46
-141.663 -560.278 -1885 42 48 49
-137.866 -560.517 -1886 45 51 52
-134.066 -560.759 -1887 45 51 52
-130.401 -561.596 -1890 47 51 52
-126.858 -563.029 -1895 44 48 49
-123.167 -563.868 -1898 43 47 48
-119.716 -565.898 -1905 46 50 51
-116.176 -567.632 -1911 43 47 48
-112.554 -569.07 -1916 41 43 45
-108.912 -570.509 -1921 39 40 42
-105.032 -570.763 -1922 40 40 42
-101.517 -573.096 -1930 39 41 45
-97.6166 -573.352 -1931 39 41 44
-93.8097 -574.203 -1934 41 41 43
-90.3165 -577.135 -1944 45 43 47
-86.7833 -580.067 -1954 45 42 47
-83.2097 -583.001 -1964 43 43 44
-80.2816 -590.982 -1991 43 43 45
-77.8943 -604.009 -2035 45 45 47
-75.4727 -618.224 -2083 43 43 45
-72.4452 -628.879 -2119 43 44 46
-68.9497 -636.566 -2145 43 45 47
-293.074 -606.132 -2014 43 48 53
-284.857 -597.585 -1986 45 48 53
-277.89 -591.45 -1966 47 50 56
-272.262 -588.026 -1955 49 52 58
-267.368 -586.109 -1949 47 50 55
-262.636 -584.494 -1944 45 48 53
-257.662 -582.282 -1937 45 48 53
-252.98 -580.672 -1932 44 48 51
-248.838 -580.267 -1931 43 47 50
-244.447 -579.262 -1928 39 45 48
-240.446 -579.161 -1928 41 45 48
-236.079 -578.161 -1925 43 47 50
-231.967 -577.763 -1924 43 47 50
-227.269 -575.866 -1918 42 46 48
-222.714 -574.271 -1913 43 47 48
-218.068 -572.378 -1907 43 47 48
-213.673 -571.088 -1903 43 47 48
-209.186 -569.499 -1898 45 47 51
-204.721 -567.913 -1893 47 49 51
-200.598 -567.229 -1891 48 50 52
-196.484 -566.546 -1889 48 50 52
-192.176 -565.266 -1885 49 50 52
-188.186 -564.887 -1884 52 53 55
-184.397 -565.109 -1885 50 52 54
-180.415 -564.734 -1884 48 51 52
-176.719 -565.259 -1886 45 49 50
-172.833 -565.187 -1886 47 49 51
-168.769 -564.516 -1884 43 45 47
-164.978 -564.747 -1885 41 45 46
-161.184 -564.979 -1886 44 47 49
-157.22 -564.613 -1885 44 46 48
-153.506 -565.148 -1887 44 48 49
-149.627 -565.085 -1887 44 48 49
-145.671 -564.724 -1886 44 48 49
-141.571 -563.767 -1883 43 49 50
-137.776 -564.008 -1884 44 50 51
-134.121 -564.85 -1887 44 50 51
-130.316 -565.094 -1888 46 50 51
-126.71 -566.238 -1892 43 47 48
-123.153 -567.683 -1897 41 45 46
-119.639 -569.428 -1903 44 48 49
-116.224 -571.773 -1911 42 46 47
-112.6 -573.222 -1916 42 44 46
-108.957 -574.672 -1921 41 42 44
-105.075 -574.927 -1922 41 41 43
-101.559 -577.277 -1930 38 40 44
-97.7579 -578.133 -1933 39 40 43
-94.2365 -580.785 -1942 42 42 44
-90.5397 -582.541 -1948 44 41 46
-86.9967 -585.495 -1958 42 40 44
-83.8374 -591.44 -1978 42 42 44
-80.8793 -599.479 -2005 44 44 46
-78.0412 -609.312 -2038 46 46 48
-76.0836 -627.518 -2099 42 42 44
-72.7486 -635.858 -2127 42 43 45
-69.0745 -642.106 -2148 43 45 47
-293.78 -611.743 -2018 43 49 54
-285.551 -603.134 -1990 47 50 56
-278.289 -596.348 -1968 47 50 56
-272.515 -592.596 -1956 48 51 57
-267.617 -590.665 -1950 45 48 54
-262.746 -588.735 -1944 44 47 53
-257.77 -586.506 -1937 44 47 53
-253.479 -585.793 -1935 45 49 52
-249.2 -585.082 -1933 45 49 52
-244.804 -584.07 -1930 41 46 49
-240.671 -583.666 -1929 41 45 48
-236.668 -583.565 -1929 42 46 49
-232.064 -581.954 -1924 43 47 50
-227.483 -580.346 -1919 43 47 49
-223.041 -579.041 -1915 43 47 48
-218.274 -576.833 -1908 43 47 48
-213.987 -575.835 -1905 42 46 47
-209.494 -574.235 -1900 43 45 49
-204.915 -572.335 -1894 47 49 52
-200.681 -571.343 -1891 48 50 52
-196.566 -570.656 -1889 48 50 52
-192.358 -569.668 -1886 50 52 54
-188.265 -568.984 -1884 51 53 55
-184.376 -568.906 -1884 48 50 52
-180.586 -569.132 -1885 46 48 50
-176.792 -569.359 -1886 44 46 48
-172.905 -569.286 -1886 44 46 48
-169.109 -569.516 -1887 40 42 44
-165.134 -569.145 -1886 40 44 45
-161.422 -569.68 -1888 43 46 47
-157.369 -569.01 -1886 44 46 48
-153.408 -568.643 -1885 43 47 48
-149.451 -568.278 -1884 42 46 47
-145.577 -568.217 -1884 43 47 48
-141.78 -568.458 -1885 41 47 48
-138.053 -569.003 -1887 40 46 47
-134.461 -570.152 -1891 41 47 48
-130.647 -570.398 -1892 43 47 48
-127.03 -571.551 -1896 41 45 46
-123.399 -572.704 -1900 39 43 44
-119.689 -573.558 -1903 43 47 48
-116.029 -574.714 -1907 43 47 48
-112.529 -576.776 -1914 41 43 45
-109.059 -579.14 -1922 41 43 45
-105.283 -580 -1925 41 41 43
-101.496 -580.86 -1928 38 40 42
-97.8491 -582.626 -1934 39 40 42
-94.2756 -584.996 -1942 42 42 44
-90.5307 -586.464 -1947 44 41 46
-87.2106 -590.945 -1962 43 40 45
-83.9994 -596.632 -1981 42 42 44
-81.3971 -607.44 -2017 44 44 46
-78.993 -620.958 -2062 47 47 49
-76.2602 -633.272 -2103 41 41 43
-72.9156 -641.673 -2131 41 41 43
-69.1354 -647.063 -2149 44 45 47
-293.321 -614.934 -2014 44 50 55
-284.954 -605.958 -1985 47 50 56
-277.841 -599.428 -1964 47 50 56
-272.073 -595.649 -1952 48 51 57
-267.181 -593.704 -1946 46 49 54
-263.128 -593.592 -1946 44 47 53
-257.745 -590.431 -1936 43 46 52
-253.324 -589.408 -1933 44 48 51
-249.047 -588.692 -1931 44 48 51
-244.907 -588.282 -1930 43 47 50
-240.523 -587.265 -1927 43 47 49
-236.523 -587.164 -1927 42 46 49
-232.041 -585.846 -1923 42 46 49
-227.697 -584.835 -1920 43 47 49
-223.251 -583.522 -1916 44 48 49
-218.594 -581.601 -1910 43 47 48
-214.077 -579.987 -1905 41 45 46
-209.582 -578.376 -1900 44 46 50
-205.326 -577.375 -1897 49 51 53
-200.66 -575.159 -1890 49 51 53
-196.544 -574.466 -1888 48 50 52
-192.337 -573.471 -1885 49 51 53
-188.244 -572.783 -1883 50 52 54
-184.454 -573.008 -1884 48 50 52
-180.662 -573.235 -1885 46 48 50
-176.961 -573.768 -1887 44 46 48
-173.069 -573.694 -1887 42 44 46
-169.359 -574.23 -1889 38 40 42
-165.466 -574.16 -1889 40 44 45
-161.49 -573.787 -1888 43 46 47
-157.602 -573.72 -1888 43 45 47
-153.798 -573.958 -1889 42 44 46
-149.672 -572.983 -1886 40 43 45
-145.716 -572.617 -1885 39 43 44
-141.839 -572.556 -1885 37 42 43
-138.111 -573.105 -1887 37 42 43
-134.446 -573.959 -1890 39 45 46
-130.702 -574.51 -1892 41 45 46
-126.95 -575.064 -1894 42 46 47
-123.191 -575.618 -1896 42 46 47
-119.55 -576.781 -1900 45 49 50
-116.26 -579.767 -1910 44 48 49
-112.694 -581.541 -1916 41 43 45
-109.161 -583.618 -1923 41 42 44
-105.382 -584.484 -1926 39 39 40
-101.802 -586.565 -1933 37 38 40
-97.9912 -587.433 -1936 39 39 41
-94.4607 -590.123 -1945 42 42 44
-90.6616 -591.298 -1949 43 42 45
-87.4249 -596.418 -1966 42 40 44
-84.1618 -601.843 -1984 44 44 46
-81.4311 -611.818 -2017 45 45 47
-79.1793 -626.647 -2066 47 47 49
-76.5098 -639.657 -2109 40 40 42
-73.0145 -646.904 -2133 41 41 43
-69.2285 -652.334 -2151 45 45 47
-294.029 -620.574 -2018 46 52 58
-285.506 -611.225 -1988 47 50 56
-278.101 -604.034 -1965 46 50 55
-272.189 -599.92 -1952 47 51 54
-267.158 -597.654 -1945 46 50 53
-262.564 -596.312 -1941 45 49 52
-257.456 -593.743 -1933 43 47 50
-253.301 -593.327 -1932 43 47 50
-248.766 -591.991 -1928 42 46 49
-244.884 -592.193 -1929 43 47 50
-240.626 -591.476 -1927 44 48 50
-236.623 -591.374 -1927 42 46 47
-232.381 -590.66 -1925 41 45 46
-228.15 -589.948 -1923 42 46 47
-223.462 -588.011 -1917 44 48 49
-219.145 -586.997 -1914 43 47 48
-214.842 -585.985 -1911 43 47 48
-210.002 -583.441 -1903 47 49 53
-205.954 -583.046 -1902 49 51 53
-201.169 -580.507 -1894 49 51 53
-196.732 -578.891 -1889 47 49 51
-192.418 -577.582 -1885 47 49 51
-188.423 -577.195 -1884 48 50 52
-184.532 -577.115 -1884 48 49 51
-180.546 -576.732 -1883 48 49 51
-176.942 -577.574 -1886 46 48 50
-173.142 -577.806 -1887 42 44 46
-169.43 -578.346 -1889 39 41 43
-165.536 -578.275 -1889 41 44 45
-161.815 -578.817 -1891 44 46 48
-157.836 -578.444 -1890 45 47 49
-153.7 -577.46 -1887 44 46 48
-149.736 -577.089 -1886 40 43 45
-145.777 -576.721 -1885 40 44 45
-141.975 -576.965 -1886 41 45 46
-138.169 -577.212 -1887 39 44 45
-134.645 -578.684 -1892 38 44 45
-130.826 -578.933 -1893 42 46 47
-127.003 -579.184 -1894 44 48 49
-123.308 -580.049 -1897 44 48 49
-119.538 -580.609 -1899 45 49 50
-116.004 -582.393 -1905 44 48 49
-112.624 -585.096 -1914 42 44 46
-109.264 -588.106 -1924 39 40 41
-105.536 -589.283 -1928 38 38 38
-102.003 -591.685 -1936 38 38 40
-98.0831 -591.948 -1937 39 39 41
-94.6462 -595.269 -1948 42 42 44
-90.9789 -597.368 -1955 43 43 45
-87.5952 -601.608 -1969 43 43 45
-84.5366 -608.599 -1992 43 43 45
-81.7481 -618.34 -2024 46 46 48
-79.6343 -634.498 -2077 47 47 49
-76.6145 -644.851 -2111 41 41 43
-73.148 -652.456 -2136 43 43 45
-69.2899 -657.313 -2152 46 46 48
-293.864 -624.379 -2016 46 52 58
-284.91 -614.034 -1983 45 50 55
-277.937 -607.721 -1963 46 51 56
-272.166 -603.887 -1951 47 51 54
-266.86 -600.986 -1942 45 49 52
-262.947 -601.181 -1943 44 48 51
-257.966 -598.903 -1936 43 47 50
-253.541 -597.865 -1933 42 46 49
-248.743 -595.902 -1927 42 46 49
-244.735 -595.796 -1927 42 46 49
-240.729 -595.691 -1927 41 45 47
-236.724 -595.588 -1927 41 45 46
-232.481 -594.87 -1925 41 45 46
-228.129 -593.844 -1922 42 46 47
-224.141 -593.747 -1922 44 48 49
-219.124 -590.872 -1913 44 48 49
-215.047 -590.469 -1912 44 48 49
-210.313 -588.217 -1905 47 49 53
-205.934 -586.893 -1901 49 51 54
-201.255 -584.644 -1894 49 51 53
-197.024 -583.633 -1891 48 50 52
-192.398 -581.389 -1884 47 49 51
-188.204 -580.382 -1881 47 49 51
-184.415 -580.611 -1882 51 51 53
-180.623 -580.841 -1883 49 50 52
-177.017 -581.69 -1886 46 48 50
-173.216 -581.923 -1887 43 45 47
-169.592 -582.775 -1890 40 42 44
-165.607 -582.395 -1889 42 44 46
-161.884 -582.942 -1891 43 45 47
-157.903 -582.565 -1890 44 46 48
-153.765 -581.574 -1887 44 46 48
-149.879 -581.509 -1887 41 43 45
-145.917 -581.138 -1886 41 45 46
-142.035 -581.076 -1886 43 47 48
-138.008 -580.4 -1884 42 46 47
-134.489 -581.882 -1889 40 46 47
-130.674 -582.134 -1890 41 46 47
-126.789 -582.079 -1890 44 48 49
-123.1 -582.949 -1893 45 49 50
-119.463 -584.129 -1897 46 50 51
-116.175 -587.158 -1907 43 47 48
-112.554 -588.649 -1912 42 44 46
-109.594 -593.835 -1929 38 40 41
-105.635 -593.789 -1929 39 39 39
-102.151 -596.515 -1938 38 38 40
-98.1247 -596.165 -1937 38 38 40
-94.9295 -601.048 -1953 40 40 42
-91.1572 -602.547 -1958 40 40 42
-87.8993 -607.74 -1975 42 42 44
-84.7423 -614.165 -1996 42 42 44
-82.5505 -628.591 -2043 46 46 48
-79.8215 -640.248 -2081 47 47 49
-76.9376 -651.906 -2119 39 40 42
-73.3503 -658.642 -2141 42 43 45
-69.5769 -664.456 -2160 46 46 48
-294.866 -630.675 -2022 49 55 61
-285.321 -619.01 -1985 46 52 57
-277.774 -611.404 -1961 46 51 56
-272.703 -609.102 -1954 48 50 55
-267.25 -605.868 -1944 45 48 52
-262.925 -605.13 -1942 44 46 50
-257.811 -602.524 -1934 42 46 49
-253.519 -601.791 -1932 41 45 47
-249.109 -600.747 -1929 42 46 48
-244.968 -600.329 -1928 41 45 47
-241.082 -600.535 -1929 41 45 47
-237.072 -600.431 -1929 41 45 47
-232.823 -599.707 -1927 41 45 46
-228.702 -599.296 -1926 42 46 47
-224.354 -598.265 -1923 43 47 48
-219.333 -595.369 -1914 42 46 46
-215.139 -594.653 -1912 43 47 48
-210.403 -592.384 -1905 47 49 53
-206.023 -591.051 -1901 49 51 54
-201.342 -588.786 -1894 50 52 54
-197.005 -587.457 -1890 48 50 52
-192.481 -585.508 -1884 48 50 52
-188.184 -584.183 -1880 48 50 52
-184.298 -584.103 -1880 50 50 52
-180.509 -584.334 -1881 49 49 51
-176.905 -585.189 -1884 47 49 51
-173.107 -585.424 -1885 43 45 47
-169.486 -586.282 -1888 40 42 44
-165.678 -586.521 -1889 42 44 46
-161.868 -586.761 -1890 42 44 46
-157.971 -586.692 -1890 42 44 46
-153.831 -585.693 -1887 43 45 48
-149.943 -585.628 -1887 41 44 47
-145.979 -585.254 -1886 40 44 46
-142.171 -585.502 -1887 41 45 46
-138.214 -585.132 -1886 42 46 47
-134.547 -586.004 -1889 42 48 49
-130.73 -586.257 -1890 42 46 47
-126.91 -586.512 -1891 45 49 50
-123.087 -586.768 -1892 45 49 50
-119.451 -587.956 -1896 46 50 51
-116.347 -591.937 -1909 45 49 50
-112.779 -593.748 -1915 43 45 47
-109.641 -598.041 -1929 39 40 41
-105.735 -598.305 -1930 39 39 39
-102.511 -602.6 -1944 38 38 40
-98.6735 -603.486 -1947 38 38 40
-95.1646 -606.544 -1957 39 39 41
-91.2894 -607.434 -1960 38 38 40
-87.8478 -611.424 -1973 41 41 43
-84.7786 -618.515 -1996 42 42 44
-82.7474 -634.282 -2047 45 45 47
-80.3162 -648.5 -2093 46 46 48
-77.1157 -657.762 -2123 39 41 43
-73.4159 -663.616 -2142 41 43 45
-69.5421 -668.542 -2158 43 43 45
-296.162 -637.632 -2030 54 60 65
-285.589 -623.686 -1986 49 55 60
-278.037 -616.026 -1962 48 52 58
-272.123 -611.825 -1949 47 49 55
-267.367 -610.137 -1944 44 46 51
-262.904 -609.08 -1941 43 45 49
-258.323 -607.711 -1937 41 45 48
-254.154 -607.285 -1936 41 45 46
-249.605 -605.921 -1932 41 45 46
-245.455 -605.499 -1931 41 45 46
-241.312 -605.079 -1930 40 44 46
-237.175 -604.661 -1929 41 45 48
-233.287 -604.872 -1930 41 45 46
-228.683 -603.205 -1925 41 45 46
-224.452 -602.479 -1923 42 46 47
-219.658 -600.19 -1916 41 45 45
-215.233 -598.842 -1912 44 48 47
-210.163 -595.618 -1902 46 50 53
-206.329 -595.84 -1903 49 51 54
-201.323 -592.621 -1893 50 52 54
-196.881 -590.969 -1888 48 50 52
-192.36 -589.006 -1882 48 50 52
-188.566 -589.236 -1883 48 50 52
-184.28 -587.904 -1879 49 49 51
-180.395 -587.824 -1879 48 49 51
-176.888 -588.998 -1883 47 49 51
-172.998 -588.922 -1883 43 45 47
-169.379 -589.786 -1886 40 42 44
-165.574 -590.026 -1887 41 43 45
-161.852 -590.58 -1889 41 43 45
-157.956 -590.511 -1889 40 42 44
-154.06 -590.443 -1889 41 43 47
-150.167 -590.377 -1889 42 45 48
-146.274 -590.313 -1889 40 44 47
-142.383 -590.25 -1889 41 45 46
-138.347 -589.565 -1887 42 46 47
-134.462 -589.506 -1887 40 46 47
-130.579 -589.448 -1887 39 44 45
-126.696 -589.393 -1887 42 46 47
-123.01 -590.275 -1890 45 49 50
-119.439 -591.784 -1895 49 53 54
-116.519 -596.73 -1911 49 53 54
-112.945 -598.554 -1917 44 46 48
-109.973 -603.813 -1934 40 41 42
-106.164 -604.703 -1937 39 39 39
-102.397 -605.907 -1941 37 37 38
-98.8174 -608.36 -1949 37 37 39
-95.3515 -611.752 -1960 38 38 40
-91.7014 -614.208 -1968 39 39 41
-88.4202 -619.475 -1985 38 39 41
-85.6224 -628.799 -2015 41 41 43
-83.1066 -641.245 -2055 46 46 48
-80.5427 -654.627 -2098 44 44 46
-77.1125 -662.081 -2122 39 41 43
-73.3789 -667.665 -2140 42 43 45
-69.6044 -673.561 -2159 42 42 44
-287.01 -630.902 -1995 49 55 60
-279.152 -622.556 -1969 47 52 57
-273.36 -618.64 -1957 49 51 57
-268.034 -615.676 -1948 45 47 51
-263.697 -614.927 -1946 43 45 49
-258.97 -613.232 -1941 41 45 48
-254.529 -612.171 -1938 41 45 47
-249.973 -610.797 -1934 41 45 46
-245.563 -609.741 -1931 40 44 45
-241.668 -609.949 -1932 39 43 45
-237.402 -609.213 -1930 41 45 48
-233.388 -609.109 -1930 42 46 47
-229.02 -608.061 -1927 42 46 47
-224.433 -606.384 -1922 42 46 47
-219.983 -605.024 -1918 41 45 45
-215.101 -602.406 -1910 43 47 46
-210.807 -601.366 -1907 46 50 53
-205.877 -598.437 -1898 47 50 53
-201.411 -596.771 -1893 49 51 53
-196.967 -595.108 -1888 48 50 52
-192.444 -593.131 -1882 47 49 51
-188.548 -593.048 -1882 48 50 52
-184.164 -591.391 -1877 50 50 52
-180.282 -591.311 -1877 49 49 51
-176.589 -591.863 -1879 46 48 50
-172.89 -592.417 -1881 42 44 46
-169.094 -592.657 -1882 39 41 43
-165.295 -592.898 -1883 42 44 46
-161.665 -593.772 -1886 43 45 47
-157.857 -594.017 -1887 41 43 45
-154.209 -594.893 -1890 42 44 48
-150.312 -594.826 -1890 42 44 48
-146.493 -595.076 -1891 40 44 47
-142.596 -595.013 -1891 39 43 44
-138.48 -594.008 -1888 39 44 45
-134.663 -594.263 -1889 38 44 45
-130.774 -594.205 -1889 39 44 45
-126.819 -593.834 -1888 43 47 48
-123.194 -595.038 -1892 44 48 49
-119.743 -597.186 -1899 49 53 54
-116.387 -599.965 -1908 50 54 55
-113.171 -603.688 -1920 42 44 46
-110.021 -608.041 -1934 39 40 41
-106.375 -609.88 -1940 38 38 38
-102.811 -612.349 -1948 37 37 37
-99.1139 -614.191 -1954 37 37 38
-95.4415 -616.349 -1961 39 39 41
-91.8344 -619.137 -1970 38 40 42
-88.6368 -625.069 -1989 34 36 38
-83.3854 -647.619 -2061 49 49 52
-80.9232 -662.038 -2107 44 44 48
-77.2913 -667.973 -2126 40 42 44
-73.5137 -673.281 -2143 43 43 45
-69.6022 -677.963 -2158 45 43 45
-287.568 -636.253 -1998 47 53 59
-279.559 -627.529 -1971 46 51 56
-273.621 -623.268 -1958 48 50 56
-268.841 -621.556 -1953 44 46 50
-264.22 -620.165 -1949 42 44 47
-259.752 -619.095 -1946 42 44 47
-255.429 -618.344 -1944 42 46 47
-250.6 -616.324 -1938 41 45 46
-245.926 -614.624 -1933 41 45 46
-242.025 -614.834 -1934 41 45 47
-237.384 -613.138 -1929 42 46 48
-233.007 -612.081 -1926 44 48 49
-229.121 -612.296 -1927 43 47 48
-224.649 -610.925 -1923 43 47 48
-220.08 -609.239 -1918 41 45 46
-215.309 -606.919 -1911 42 46 47
-210.9 -605.554 -1907 44 48 51
-205.859 -602.287 -1897 45 49 51
-201.287 -600.292 -1891 47 50 52
-196.741 -598.3 -1885 49 51 53
-192.631 -597.579 -1883 48 50 52
-188.531 -596.861 -1881 46 48 50
-184.539 -596.461 -1880 49 49 51
-180.457 -595.746 -1878 50 50 52
-176.855 -596.619 -1881 46 48 50
-173.058 -596.859 -1882 42 44 46
-169.528 -598.052 -1886 37 39 41
-165.631 -597.978 -1886 41 43 45
-161.993 -598.857 -1889 44 46 48
-158.177 -599.104 -1890 45 47 49
-154.277 -599.035 -1890 43 45 49
-150.378 -598.968 -1890 40 43 47
-146.712 -599.853 -1893 39 43 46
-142.734 -599.473 -1892 40 44 45
-138.688 -598.777 -1890 38 43 44
-134.793 -598.717 -1890 39 45 46
-130.901 -598.659 -1890 40 44 45
-127.009 -598.602 -1890 42 46 47
-123.183 -598.863 -1891 41 45 46
-119.796 -601.344 -1899 46 50 51
-116.56 -604.775 -1910 51 55 56
-113.279 -608.207 -1921 42 43 45
-110.012 -611.957 -1933 40 40 41
-106.476 -614.442 -1941 37 37 37
-102.803 -616.296 -1947 35 35 35
-99.0558 -617.834 -1952 37 37 38
-95.4832 -620.64 -1961 41 41 43
-91.9212 -623.763 -1971 40 42 44
-88.8093 -630.37 -1992 37 39 41
-86.2072 -641.407 -2027 44 44 46
-83.7052 -654.343 -2068 49 49 52
-81.0354 -667.279 -2109 44 44 48
-77.3979 -673.256 -2128 40 42 44
-73.5113 -677.652 -2142 43 43 45
-69.6326 -682.683 -2158 46 43 46
-288.417 -642.264 -2003 48 54 59
-280.251 -633.159 -1975 45 50 56
-274.162 -628.547 -1961 47 49 55
-268.961 -625.862 -1953 45 47 50
-264.473 -624.782 -1950 43 45 47
-259.867 -623.383 -1946 43 45 47
-255.543 -622.627 -1944 43 46 47
-250.841 -620.913 -1939 42 45 47
-246.29 -619.521 -1935 41 45 46
-242.007 -618.772 -1933 41 45 46
-237.489 -617.385 -1929 41 45 46
-233.232 -616.64 -1927 43 47 48
-228.985 -615.897 -1925 42 46 47
-224.515 -614.516 -1921 43 47 48
-220.063 -613.138 -1917 42 46 47
-214.953 -609.843 -1907 43 48 49
-210.551 -608.469 -1903 45 49 51
-205.733 -605.819 -1895 45 49 51
-201.376 -604.449 -1891 47 51 52
-196.828 -602.443 -1885 49 51 53
-192.921 -602.357 -1885 48 50 52
-188.514 -600.674 -1880 47 49 51
-184.719 -600.911 -1881 48 49 52
-180.633 -600.191 -1879 47 48 51
-177.027 -601.07 -1882 44 46 48
-173.042 -600.672 -1881 42 44 46
-169.243 -600.916 -1882 42 44 46
-165.616 -601.799 -1885 42 44 46
-161.893 -602.365 -1887 43 45 47
-158.08 -602.613 -1888 43 45 47
-154.427 -603.502 -1891 41 43 46
-150.683 -604.072 -1893 40 42 46
-146.7 -603.687 -1892 42 44 48
-142.797 -603.623 -1892 43 45 48
-138.749 -602.923 -1890 42 44 47
-134.924 -603.181 -1891 41 45 46
-131.027 -603.122 -1891 42 46 47
-127.199 -603.384 -1892 43 47 48
-123.498 -604.285 -1895 40 44 45
-119.975 -606.145 -1901 45 48 49
-116.489 -608.324 -1908 47 49 51
-113.447 -613.055 -1923 40 40 43
-110.117 -616.513 -1934 38 38 40
-106.468 -618.377 -1940 36 36 36
-103.166 -622.475 -1953 36 36 36
-98.9471 -621.155 -1949 36 36 37
-95.7201 -626.211 -1965 39 38 40
-91.8684 -627.445 -1969 39 39 42
-88.8038 -634.415 -1991 36 37 40
-86.4154 -647.121 -2031 46 46 47
-83.8635 -659.828 -2071 47 47 50
-81.1864 -672.854 -2112 42 42 46
-77.6139 -679.509 -2133 40 42 44
-73.6811 -683.617 -2146 44 44 46
-69.631 -687.089 -2157 47 44 47
-289.122 -647.98 -2007 45 51 56
-280.519 -637.844 -1976 47 53 58
-274.425 -633.2 -1962 49 51 55
-269.219 -630.497 -1954 46 48 51
-264.321 -628.44 -1948 42 46 47
-259.984 -627.677 -1946 44 46 48
-255.394 -626.272 -1942 44 46 48
-250.953 -625.19 -1939 43 45 47
-246.018 -622.822 -1932 42 46 47
-241.74 -622.067 -1930 41 45 46
-237.349 -620.993 -1927 42 46 47
-232.973 -619.921 -1924 42 46 47
-228.968 -619.817 -1924 41 45 46
-224.615 -618.749 -1921 42 46 47
-220.046 -617.039 -1916 40 46 47
-215.162 -614.365 -1908 44 50 51
-210.424 -612.016 -1901 44 48 49
-205.607 -609.347 -1893 46 50 51
-201.466 -608.612 -1891 47 51 52
-196.603 -605.627 -1882 49 51 53
-192.802 -605.861 -1883 49 51 53
-188.699 -605.132 -1881 48 50 52
-184.998 -605.692 -1883 47 49 52
-180.713 -604.324 -1879 45 47 51
-177.012 -604.887 -1881 44 46 48
-173.211 -605.13 -1882 41 43 45
-169.588 -606.018 -1885 42 44 46
-165.866 -606.586 -1887 43 45 47
-162.137 -607.156 -1889 43 45 47
-158.318 -607.406 -1890 42 44 46
-154.495 -607.657 -1891 42 44 46
-150.67 -607.91 -1892 41 43 46
-146.61 -607.201 -1890 41 43 47
-142.785 -607.458 -1891 43 45 49
-138.811 -607.074 -1890 44 46 50
-134.913 -607.013 -1890 43 45 47
-131.016 -606.954 -1890 41 45 46
-127.256 -607.538 -1892 42 46 47
-123.422 -607.803 -1893 41 45 46
-119.712 -608.712 -1896 44 47 49
-116.48 -612.191 -1907 45 47 49
-113.321 -616.313 -1920 42 42 46
-110.223 -621.078 -1935 37 37 40
-106.571 -622.956 -1941 35 35 35
-103.158 -626.439 -1952 36 36 36
-99.245 -627.036 -1954 37 37 37
-95.7139 -630.201 -1964 41 39 41
-92.1892 -633.689 -1975 42 41 44
-89.6464 -644.557 -2009 38 38 41
-87.0497 -656.068 -2045 47 47 47
-84.4679 -668.862 -2085 44 45 47
-81.1839 -677.165 -2111 38 40 42
-77.5754 -683.545 -2131 38 40 42
-73.7481 -688.644 -2147 44 44 46
-281.356 -643.839 -1981 46 52 57
-274.549 -637.539 -1962 49 51 55
-269.617 -635.466 -1956 45 49 51
-264.304 -632.421 -1947 41 45 46
-260.101 -631.977 -1946 43 45 47
-255.51 -630.562 -1942 44 46 48
-251.067 -629.473 -1939 43 45 47
-246.511 -628.062 -1935 42 46 47
-242.225 -627.302 -1933 40 44 45
-237.826 -626.22 -1930 40 44 47
-233.199 -624.491 -1925 39 43 44
-229.072 -624.062 -1924 39 43 44
-224.599 -622.663 -1920 41 45 46
-219.916 -620.617 -1914 40 45 45
-215.033 -617.924 -1906 41 47 47
-210.518 -616.208 -1901 45 49 50
-205.591 -613.197 -1892 46 50 51
-201.556 -612.781 -1891 47 51 52
-196.795 -610.099 -1883 48 50 52
