ply
format ascii 1.0
comment Created by Open3D
element vertex 1466
property double x
property double y
property double z
property uchar red
property uchar green
property uchar blue
end_header
-74.5998 -787.678 -2018 33 35 35
-70.3208 -786.857 -2016 36 38 38
-65.9852 -785.259 -2012 37 39 39
-61.7283 -784.443 -2010 38 40 40
-57.4229 -782.849 -2006 38 40 40
-53.2143 -782.429 -2005 41 43 43
-48.9615 -781.23 -2002 40 42 42
-44.6993 -779.644 -1998 39 41 41
-40.4136 -777.279 -1992 40 42 40
-36.2077 -776.088 -1989 40 42 39
-32.0631 -776.069 -1989 39 42 38
-27.9329 -776.443 -1990 39 42 39
-23.8226 -777.599 -1993 37 41 38
-19.7099 -779.148 -1997 39 43 40
-15.6274 -783.04 -2007 41 41 39
-11.5091 -787.324 -2018 40 42 39
-7.34502 -791.61 -2029 39 42 39
-3.14131 -797.46 -2044 37 40 35
1.12158 -800.971 -2053 37 40 36
5.41673 -803.703 -2060 39 42 39
9.69369 -802.537 -2057 37 40 37
14.0061 -804.104 -2061 37 40 37
18.2997 -804.113 -2061 39 42 39
22.6483 -806.076 -2066 39 42 39
26.9268 -805.309 -2064 40 43 40
31.3179 -807.666 -2070 42 45 42
35.6141 -807.294 -2069 45 46 45
39.9447 -807.705 -2070 45 46 45
44.387 -810.069 -2076 43 46 43
48.8311 -812.046 -2081 42 45 42
53.373 -815.196 -2089 40 43 40
57.949 -818.349 -2097 41 44 41
62.7669 -824.236 -2112 44 47 44
-331.556 -813.522 -2055 0 0 0
-327.32 -813.733 -2056 34 38 37
-323.083 -813.946 -2057 35 39 38
-318.535 -813.371 -2056 34 38 37
-314.452 -813.985 -2058 34 38 37
-309.761 -813.019 -2056 36 39 38
-305.676 -813.638 -2058 37 39 39
-300.706 -811.887 -2054 35 38 37
-296.621 -812.51 -2056 35 38 37
-291.678 -810.765 -2052 35 39 38
-286.755 -809.023 -2048 33 37 36
-281.713 -806.889 -2043 32 36 35
-277.103 -805.943 -2041 30 34 33
-272.102 -803.816 -2036 29 33 32
-266.599 -800.113 -2027 30 34 33
-260.36 -794.045 -2012 31 35 34
-254.314 -788.377 -1998 33 37 36
-248.33 -782.713 -1984 33 37 36
-243.146 -779.42 -1976 35 39 38
-238.724 -778.497 -1974 39 41 41
-233.836 -776 -1968 40 42 42
-229.794 -776.265 -1969 39 41 41
-225.634 -776.138 -1969 41 43 43
-221.701 -776.802 -1971 43 45 45
-217.321 -775.892 -1969 42 44 44
-213.384 -776.56 -1971 41 43 43
-209.652 -778.018 -1975 43 45 45
-205.802 -779.085 -1978 45 47 47
-201.635 -778.971 -1978 45 47 47
-198.069 -781.223 -1984 45 47 47
-194.088 -781.902 -1986 42 46 45
-190.387 -783.763 -1991 40 43 43
-186.761 -786.02 -1997 41 43 43
-183.111 -788.279 -2003 39 43 42
-179.527 -790.933 -2010 38 42 41
-175.479 -791.622 -2012 36 40 39
-171.68 -793.492 -2017 38 40 40
-167.694 -794.579 -2020 38 40 40
-163.617 -795.273 -2022 36 40 39
-159.612 -796.364 -2025 33 37 36
-155.903 -799.029 -2032 32 36 35
-152.389 -802.876 -2042 31 34 33
-148.908 -807.117 -2053 25 26 26
-145.029 -809.394 -2059 13 13 13
-140.717 -809.315 -2059 19 19 19
-136.14 -807.667 -2055 30 30 30
-131.454 -805.234 -2049 36 36 36
-126.731 -802.412 -2042 40 42 42
-122.219 -800.772 -2038 40 43 43
-117.783 -799.527 -2035 40 44 43
-113.472 -799.07 -2034 41 43 43
-108.951 -797.044 -2029 40 42 42
-104.555 -795.806 -2026 37 39 39
-100.223 -794.964 -2024 36 38 38
-95.8517 -793.732 -2021 38 40 40
-91.4943 -792.502 -2018 37 39 39
-87.2797 -792.453 -2018 36 38 38
-83.1072 -792.798 -2019 34 36 36
-78.9704 -793.539 -2021 33 35 35
-74.7149 -793.104 -2020 32 34 35
-70.4992 -793.064 -2020 35 37 38
-66.1856 -791.848 -2017 38 39 39
-61.7929 -789.457 -2011 39 41 41
-57.5404 -788.639 -2009 39 41 41
-53.2436 -787.039 -2005 39 41 41
-48.9639 -785.44 -2001 41 43 43
-44.6343 -782.667 -1994 40 42 42
-40.4764 -782.643 -1994 41 44 41
-36.2459 -781.052 -1990 40 43 40
-32.1131 -781.426 -1991 39 42 38
-27.9763 -781.802 -1992 38 41 38
-23.8476 -782.573 -1994 38 41 38
-19.7009 -782.953 -1995 37 40 37
-15.6282 -787.261 -2006 39 40 38
-11.5098 -791.57 -2017 38 40 38
-7.34894 -796.274 -2029 37 39 39
-3.14608 -802.943 -2046 37 40 37
1.12325 -806.474 -2055 37 40 37
5.42484 -809.223 -2062 38 41 38
9.71794 -808.835 -2061 39 42 39
14.0684 -811.981 -2069 37 40 37
18.3099 -808.851 -2061 38 41 38
22.7047 -812.394 -2070 39 42 39
26.9807 -811.231 -2067 40 43 40
31.3051 -811.639 -2068 42 45 42
35.651 -812.443 -2070 44 47 44
40.0246 -813.641 -2073 44 47 44
44.4115 -814.842 -2076 43 46 43
48.8345 -816.438 -2080 40 43 40
53.3771 -819.606 -2088 39 42 39
58.0088 -823.562 -2098 41 44 41
62.861 -829.877 -2114 42 45 42
-331.743 -818.301 -2055 0 0 0
-327.664 -818.912 -2057 36 41 40
-323.422 -819.126 -2058 34 39 38
-319.334 -819.741 -2060 35 39 38
-315.087 -819.96 -2061 37 41 40
-310.387 -818.988 -2059 36 39 39
-305.996 -818.815 -2059 36 38 38
-301.167 -817.451 -2056 36 39 38
-296.643 -816.885 -2055 36 39 38
-291.415 -814.335 -2049 35 39 38
-286.355 -812.185 -2044 33 37 36
-282.009 -812.025 -2044 32 36 35
-277.937 -812.663 -2046 31 36 35
-272.923 -810.522 -2041 32 36 35
-267.801 -807.988 -2035 32 36 35
-261.542 -801.884 -2020 31 35 34
-255.348 -795.785 -2005 37 40 39
-248.97 -788.897 -1988 35 38 37
-243.898 -785.981 -1981 36 39 38
-239.341 -784.655 -1978 38 40 40
-234.324 -781.746 -1971 40 42 42
-230.155 -781.616 -1971 40 42 42
-225.76 -780.695 -1969 41 43 43
-221.825 -781.363 -1971 45 47 47
-217.442 -780.447 -1969 44 46 46
-213.719 -781.911 -1973 43 45 45
-209.875 -782.982 -1976 43 45 45
-205.708 -782.865 -1976 43 45 44
-201.951 -784.336 -1980 45 47 46
-198.079 -785.412 -1983 46 48 47
-194.196 -786.491 -1986 45 47 47
-190.302 -787.572 -1989 44 46 46
-186.865 -790.634 -1997 43 45 45
-183.122 -792.51 -2002 42 46 45
-179.627 -795.575 -2010 39 43 42
-175.577 -796.268 -2012 36 40 39
-171.69 -797.754 -2016 35 39 38
-167.705 -798.846 -2019 36 39 38
-163.546 -799.149 -2020 34 38 37
-159.859 -801.829 -2027 33 37 36
-156.373 -805.696 -2037 32 36 35
-152.773 -809.169 -2046 30 34 33
-148.918 -811.458 -2052 26 27 27
-145.039 -813.749 -2058 15 15 15
-140.795 -814.065 -2059 18 18 18
-136.15 -812.01 -2054 25 25 25
-131.462 -809.564 -2048 36 36 36
-126.802 -807.121 -2042 38 40 40
-122.227 -805.075 -2037 41 44 44
-117.906 -804.613 -2036 42 46 45
-113.479 -803.363 -2033 44 46 46
-108.958 -801.326 -2028 42 44 44
-104.665 -800.871 -2027 38 40 40
-100.229 -799.234 -2023 37 39 39
-95.9523 -798.784 -2022 38 40 40
-91.5902 -797.547 -2019 37 39 39
-87.3715 -797.497 -2019 36 38 38
-83.1533 -797.45 -2019 35 37 37
-79.0142 -798.194 -2021 33 35 35
-74.7933 -798.152 -2021 33 35 37
-70.4683 -796.927 -2018 34 36 37
-66.255 -796.889 -2018 37 37 37
-61.8271 -794.089 -2011 38 40 40
-57.5722 -793.266 -2009 38 40 40
-53.2465 -791.261 -2004 39 41 41
-48.9911 -790.048 -2001 41 43 42
-44.771 -789.232 -1999 41 43 42
-40.5394 -788.024 -1996 41 44 41
-36.3023 -786.424 -1992 40 43 40
-32.1792 -787.195 -1994 39 42 39
-28.0339 -787.572 -1995 38 41 38
-23.8728 -787.558 -1995 38 41 38
-19.7711 -789.915 -2001 39 42 39
-15.6446 -792.273 -2007 38 41 38
-11.5331 -797.398 -2020 38 41 40
-7.36038 -801.735 -2031 39 41 41
-3.14778 -807.653 -2046 37 40 37
1.12219 -810.021 -2052 35 38 35
5.42534 -813.576 -2061 37 40 37
9.72362 -813.58 -2061 37 40 37
14.0761 -816.745 -2069 37 40 37
18.3468 -814.78 -2064 37 40 37
22.6846 -815.976 -2067 38 41 38
27.0217 -816.779 -2069 40 43 40
31.3222 -816.4 -2068 41 44 41
35.6018 -815.63 -2066 42 45 42
39.989 -817.23 -2070 42 45 42
44.3934 -818.833 -2074 41 44 41
48.8851 -821.622 -2081 41 44 41
53.4066 -824.414 -2088 42 45 42
57.9857 -827.604 -2096 43 46 43
62.8958 -834.746 -2114 42 45 42
67.9773 -843.074 -2135 68 71 69
-332.576 -824.691 -2059 38 42 41
-327.849 -823.703 -2057 35 41 40
-323.919 -824.719 -2060 35 40 39
-319.36 -824.136 -2059 36 40 39
-315.572 -825.557 -2063 37 41 40
-310.412 -823.379 -2058 36 39 39
-306.763 -825.204 -2063 36 38 38
-301.777 -823.432 -2059 35 39 38
-296.955 -822.063 -2056 34 38 37
-291.722 -819.497 -2050 34 38 37
-286.797 -817.735 -2046 34 38 37
-282.168 -816.774 -2044 31 36 35
-278.23 -817.814 -2047 29 35 34
-273.077 -815.262 -2041 31 35 34
-267.952 -812.712 -2035 32 36 35
-262.207 -808.17 -2024 30 34 33
-256.129 -802.434 -2010 37 39 39
-249.737 -795.505 -1993 36 38 38
-244.281 -791.375 -1983 37 39 39
-239.476 -789.243 -1978 37 39 39
-234.455 -786.316 -1971 39 41 41
-230.051 -785.388 -1969 40 42 42
-225.772 -784.86 -1968 40 42 42
-221.837 -785.532 -1970 42 44 44
-217.675 -785.408 -1970 46 47 46
-213.948 -786.881 -1974 45 46 45
-209.993 -787.559 -1976 42 43 43
-206.032 -788.239 -1978 41 44 42
-201.962 -788.523 -1979 43 45 43
-197.79 -788.41 -1979 43 45 44
-194.011 -789.893 -1983 43 45 45
-190.313 -791.777 -1988 43 45 45
-186.783 -794.459 -1995 43 45 45
-183.224 -797.142 -2002 40 44 43
-179.459 -799.031 -2007 38 42 41
-175.5 -800.126 -2010 35 39 38
-171.701 -802.018 -2015 38 42 41
-167.715 -803.117 -2018 36 40 39
-163.719 -804.218 -2021 34 38 37
-159.869 -806.116 -2026 35 39 38
-156.153 -808.813 -2033 33 37 36
-152.858 -813.898 -2046 31 35 34
-148.928 -815.802 -2051 26 27 27
-145.05 -818.106 -2057 17 17 17
-140.873 -818.821 -2059 18 18 18
-136.425 -817.948 -2057 25 25 25
-131.408 -813.499 -2046 34 34 34
-126.873 -811.837 -2042 35 37 37
-122.235 -809.382 -2036 41 44 43
-117.798 -808.122 -2033 42 46 45
-113.431 -807.262 -2031 43 45 45
-108.965 -805.61 -2027 42 44 44
-104.517 -803.961 -2023 40 42 42
-100.235 -803.506 -2022 39 41 39
-95.9109 -802.656 -2020 39 42 40
-91.5959 -801.809 -2018 38 40 40
-87.4635 -802.554 -2020 37 39 39
-83.3233 -803.301 -2022 36 38 38
-79.0582 -802.858 -2021 34 36 36
-74.946 -804.006 -2024 34 36 36
-70.5425 -801.98 -2019 33 35 35
-66.3249 -801.942 -2019 36 36 36
-61.9539 -799.92 -2014 34 36 36
-57.5757 -797.503 -2008 36 38 38
-53.2761 -795.884 -2004 39 41 41
-49.0184 -794.664 -2001 40 43 41
-44.7736 -793.446 -1998 40 43 40
-40.5415 -792.231 -1995 40 43 40
-36.432 -793.401 -1998 41 44 41
-32.181 -791.396 -1993 40 43 40
-28.0636 -792.571 -1996 39 42 39
-23.886 -792.159 -1995 38 41 38
-19.7228 -792.147 -1995 38 41 38
-15.5987 -794.123 -2000 40 43 40
-11.4938 -798.88 -2012 39 42 40
-7.33534 -803.242 -2023 38 40 40
-3.14025 -809.989 -2040 36 39 36
1.12139 -813.562 -2049 35 38 35
5.41532 -816.343 -2056 37 40 37
9.71491 -817.142 -2058 37 40 37
14.0774 -821.119 -2068 37 40 37
18.366 -819.937 -2065 38 41 38
22.6973 -820.743 -2067 40 43 40
27.0239 -821.154 -2068 39 42 39
31.3701 -821.964 -2070 39 42 39
35.6562 -821.189 -2068 41 44 41
40.0115 -822.004 -2070 41 44 41
44.3754 -822.822 -2072 41 44 41
48.9126 -826.423 -2081 42 45 42
53.3597 -828.04 -2085 43 46 43
57.9903 -832.042 -2095 43 46 43
62.9013 -839.225 -2113 43 46 43
67.9198 -846.808 -2132 66 69 67
-337.344 -830.091 -2060 42 46 47
-332.443 -828.691 -2057 38 42 41
-328.036 -828.502 -2057 34 40 39
-323.947 -829.122 -2059 35 40 39
-319.386 -828.535 -2058 37 41 40
-315.292 -829.159 -2060 37 41 40
-311.041 -829.383 -2061 36 39 38
-306.789 -829.609 -2062 36 38 38
-301.656 -827.424 -2057 36 40 39
-296.835 -826.047 -2054 35 39 38
-291.176 -822.26 -2045 34 38 37
-286.96 -822.498 -2046 33 37 36
-282.328 -821.532 -2044 31 36 35
-278.523 -822.98 -2048 27 33 32
-273.633 -821.215 -2044 30 34 33
-268.631 -819.052 -2039 32 36 35
-263.134 -815.286 -2030 30 34 33
-256.912 -809.115 -2015 36 38 38
-250.38 -801.743 -1997 36 38 38
-244.666 -796.786 -1985 38 40 40
-239.611 -793.839 -1978 37 39 39
-234.826 -791.697 -1973 39 41 41
-230.298 -790.362 -1970 40 42 42
-226.129 -790.232 -1970 40 42 42
-221.963 -790.105 -1970 40 42 42
-218.129 -791.184 -1973 43 43 41
-214.069 -791.462 -1974 44 44 42
-210.112 -792.144 -1976 43 43 41
-206.253 -793.228 -1979 42 44 44
-201.872 -792.311 -1977 43 45 45
-198.002 -793.4 -1980 43 45 45
-194.219 -794.892 -1984 43 45 45
-190.325 -795.985 -1987 42 44 44
-186.607 -797.881 -1992 42 44 44
-182.961 -800.18 -1998 38 42 41
-179.203 -802.08 -2003 37 41 40
-175.687 -805.183 -2011 36 40 39
-171.627 -805.885 -2013 36 40 39
-167.81 -807.791 -2018 36 40 39
-164.054 -810.099 -2024 36 40 39
-160.354 -812.809 -2031 36 40 39
-156.702 -815.921 -2039 36 40 39
-152.944 -818.634 -2046 32 36 35
-149.375 -822.55 -2056 27 28 28
-145.343 -824.067 -2060 18 18 18
-140.884 -823.186 -2058 18 18 18
-136.302 -821.508 -2054 25 25 25
-131.61 -819.033 -2048 32 32 32
-126.944 -816.561 -2042 34 36 36
-122.244 -813.691 -2035 41 44 43
-117.691 -811.625 -2030 43 46 45
-113.215 -809.961 -2026 43 45 45
-108.757 -808.299 -2022 41 43 43
-104.42 -807.439 -2020 41 43 43
-100.192 -807.382 -2020 42 45 42
-96.0122 -807.726 -2021 42 45 43
-91.602 -806.075 -2017 40 42 42
-87.4693 -806.824 -2019 37 39 39
-83.3288 -807.575 -2021 37 39 39
-79.1025 -807.529 -2021 35 37 37
-74.9511 -808.285 -2023 35 37 37
-70.617 -807.045 -2020 35 36 36
-66.362 -806.607 -2019 38 38 38
-61.8963 -803.375 -2011 36 38 38
-57.6079 -802.143 -2008 35 37 37
-53.3592 -801.313 -2006 35 37 37
-49.0214 -798.888 -2000 37 40 38
-44.8434 -798.861 -2000 40 43 40
-40.6049 -797.639 -1997 40 43 40
-36.4158 -797.218 -1996 39 42 39
-32.2151 -796.4 -1994 40 43 40
-28.1073 -797.981 -1998 41 44 41
-23.8994 -796.768 -1995 40 43 40
-19.7733 -798.353 -1999 39 42 39
-15.6385 -800.34 -2004 39 42 39
-11.5117 -804.326 -2014 39 41 40
-7.33567 -807.516 -2022 37 39 39
-3.14042 -814.302 -2039 37 40 37
1.12087 -817.496 -2047 37 40 37
5.41031 -819.894 -2053 36 39 36
9.72037 -821.896 -2058 36 39 36
14.0443 -823.5 -2062 37 40 37
18.3942 -825.506 -2067 40 43 40
22.7429 -826.716 -2070 41 44 41
27 -824.733 -2065 40 43 40
31.3422 -825.548 -2067 39 42 39
35.6416 -825.168 -2066 42 45 42
39.9757 -825.588 -2067 42 45 42
44.4217 -828.009 -2073 43 46 43
48.8459 -829.633 -2077 44 47 44
53.441 -833.656 -2087 45 48 45
58.0782 -837.682 -2097 44 47 44
63.0258 -845.306 -2116 42 45 42
68.0854 -853.333 -2136 63 65 63
-342.79 -837.131 -2065 0 0 0
-337.865 -835.719 -2062 40 44 44
-332.957 -834.31 -2059 38 42 41
-328.383 -833.715 -2058 35 41 40
-323.817 -833.122 -2057 35 40 39
-318.793 -831.318 -2053 36 40 39
-315.319 -833.565 -2059 38 42 41
-311.068 -833.79 -2060 36 40 39
-306.667 -833.613 -2060 35 37 37
-301.828 -832.224 -2057 34 38 37
-297.294 -831.648 -2056 35 39 38
-291.912 -828.648 -2049 35 39 38
-287.264 -827.673 -2047 34 38 37
-282.49 -826.297 -2044 32 36 35
-278.274 -826.54 -2045 27 33 32
-273.12 -823.958 -2039 30 35 34
-268.125 -821.783 -2034 33 37 36
-263.154 -819.611 -2029 30 34 33
-257.058 -813.807 -2015 32 35 34
-250.773 -807.201 -1999 38 40 40
-245.299 -803.021 -1989 39 41 41
-240.354 -800.46 -1983 40 42 42
-235.317 -797.499 -1976 39 41 41
-230.663 -795.752 -1972 39 41 41
-226.603 -796.025 -1973 40 42 42
-222.314 -795.493 -1972 39 41 41
-218.475 -796.578 -1975 41 41 39
-214.624 -797.664 -1978 42 42 40
-210.444 -797.543 -1978 43 43 41
-206.37 -797.827 -1979 42 44 44
-202.191 -797.711 -1979 44 46 46
-198.214 -798.403 -1981 45 47 47
-194.035 -798.291 -1981 42 44 44
-190.433 -800.6 -1987 41 43 43
-186.806 -802.909 -1993 41 43 43
-183.157 -805.221 -1999 39 43 42
-179.394 -807.132 -2004 36 40 39
-175.349 -807.836 -2006 36 40 39
-171.639 -810.154 -2012 36 40 39
-167.739 -811.668 -2016 38 42 41
-164.066 -814.392 -2023 37 41 40
-160.287 -816.715 -2029 34 38 37
-156.714 -820.247 -2038 34 38 37
-153.031 -823.379 -2046 33 37 36
-149.46 -827.317 -2056 29 31 30
-145.496 -829.245 -2061 19 19 19
-141.169 -829.164 -2061 17 17 17
-136.512 -827.074 -2056 24 24 24
-132.006 -825.791 -2053 31 31 31
-127.202 -822.5 -2045 36 36 36
-122.373 -818.809 -2036 42 43 43
-117.815 -816.73 -2031 43 45 45
-113.335 -815.056 -2027 44 46 46
-108.711 -812.179 -2020 43 45 45
-104.428 -811.716 -2019 43 45 45
-100.199 -811.658 -2019 43 46 43
-95.9714 -811.603 -2019 43 46 44
-91.6991 -811.148 -2018 42 44 44
-87.5186 -811.499 -2019 38 40 40
-83.3759 -812.254 -2021 37 39 39
-79.1863 -812.61 -2022 36 38 38
-74.9562 -812.566 -2022 35 37 37
-70.692 -812.123 -2021 36 37 37
-66.3665 -810.879 -2018 38 38 38
-61.9619 -808.432 -2012 35 37 37
-57.6691 -807.193 -2009 34 36 36
-53.3361 -805.152 -2004 36 38 37
-49.0489 -803.516 -2000 39 42 40
-44.8238 -802.686 -1998 41 44 41
-40.5465 -800.653 -1993 40 43 40
-36.4364 -801.837 -1996 40 43 40
-32.2171 -800.612 -1993 41 44 41
-28.095 -801.801 -1996 41 44 41
-23.8768 -800.179 -1992 40 43 40
-19.7547 -801.773 -1996 39 42 39
-15.6395 -804.575 -2003 37 40 37
-11.5122 -808.584 -2013 37 39 38
-7.34717 -812.998 -2024 37 39 39
-3.13443 -817.011 -2034 38 41 38
1.11953 -820.626 -2043 38 41 38
5.40556 -823.44 -2050 38 41 38
9.70223 -824.649 -2053 38 41 38
14.032 -827.066 -2059 38 41 38
18.3691 -828.682 -2063 38 41 38
22.7227 -830.3 -2067 39 42 39
27.0805 -831.52 -2070 40 43 40
31.3906 -831.135 -2069 40 43 40
35.7309 -831.555 -2070 43 46 43
40.0564 -831.577 -2070 45 48 45
44.4682 -833.208 -2074 43 46 43
48.85 -834.038 -2076 43 46 43
53.343 -836.477 -2082 45 48 45
57.9726 -840.526 -2092 44 47 44
62.8531 -847.391 -2109 45 48 45
67.9327 -855.867 -2130 63 65 64
-349.445 -847.063 -2077 0 0 0
-343.32 -842.785 -2067 41 45 47
-338.06 -840.549 -2062 40 44 45
-333.311 -839.539 -2060 39 43 42
-328.573 -838.533 -2058 35 41 40
-323.531 -836.714 -2054 35 41 40
-319.442 -837.343 -2056 37 41 40
-315.194 -837.567 -2057 37 41 40
-310.794 -837.386 -2057 36 39 39
-306.545 -837.615 -2058 37 39 39
-302.002 -837.033 -2057 33 37 36
-297.465 -836.452 -2056 34 38 37
-292.365 -834.249 -2051 35 39 38
-287.57 -832.861 -2048 34 38 37
-283.067 -832.29 -2047 32 36 35
-278.843 -832.534 -2048 31 37 36
-273.679 -829.936 -2042 31 36 35
-268.543 -827.342 -2036 31 35 34
-263.305 -824.345 -2029 31 35 34
-257.461 -819.32 -2017 31 33 33
-251.294 -813.081 -2002 38 40 40
-245.686 -808.471 -1991 41 43 43
-240.37 -804.677 -1982 43 45 45
-235.571 -802.511 -1977 41 43 43
-230.678 -799.941 -1971 39 41 41
-226.847 -801.027 -1974 39 41 41
-222.554 -800.493 -1973 39 41 41
-218.6 -801.178 -1975 41 42 41
-214.421 -801.053 -1975 43 44 43
-210.564 -802.148 -1978 43 44 44
-206.592 -802.839 -1980 42 44 44
-202.307 -802.317 -1979 43 45 45
-198.328 -803.012 -1981 44 47 45
-194.44 -804.116 -1984 42 44 44
-190.541 -805.221 -1987 42 44 44
-186.632 -806.329 -1990 41 43 43
-182.803 -807.844 -1994 39 43 42
-179.138 -810.171 -2000 37 41 40
-175.187 -811.285 -2003 37 41 40
-171.395 -813.211 -2008 36 40 39
-167.751 -815.949 -2015 37 41 40
-164.16 -819.093 -2023 35 39 38
-160.299 -821.025 -2028 33 37 36
-156.804 -824.982 -2038 34 38 37
-153.193 -828.536 -2047 34 38 37
-149.472 -831.688 -2055 28 30 29
-145.296 -832.413 -2057 15 15 15
-141.181 -833.545 -2060 15 15 15
-136.723 -832.657 -2058 20 20 20
-132.017 -830.152 -2052 28 28 28
-127.399 -828.056 -2047 37 37 37
-122.623 -824.748 -2039 41 42 42
-117.708 -820.231 -2028 43 45 45
-113.287 -818.951 -2025 43 45 45
-108.719 -816.462 -2019 44 46 45
-104.435 -815.997 -2018 45 47 45
-100.256 -816.342 -2019 45 48 45
-96.1686 -817.499 -2022 44 47 45
-91.7968 -816.233 -2019 44 46 46
-87.4816 -815.373 -2017 38 40 40
-83.3406 -816.133 -2019 36 38 38
-79.1138 -816.087 -2019 37 39 39
-74.8505 -815.639 -2018 36 38 38
-70.662 -816.001 -2019 36 38 38
-66.3055 -814.346 -2015 36 36 36
-62.0279 -813.501 -2013 36 37 37
-57.673 -811.446 -2008 36 38 38
-53.4462 -811.01 -2007 36 39 36
-49.1504 -809.365 -2003 39 42 39
-44.8942 -808.126 -2000 43 46 43
-40.6305 -806.486 -1996 39 42 39
-36.4205 -805.656 -1994 38 41 38
-32.2515 -805.636 -1994 41 44 41
-28.1109 -806.427 -1996 42 45 42
-23.9743 -807.624 -1999 41 44 41
-19.8056 -808.016 -2000 38 41 38
-15.703 -812.046 -2010 37 40 37
-11.5645 -816.482 -2021 36 39 38
-7.38387 -821.325 -2033 37 39 39
-3.1454 -824.15 -2040 37 40 37
1.12121 -826.169 -2045 37 40 37
5.40082 -826.979 -2047 37 40 37
9.70301 -829.003 -2052 37 40 37
14.0194 -830.626 -2056 37 40 37
18.3706 -833.06 -2062 36 39 36
22.7028 -833.879 -2064 37 40 37
27.109 -836.722 -2071 39 42 39
31.4387 -836.738 -2071 40 43 40
35.7686 -836.757 -2071 38 41 38
40.1182 -837.183 -2072 42 45 42
44.4936 -838.016 -2074 43 46 43
48.9014 -839.254 -2077 42 45 42
53.3223 -840.496 -2080 43 46 43
57.8948 -843.76 -2088 42 45 42
62.8888 -852.281 -2109 42 45 42
67.8116 -858.785 -2125 56 59 57
-355.824 -856.248 -2087 51 53 56
-349.143 -850.709 -2074 45 47 49
-343.353 -847.226 -2066 41 45 48
-338.093 -844.977 -2061 40 44 46
-333.504 -844.372 -2060 39 43 44
-328.444 -842.54 -2056 35 41 41
-323.719 -841.53 -2054 36 41 40
-319.472 -841.753 -2055 36 40 39
-314.917 -841.159 -2054 36 40 39
-310.672 -841.386 -2055 36 40 39
-306.425 -841.617 -2056 36 38 38
-302.03 -841.44 -2056 34 38 37
-297.637 -841.266 -2056 34 38 37
-292.534 -839.049 -2051 35 39 38
-287.877 -838.062 -2049 35 39 38
-282.954 -836.261 -2045 33 37 36
-278.186 -834.871 -2042 32 38 37
-273.032 -832.259 -2036 33 37 36
-268.302 -830.876 -2033 31 35 34
-263.457 -829.087 -2029 31 35 34
-257.993 -825.259 -2020 32 34 34
-251.941 -819.392 -2006 38 40 40
-246.322 -814.755 -1995 40 42 42
-240.873 -810.531 -1985 42 44 44
-235.468 -806.31 -1975 42 44 44
-231.045 -805.359 -1973 40 42 42
-226.633 -804.41 -1971 39 41 41
-222.57 -804.688 -1972 38 40 40
-218.504 -804.969 -1973 39 41 41
-214.545 -805.66 -1975 42 44 44
-210.472 -805.945 -1976 42 44 44
-206.502 -806.641 -1978 42 44 44
-202.321 -806.523 -1978 43 45 45
-198.141 -806.407 -1978 44 47 45
-194.454 -808.332 -1983 45 47 46
-190.651 -809.852 -1987 42 44 44
-186.833 -811.373 -1991 40 42 42
-183.091 -813.304 -1996 39 43 42
-179.241 -814.829 -2000 39 43 42
-175.2 -815.542 -2002 38 42 41
-171.408 -817.479 -2007 37 41 40
-167.681 -819.825 -2013 36 40 39
-164.091 -822.988 -2021 35 39 38
-160.391 -825.745 -2028 34 38 37
-156.816 -829.318 -2037 34 38 37
-153.206 -832.892 -2046 35 39 38
-149.267 -834.841 -2051 29 30 30
-145.167 -835.977 -2054 17 17 17
-141.331 -838.744 -2061 16 16 16
-136.801 -837.443 -2058 18 18 18
-132.285 -836.145 -2055 27 27 27
-127.597 -833.629 -2049 35 35 35
-122.754 -829.896 -2040 40 41 41
-117.892 -825.759 -2030 40 42 42
-113.352 -823.659 -2025 43 45 45
-108.889 -821.968 -2021 44 46 45
-104.495 -820.687 -2018 45 48 45
-100.214 -820.221 -2017 44 47 44
-96.0333 -820.572 -2018 45 48 45
-91.6673 -819.298 -2015 44 46 44
-87.5316 -820.06 -2017 42 44 44
-83.2644 -819.604 -2016 40 42 42
-79.0414 -819.557 -2016 40 42 42
-74.7449 -818.701 -2014 37 39 39
-70.4923 -818.252 -2013 36 37 37
-66.3105 -818.62 -2014 38 38 38
-62.0017 -817.363 -2011 39 40 40
-57.7922 -817.329 -2011 38 40 39
-53.4767 -815.672 -2007 36 39 36
-49.1539 -813.61 -2002 38 41 38
-44.9198 -812.77 -2000 42 45 42
-40.6944 -811.933 -1998 40 43 40
-36.4231 -809.879 -1993 39 42 39
-32.2537 -809.86 -1993 40 43 40
-28.0707 -809.436 -1992 41 44 41
-23.964 -811.453 -1997 40 43 40
-19.787 -811.441 -1997 39 42 39
-15.7042 -816.306 -2009 36 39 36
-11.5596 -820.362 -2019 37 39 38
-7.38454 -825.638 -2032 38 40 40
-3.14868 -829.292 -2041 38 41 38
1.12235 -831.323 -2046 37 40 37
5.40928 -832.544 -2049 37 40 37
9.70381 -833.361 -2051 37 40 37
14.0139 -834.587 -2054 37 40 37
18.3633 -837.034 -2060 36 39 36
22.738 -839.484 -2066 37 40 37
27.0984 -840.717 -2069 40 43 40
31.4718 -841.953 -2072 40 43 40
35.8583 -843.192 -2075 39 42 39
40.1798 -842.807 -2074 40 43 40
44.5407 -843.238 -2075 42 45 42
48.9293 -844.078 -2077 44 47 44
53.3785 -845.733 -2081 42 45 42
58.0388 -850.235 -2092 41 44 41
62.6862 -853.928 -2101 41 45 40
67.7227 -862.094 -2121 52 55 52
-355.008 -858.681 -2081 47 49 53
-348.674 -853.937 -2070 44 46 48
-343.221 -851.259 -2064 43 47 50
-338.454 -850.234 -2062 42 46 48
-333.699 -849.213 -2060 39 43 44
-329.115 -848.606 -2059 36 42 43
-324.224 -847.178 -2056 35 41 41
-319.036 -844.93 -2051 36 40 39
-315.254 -846.392 -2055 35 39 38
-310.55 -845.385 -2053 36 40 39
-306.156 -845.205 -2053 35 39 38
-302.353 -846.674 -2057 35 39 38
-298.1 -846.91 -2058 35 39 38
-293.275 -845.503 -2055 35 39 38
-288.607 -844.51 -2053 35 39 38
-283.949 -843.521 -2051 35 39 38
-279.302 -842.534 -2049 33 39 38
-273.593 -838.261 -2039 33 38 37
-268.986 -837.28 -2037 32 36 35
-263.87 -834.659 -2031 30 34 33
-257.759 -828.754 -2017 33 36 35
-251.585 -822.443 -2002 36 38 38
-246.218 -818.602 -1993 38 40 40
-240.648 -813.942 -1982 40 42 42
-235.605 -810.929 -1975 40 42 42
-231.062 -809.562 -1972 40 42 42
-226.534 -808.197 -1969 40 42 42
-222.586 -808.888 -1971 40 42 42
-218.631 -809.58 -1973 40 42 42
-214.56 -809.864 -1974 41 43 43
-210.488 -810.151 -1975 41 43 43
-206.413 -810.44 -1976 42 44 44
-202.438 -811.142 -1978 42 44 44
-198.456 -811.846 -1980 43 46 45
-194.664 -813.372 -1984 43 46 44
-190.761 -814.49 -1987 42 45 42
-187.129 -816.839 -1993 41 44 41
-182.83 -816.322 -1992 40 44 43
-179.344 -819.496 -2000 40 44 43
-175.476 -821.031 -2004 39 43 42
-171.678 -822.979 -2009 38 42 41
-167.944 -825.339 -2015 36 40 39
-164.43 -828.929 -2024 35 39 38
-160.563 -830.882 -2029 34 38 37
-156.984 -834.475 -2038 33 37 36
-153.144 -836.842 -2044 33 37 36
-149.28 -839.211 -2050 30 31 31
-145.392 -841.582 -2056 19 19 19
-141.344 -843.137 -2060 18 18 18
-137.013 -843.056 -2060 19 19 19
-132.426 -841.341 -2056 25 25 25
-127.732 -838.811 -2050 33 33 33
-122.885 -835.056 -2041 38 39 39
-118.134 -831.713 -2033 41 43 43
-113.362 -827.965 -2024 43 45 45
-108.79 -825.446 -2018 45 47 46
-104.607 -825.794 -2019 44 47 44
-100.371 -825.734 -2019 42 45 42
-96.0885 -825.269 -2018 43 46 43
-91.7655 -824.397 -2016 43 46 43
-87.5385 -824.345 -2016 42 44 43
-83.2297 -823.478 -2014 42 44 43
-78.9299 -822.614 -2012 40 42 42
-74.7136 -822.569 -2012 35 37 37
-70.4628 -822.118 -2011 35 37 37
-66.2168 -821.67 -2010 37 37 37
-62.0374 -822.042 -2011 36 38 38
-57.7679 -821.19 -2009 35 37 37
-53.5607 -821.158 -2009 36 39 36
-49.2804 -819.902 -2006 38 41 38
-44.9905 -818.24 -2002 41 44 41
-40.7178 -816.581 -1998 42 45 42
-36.4439 -814.515 -1993 41 44 41
-32.2885 -814.904 -1994 40 43 40
-28.0867 -814.069 -1992 39 42 39
-24.0018 -816.915 -1999 38 41 38
-19.8281 -817.311 -2000 37 40 37
-15.7287 -821.796 -2011 36 39 36
-11.6006 -827.509 -2025 37 39 38
-7.40314 -831.999 -2036 38 40 40
-3.15505 -835.265 -2044 37 40 37
1.1254 -837.716 -2050 37 40 37
5.41513 -837.718 -2050 37 40 37
9.70489 -837.723 -2050 36 39 36
14.022 -839.364 -2054 37 40 37
18.3649 -841.417 -2059 38 41 38
22.7289 -843.472 -2064 39 42 39
27.1143 -845.53 -2069 40 43 40
31.5053 -847.181 -2073 40 43 40
35.8789 -848.018 -2075 42 45 42
40.2031 -847.631 -2074 40 43 40
44.5448 -847.656 -2074 43 46 43
48.9812 -849.318 -2078 44 47 44
53.3321 -849.348 -2078 42 45 42
57.8501 -851.832 -2084 43 46 43
62.6624 -857.998 -2099 42 46 41
67.6341 -865.394 -2117 42 45 41
-354.705 -862.341 -2078 47 49 52
-348.542 -857.984 -2068 45 47 48
-343.59 -856.535 -2065 43 45 47
-338.489 -854.675 -2061 42 44 46
-334.057 -854.476 -2061 39 43 44
-329.309 -853.452 -2059 36 42 43
-324.414 -852.016 -2056 35 40 41
-319.535 -850.583 -2053 34 38 37
-315.132 -850.396 -2053 35 39 38
-310.581 -849.798 -2052 37 41 40
-306.336 -850.03 -2053 35 39 38
-302.383 -851.093 -2056 35 39 38
-298.13 -851.331 -2057 35 39 38
-293.304 -849.916 -2054 36 40 39
-288.916 -849.744 -2054 34 39 38
-284.254 -848.749 -2052 33 38 37
-279.738 -848.17 -2051 33 39 38
-274.559 -845.526 -2045 33 38 37
-269.936 -844.54 -2043 32 36 35
-264.804 -841.903 -2037 32 36 35
-258.421 -835.137 -2021 33 36 36
-252.361 -829.203 -2007 34 36 36
-246.732 -824.512 -1996 36 38 38
-240.91 -819 -1983 38 40 40
-235.862 -815.969 -1976 40 42 42
-231.08 -813.768 -1971 41 43 43
-226.666 -812.809 -1969 41 43 43
-222.489 -812.677 -1969 41 43 43
-218.647 -813.786 -1972 42 42 42
-214.577 -814.072 -1973 40 41 41
-210.504 -814.361 -1974 39 41 41
-206.533 -815.064 -1976 40 42 42
-202.556 -815.769 -1978 42 44 44
-198.471 -816.064 -1979 42 46 45
-194.679 -817.599 -1983 42 45 43
-190.968 -819.548 -1988 42 45 42
-187.144 -821.087 -1992 42 45 42
-183.212 -822.215 -1995 41 45 43
-179.179 -822.934 -1997 40 44 43
-175.403 -824.89 -2002 39 43 42
-171.436 -826.025 -2005 37 41 40
-167.791 -828.81 -2012 37 41 40
-164.444 -833.244 -2023 37 41 40
-160.339 -833.973 -2025 36 40 39
-156.767 -837.588 -2034 32 36 35
-152.783 -839.144 -2038 31 35 34
-149.44 -844.409 -2051 30 31 31
-145.265 -845.147 -2053 23 20 21
-141.426 -847.945 -2060 19 19 19
-137.092 -847.864 -2060 18 18 18
-132.567 -846.551 -2057 23 23 23
-127.931 -844.417 -2052 31 31 31
-122.956 -839.818 -2041 38 39 39
-118.144 -836.045 -2032 42 44 44
-113.595 -833.92 -2027 42 44 44
-109.069 -831.798 -2022 42 45 44
-104.719 -830.914 -2020 42 46 43
-100.28 -829.209 -2016 41 44 41
-96.0489 -829.152 -2016 43 46 43
-91.682 -827.863 -2013 42 45 42
-87.4589 -827.812 -2013 42 45 42
-83.1124 -826.528 -2010 42 45 42
-78.9364 -826.892 -2011 40 42 42
-74.6453 -826.026 -2009 36 38 38
-70.3633 -825.161 -2007 36 38 38
-66.1892 -825.533 -2008 39 39 39
-61.9807 -825.495 -2008 36 37 37
-57.7438 -825.05 -2007 33 35 34
-53.5384 -825.017 -2007 34 37 34
-49.2597 -823.755 -2004 37 40 37
-45.0165 -822.905 -2002 40 43 40
-40.7617 -821.647 -1999 40 43 40
-36.5199 -820.391 -1996 40 43 40
-32.3232 -819.961 -1995 40 43 40
-28.1452 -819.943 -1995 40 43 40
-23.9796 -820.339 -1996 38 41 38
-19.8693 -823.203 -2003 37 40 37
-15.7379 -826.481 -2011 36 39 36
-11.6073 -832.227 -2025 37 39 38
-7.41113 -837.153 -2037 37 39 39
-3.15835 -840.437 -2045 38 41 38
1.126 -842.492 -2050 37 40 37
5.42099 -842.905 -2051 37 40 37
9.70573 -842.087 -2049 37 40 37
14.0302 -844.149 -2054 37 40 37
18.3666 -845.803 -2058 39 42 39
22.7422 -848.28 -2064 39 42 39
27.143 -850.761 -2070 39 42 39
31.5388 -852.422 -2074 41 44 41
35.8651 -852.031 -2073 43 46 43
40.3038 -854.108 -2078 41 44 41
44.5921 -852.9 -2075 43 46 43
48.9861 -853.749 -2077 44 47 44
53.3632 -854.19 -2078 42 45 42
57.8282 -855.866 -2082 43 46 43
62.4002 -858.779 -2089 42 46 41
67.2898 -865.394 -2105 45 47 43
-354.061 -865.16 -2073 45 49 51
-348.242 -861.612 -2065 46 48 48
-343.46 -860.573 -2063 45 47 48
-338.525 -859.119 -2060 41 43 45
-334.255 -859.336 -2061 39 43 44
-329.664 -858.723 -2060 37 43 44
-324.448 -856.444 -2055 36 42 42
-320.035 -856.254 -2055 34 38 37
-315.472 -855.649 -2054 35 39 38
-311.068 -855.463 -2054 37 41 40
-306.666 -855.28 -2054 35 39 38
-302.708 -856.349 -2057 34 38 37
-298.596 -857.004 -2059 34 38 37
-293.906 -855.996 -2057 36 40 39
-289.509 -855.824 -2057 35 40 39
-284.698 -854.406 -2054 31 37 36
-280.313 -854.239 -2054 30 36 35
-275.258 -851.996 -2049 31 36 35
-270.756 -851.419 -2048 32 36 35
-265.09 -847.104 -2038 33 37 36
-259.341 -842.378 -2027 35 38 37
-253.012 -835.578 -2011 37 39 39
-246.877 -829.198 -1996 35 37 37
-241.052 -823.655 -1983 37 39 39
-235.761 -819.776 -1974 39 41 41
-230.864 -817.147 -1968 41 43 43
-226.454 -816.182 -1966 41 43 43
-222.281 -816.05 -1966 43 45 45
-218.443 -817.166 -1969 42 43 43
-214.376 -817.454 -1970 40 42 42
-210.094 -816.914 -1969 39 41 41
-206.236 -818.036 -1972 40 42 42
-202.367 -819.16 -1975 42 44 44
-198.287 -819.457 -1976 41 45 44
-194.695 -821.83 -1982 43 47 44
-191.08 -824.205 -1988 44 47 44
-187.065 -824.923 -1990 43 46 43
-182.86 -824.814 -1990 40 44 42
-179.105 -826.78 -1995 37 41 40
-175.506 -829.577 -2002 36 40 39
-171.622 -831.132 -2006 36 40 39
-167.89 -833.519 -2012 37 41 40
-164.296 -836.735 -2020 37 41 40
-160.354 -838.297 -2024 35 39 38
-156.704 -841.517 -2032 33 37 36
-152.797 -843.497 -2037 31 35 34
-149.235 -847.549 -2047 30 30 30
-145.562 -851.189 -2056 23 20 21
-141.508 -852.761 -2060 19 19 19
-137.239 -853.094 -2061 19 19 19
-132.58 -850.945 -2056 21 21 21
-127.943 -848.799 -2051 28 28 28
-123.088 -845.002 -2042 37 38 38
-118.213 -840.793 -2032 41 43 43
-113.662 -838.657 -2027 42 45 43
-109.078 -836.109 -2021 41 45 42
-104.677 -834.805 -2018 42 46 43
-100.338 -833.918 -2016 42 45 42
-96.1525 -834.274 -2017 43 46 43
-91.8266 -833.392 -2015 43 46 43
-87.5532 -832.926 -2014 43 46 43
-83.2022 -831.636 -2011 43 46 44
-78.9824 -831.588 -2011 43 45 45
-74.5772 -829.476 -2006 38 40 40
-70.4042 -829.847 -2007 37 38 38
-66.1947 -829.807 -2007 39 39 39
-62.0167 -830.183 -2008 36 38 36
-57.7774 -829.735 -2007 34 37 34
-53.5428 -829.289 -2006 35 38 35
-49.2637 -828.019 -2003 38 41 38
-45.0652 -827.991 -2003 38 41 38
-40.765 -825.9 -1998 39 42 39
-36.596 -826.29 -1999 40 43 40
-32.3421 -824.617 -1995 41 44 41
-28.1758 -825.013 -1996 41 44 41
-24.0055 -825.411 -1997 39 42 39
-19.9106 -829.118 -2006 36 39 36
-15.786 -833.241 -2016 36 39 36
-11.614 -836.952 -2025 36 38 37
-7.42616 -843.147 -2040 38 40 40
-3.16629 -846.863 -2049 39 42 39
1.12687 -847.276 -2050 38 41 38
5.43216 -848.931 -2054 36 39 36
9.73055 -848.522 -2053 37 40 37
14.0522 -849.769 -2056 37 40 37
18.3865 -851.019 -2059 39 42 39
22.7555 -853.097 -2064 39 42 39
27.1326 -854.765 -2068 39 42 39
31.5573 -857.263 -2074 41 44 41
35.9552 -858.522 -2077 41 44 41
40.3662 -859.785 -2080 39 42 39
44.661 -858.57 -2077 38 41 38
48.9675 -857.77 -2075 39 42 39
53.3685 -858.627 -2077 41 44 41
57.7786 -859.486 -2079 41 44 41
62.2572 -861.175 -2083 43 47 43
67.0732 -867.001 -2097 44 46 43
72.0163 -873.657 -2113 97 97 95
-353.589 -868.383 -2069 45 48 51
-347.944 -865.236 -2062 45 47 48
-342.998 -863.771 -2059 43 45 46
-338.233 -862.728 -2057 40 42 44
-333.805 -862.528 -2057 38 42 43
-329.219 -861.911 -2056 37 42 43
-324.483 -860.877 -2054 36 42 43
-320.07 -860.685 -2054 37 41 40
-315.813 -860.915 -2055 35 39 38
-311.555 -861.146 -2056 34 38 37
-306.848 -860.125 -2054 34 38 37
-303.035 -861.618 -2058 34 38 37
-298.483 -861.021 -2057 34 38 37
-293.794 -860.007 -2055 36 40 39
-288.554 -857.323 -2049 35 40 39
-284.867 -859.245 -2054 32 38 37
-280.342 -858.658 -2053 30 36 35
-275.287 -856.403 -2048 30 35 34
-270.916 -856.24 -2048 30 34 33
-265.507 -852.737 -2040 32 36 35
-259.878 -848.401 -2030 36 39 38
-253.539 -841.562 -2014 38 40 40
-247.395 -835.147 -1999 38 40 40
-241.438 -829.153 -1985 37 39 39
-236.259 -825.67 -1977 39 41 41
-231.352 -823.026 -1971 40 42 42
-226.588 -820.803 -1966 40 42 42
-222.412 -820.67 -1966 42 44 44
-218.238 -820.539 -1966 40 42 42
-214.176 -820.829 -1967 40 42 42
-210.324 -821.955 -1970 40 42 42
-206.462 -823.083 -1973 41 43 43
-202.589 -824.214 -1976 43 45 45
-198.604 -824.929 -1978 42 45 44
-194.81 -826.481 -1982 42 45 43
-191.096 -828.452 -1987 42 45 42
-186.987 -828.757 -1988 42 45 42
-183.151 -830.316 -1992 38 42 40
-179.03 -830.625 -1993 36 40 38
-175.258 -832.605 -1998 36 40 39
-171.552 -835.002 -2004 36 40 39
-167.821 -837.402 -2010 35 39 38
-164.311 -841.053 -2019 35 39 38
-160.21 -841.791 -2021 34 38 37
-156.488 -844.613 -2028 34 38 37
-152.812 -847.853 -2036 33 37 36
-149.615 -854.01 -2051 30 30 30
-145.576 -855.589 -2055 22 19 20
-141.866 -859.252 -2064 20 19 19
-137.453 -858.753 -2063 20 20 20
-132.851 -857.008 -2059 22 22 22
-128.143 -854.434 -2053 29 29 29
-123.281 -850.614 -2044 37 38 38
-118.457 -846.798 -2035 38 40 40
-113.728 -843.401 -2027 40 43 40
-109.142 -840.839 -2021 41 45 42
-104.842 -840.36 -2020 43 47 44
-100.298 -837.804 -2014 43 46 43
-95.9704 -836.914 -2012 44 47 44
-91.6523 -836.027 -2010 44 47 44
-87.5176 -836.806 -2012 43 46 43
-83.0853 -834.677 -2007 44 47 45
-78.95 -835.461 -2009 43 45 45
-74.6209 -834.168 -2006 38 40 40
-70.4454 -834.541 -2007 39 40 40
-66.2334 -834.501 -2007 39 39 39
-62.053 -834.879 -2008 37 39 37
-57.7824 -834.012 -2006 36 39 36
-53.5207 -833.148 -2004 35 38 35
-49.2926 -832.703 -2003 37 40 37
-45.069 -832.259 -2002 39 42 39
-40.7889 -830.571 -1998 36 39 36
-36.6357 -831.38 -2000 38 41 38
-32.4582 -831.775 -2001 41 44 41
-28.2345 -830.926 -1999 41 44 41
-24.0315 -830.495 -1998 40 43 40
-19.9124 -833.392 -2005 37 40 37
-15.7404 -835.044 -2009 36 39 36
-11.5977 -840.024 -2021 36 38 36
-7.42327 -847.084 -2038 37 39 38
-3.16342 -850.406 -2046 39 42 39
1.12912 -853.316 -2053 38 41 38
5.44309 -854.98 -2057 37 40 37
9.75041 -854.569 -2056 36 39 36
14.0947 -856.654 -2061 40 43 40
18.415 -856.664 -2061 41 44 41
22.7799 -858.339 -2065 41 44 41
27.1224 -858.769 -2066 41 44 41
31.5606 -861.696 -2073 41 44 41
35.9764 -863.378 -2077 39 41 40
40.351 -863.816 -2078 38 41 39
44.7304 -864.257 -2079 38 41 38
49.0907 -864.285 -2079 39 42 39
53.4 -863.484 -2077 41 44 41
57.8124 -864.348 -2079 41 44 41
62.2938 -866.047 -2083 42 45 42
66.9525 -869.827 -2092 45 47 45
71.7517 -874.857 -2104 59 60 58
-358.964 -875.188 -2073 89 91 96
-353.117 -871.597 -2065 44 46 50
-347.646 -868.854 -2059 43 45 47
-342.704 -867.381 -2056 41 44 45
-338.271 -867.176 -2056 40 44 45
-333.68 -866.552 -2055 38 42 43
-329.256 -866.353 -2055 37 42 43
-324.677 -865.735 -2054 35 41 42
-320.573 -866.385 -2056 37 41 42
-316.156 -866.194 -2056 35 39 39
-312.196 -867.269 -2059 34 38 37
-307.33 -865.82 -2056 33 37 36
-303.364 -866.9 -2059 35 39 38
-298.806 -866.299 -2058 34 38 37
-293.97 -864.859 -2055 35 39 38
-289.853 -865.526 -2057 36 41 40
-284.898 -863.671 -2053 32 38 37
-280.646 -863.923 -2054 31 37 36
-275.72 -862.074 -2050 32 37 36
-270.813 -860.229 -2046 31 35 34
-265.405 -856.706 -2038 30 34 33
-259.905 -852.766 -2029 34 37 37
-253.564 -845.889 -2013 36 38 38
-247.542 -839.856 -1999 37 39 39
-241.946 -835.089 -1988 38 40 40
-236.758 -831.586 -1980 39 41 41
-231.959 -829.347 -1975 41 43 43
-227.068 -826.691 -1969 41 43 43
-222.884 -826.557 -1969 41 43 43
-218.701 -826.425 -1969 41 43 43
-214.63 -826.716 -1970 41 43 43
-210.449 -826.589 -1970 42 44 44
-206.584 -827.724 -1973 42 44 44
-202.812 -829.28 -1977 42 44 44
-198.722 -829.58 -1978 41 43 43
-194.925 -831.141 -1982 41 44 42
-191.017 -832.284 -1985 41 44 41
-187.192 -833.849 -1989 41 43 41
-183.168 -834.577 -1991 39 42 40
-179.586 -837.403 -1998 37 41 38
-175.625 -838.555 -2001 36 40 39
-171.653 -839.709 -2004 36 40 39
-167.921 -842.122 -2010 34 38 37
-164.083 -844.118 -2015 35 39 38
-160.543 -847.792 -2024 35 39 38
-156.426 -848.536 -2026 35 39 38
-152.978 -853.051 -2037 33 37 36
-149.411 -857.149 -2047 29 30 30
-145.662 -860.411 -2055 22 20 20
-141.744 -862.838 -2061 21 19 19
-137.467 -863.174 -2062 21 19 20
-133.124 -863.094 -2062 21 21 21
-128.219 -859.25 -2053 27 27 27
-123.353 -855.408 -2044 37 38 38
-118.643 -852.407 -2037 38 39 39
-113.908 -848.991 -2029 39 42 39
-109.207 -845.578 -2021 41 45 41
-104.696 -843.422 -2016 43 47 43
-100.207 -841.27 -2011 44 47 43
-95.9316 -840.794 -2010 46 49 45
-91.7521 -841.156 -2011 44 47 44
-87.6127 -841.94 -2013 43 46 43
-83.3001 -841.053 -2011 43 46 43
-79.0752 -841.005 -2011 41 43 43
-74.7393 -839.705 -2008 39 41 41
-70.5221 -839.662 -2008 38 40 40
-66.2725 -839.203 -2007 40 40 40
-62.0895 -839.584 -2008 38 40 39
-57.7588 -837.876 -2004 35 37 37
-53.5256 -837.425 -2003 37 39 38
-49.297 -836.976 -2002 37 39 39
-45.0505 -836.112 -2000 36 38 38
-40.8742 -836.505 -2001 36 40 37
-36.7306 -837.736 -2004 38 41 38
-32.5098 -837.298 -2003 39 42 39
-28.2794 -836.444 -2001 40 44 41
-24.1178 -837.682 -2004 38 42 39
-19.924 -838.087 -2005 37 40 37
-15.7732 -841.003 -2012 35 38 35
-11.6104 -845.175 -2022 36 39 36
-7.42039 -851.021 -2036 37 40 37
-3.16237 -854.362 -2044 37 40 37
1.12973 -858.123 -2053 37 40 37
5.44901 -860.215 -2058 38 41 38
9.78007 -861.474 -2061 38 41 38
14.1098 -861.899 -2062 40 43 40
18.435 -861.908 -2062 42 45 42
22.7934 -863.175 -2065 40 43 40
27.1645 -864.443 -2068 38 41 38
31.564 -866.133 -2072 39 42 39
35.9977 -868.243 -2077 40 42 42
40.3945 -869.102 -2079 39 42 40
44.7569 -869.127 -2079 40 43 40
49.096 -868.737 -2078 40 43 40
53.4572 -868.767 -2078 41 44 41
57.8189 -868.8 -2078 42 45 42
62.3007 -870.508 -2082 42 45 42
66.8 -872.219 -2086 45 48 45
71.4872 -876.023 -2095 56 59 56
-359.7 -881.383 -2076 63 63 67
-353.672 -877.347 -2067 48 48 51
-348.362 -875.012 -2062 44 46 50
-343.244 -873.106 -2058 43 46 48
-338.311 -871.628 -2055 40 44 45
-333.718 -871 -2054 37 42 43
-329.454 -871.224 -2055 35 41 42
-324.872 -870.602 -2054 35 41 42
-321.078 -872.103 -2058 37 41 41
-316.808 -872.334 -2059 35 39 38
-311.929 -870.874 -2056 34 38 37
-307.515 -870.687 -2056 36 40 39
-303.103 -870.503 -2056 35 39 38
-298.114 -868.628 -2052 34 38 37
-293.717 -868.45 -2052 35 39 38
-289.181 -867.851 -2051 34 39 38
-284.514 -866.833 -2049 34 38 37
-280.267 -867.086 -2050 34 38 37
-275.616 -866.073 -2048 33 36 36
-270.71 -864.217 -2044 33 35 35
-265.824 -862.365 -2040 32 35 34
-260.317 -858.403 -2031 35 37 37
-254.22 -852.331 -2017 37 38 38
-248.185 -846.265 -2003 35 39 38
-242.578 -841.471 -1992 37 41 40
-237.259 -837.525 -1983 39 41 41
-232.333 -834.851 -1977 40 42 42
-227.665 -833.024 -1973 41 43 43
-223.243 -832.044 -1971 41 43 43
-218.721 -830.645 -1968 40 42 42
-214.758 -831.36 -1970 41 43 43
-210.575 -831.232 -1970 43 45 45
-206.917 -833.217 -1975 43 45 45
-202.933 -833.938 -1977 42 44 44
-198.74 -833.818 -1977 41 43 43
-194.746 -834.544 -1979 40 43 42
-191.035 -836.536 -1984 40 44 43
-187.209 -838.11 -1988 42 44 44
-183.093 -838.421 -1989 40 42 42
-179.333 -840.42 -1994 39 41 41
-175.73 -843.264 -2001 37 41 40
-171.755 -844.424 -2004 36 40 39
-167.937 -846.43 -2009 34 38 37
-164.099 -848.437 -2014 36 40 39
-160.162 -850.025 -2018 35 39 38
-156.596 -853.722 -2027 35 39 38
-152.843 -856.577 -2034 33 37 36
-149.573 -862.383 -2048 30 33 32
-145.678 -864.821 -2054 21 21 21
-141.897 -868.103 -2062 19 19 19
-137.616 -868.441 -2063 20 20 20
-133.074 -867.097 -2060 21 21 21
-128.42 -864.915 -2055 26 26 26
-123.487 -860.631 -2045 38 37 37
-118.656 -856.772 -2036 41 39 40
-113.919 -853.336 -2028 39 42 40
-109.326 -850.745 -2022 41 45 42
-104.862 -848.999 -2018 43 47 42
-100.317 -846.413 -2012 43 47 42
-96.084 -846.355 -2012 46 49 44
-91.6695 -844.616 -2008 45 48 45
-87.534 -845.404 -2010 44 47 44
-83.2666 -844.933 -2009 43 46 44
-79.1221 -845.726 -2011 41 43 43
-74.8209 -844.839 -2009 39 41 41
-70.564 -844.375 -2008 39 41 41
-66.3448 -844.334 -2008 39 40 40
-62.0954 -843.876 -2007 36 38 38
-57.8219 -842.999 -2005 37 39 39
-53.5572 -842.125 -2003 37 39 39
-49.2769 -840.833 -2000 37 39 39
-45.0096 -839.544 -1997 39 42 41
-40.8574 -840.359 -1999 38 42 39
-36.6973 -841.177 -2001 38 41 38
-32.5453 -842.418 -2004 39 42 39
-28.3669 -843.24 -2006 38 42 39
-24.1321 -842.384 -2004 38 41 38
-19.9557 -843.632 -2007 38 41 38
-15.7903 -846.143 -2013 38 41 38
-11.6115 -849.498 -2021 36 39 36
-7.42456 -855.797 -2036 36 39 36
-3.16725 -859.998 -2046 36 39 36
1.13116 -863.36 -2054 35 38 35
5.4523 -865.043 -2058 35 38 35
9.80003 -867.57 -2064 38 41 38
14.1388 -867.997 -2065 38 41 38
18.4547 -867.166 -2063 39 42 39
22.8069 -868.019 -2065 39 42 39
27.1939 -869.716 -2069 38 41 38
31.5979 -871.415 -2073 38 41 38
36.0018 -872.696 -2076 41 43 43
40.4184 -873.98 -2079 40 43 41
44.8265 -874.846 -2081 41 44 41
49.1253 -873.613 -2078 41 44 41
53.5919 -875.325 -2082 42 45 42
57.9368 -874.938 -2081 42 45 42
62.3077 -874.974 -2081 42 45 42
66.7756 -876.274 -2084 42 45 42
71.4613 -880.099 -2093 53 56 53
-365.29 -888.677 -2081 69 66 71
-359.052 -884.186 -2071 56 55 58
-353.545 -881.408 -2065 48 49 51
-348.067 -878.634 -2059 42 44 47
-342.952 -876.717 -2055 41 44 46
-338.516 -876.509 -2055 41 45 46
-333.921 -875.879 -2054 39 45 46
-329.654 -876.103 -2055 36 42 43
-325.702 -877.183 -2058 33 39 40
-321.428 -877.413 -2059 36 40 39
-316.999 -877.219 -2059 36 40 39
-312.725 -877.454 -2060 36 40 39
-308 -876.414 -2058 37 41 40
-303.287 -875.377 -2056 36 40 39
-298.73 -874.769 -2055 35 39 38
-293.894 -873.312 -2052 35 39 38
-289.356 -872.71 -2051 35 39 38
-284.824 -872.111 -2050 34 38 37
-280.3 -871.514 -2049 34 38 37
-275.378 -869.645 -2045 32 36 35
-270.608 -868.204 -2042 32 34 34
-265.724 -866.341 -2038 31 34 33
-260.474 -863.207 -2031 34 36 36
-254.121 -856.252 -2015 36 37 37
-248.335 -851.001 -2003 36 39 39
-242.846 -846.605 -1993 35 39 38
-237.162 -841.363 -1981 38 40 40
-232.59 -839.947 -1978 40 42 42
-227.802 -837.685 -1973 40 42 42
-223.604 -837.549 -1973 41 43 43
-219.186 -836.567 -1971 40 42 42
-214.996 -836.436 -1971 40 42 42
-210.915 -836.732 -1972 42 44 44
-206.832 -837.03 -1973 43 45 45
-202.746 -837.331 -1974 43 45 45
-198.558 -837.21 -1974 43 45 45
-194.666 -838.364 -1977 42 46 45
-190.86 -839.945 -1981 41 45 44
-187.039 -841.527 -1985 40 42 42
-183.295 -843.535 -1990 40 42 42
-179.711 -846.393 -1997 40 42 42
-176.099 -849.253 -2004 37 41 40
-171.944 -849.572 -2005 36 40 39
-168.205 -852.012 -2011 35 39 38
-164.197 -853.183 -2014 36 40 39
-160.258 -854.78 -2018 36 40 39
-156.613 -858.073 -2026 35 39 38
-153.311 -863.486 -2039 33 37 36
-149.516 -866.359 -2046 29 32 31
-145.765 -869.658 -2054 19 19 19
-141.982 -872.959 -2062 18 18 18
-137.631 -872.875 -2062 20 20 20
-133.089 -871.524 -2059 22 22 22
-128.622 -870.599 -2057 26 26 26
-123.803 -867.137 -2049 36 36 36
-118.843 -862.409 -2038 41 41 41
-114.1 -858.954 -2030 42 44 44
-109.499 -856.349 -2024 42 44 43
-104.977 -854.169 -2019 42 45 40
-100.377 -851.146 -2012 43 46 41
-96.1892 -851.51 -2013 46 49 45
-91.907 -851.031 -2012 46 49 46
-87.6735 -850.977 -2012 46 49 46
-83.3578 -850.08 -2010 44 47 44
-79.1692 -850.455 -2011 42 44 44
-74.8655 -849.563 -2009 40 42 42
-70.5357 -848.251 -2006 39 41 41
-66.3844 -849.055 -2008 38 40 40
-62.1014 -848.171 -2006 36 38 38
-57.8563 -847.713 -2005 38 40 40
-53.5357 -845.988 -2001 37 39 39
-49.3309 -845.958 -2001 38 40 40
-45.059 -844.661 -1998 41 43 43
-40.8409 -844.213 -1997 38 42 39
-36.664 -844.612 -1998 37 40 37
-32.5322 -846.282 -2002 37 40 37
-28.3271 -846.264 -2002 39 43 40
-24.1465 -847.094 -2004 40 43 40
-19.9775 -848.772 -2008 37 40 37
-15.8075 -851.297 -2014 37 40 37
-11.6068 -853.402 -2019 37 40 37
-7.42535 -860.16 -2035 37 40 37
-3.16595 -863.961 -2044 36 39 36
1.13067 -867.342 -2052 35 38 35
5.45296 -869.457 -2057 35 38 35
9.80129 -871.998 -2063 35 38 35
14.1404 -872.428 -2064 35 38 35
18.4659 -872.015 -2063 37 40 37
22.8207 -872.873 -2065 38 41 38
27.2102 -874.579 -2069 39 42 39
31.6169 -876.287 -2073 39 42 39
35.9539 -875.885 -2072 41 43 43
40.4037 -878.021 -2077 42 44 42
44.8102 -878.892 -2079 40 43 40
49.202 -879.343 -2080 41 44 41
53.7269 -881.911 -2086 43 46 43
58.055 -881.099 -2084 41 44 41
62.4649 -881.558 -2085 43 46 43
66.9117 -882.442 -2087 41 44 41
71.6407 -886.712 -2097 50 53 50
-365.162 -892.778 -2079 71 68 73
-358.577 -887.404 -2067 56 56 59
-353.418 -885.468 -2063 46 48 50
-348.617 -884.395 -2061 41 43 45
-343.328 -882.038 -2056 42 45 47
-338.887 -881.829 -2056 41 45 46
-334.287 -881.194 -2055 39 45 46
-330.015 -881.42 -2056 38 44 45
-325.901 -882.077 -2058 34 40 41
-321.624 -882.308 -2059 36 40 39
-316.884 -881.256 -2057 35 39 38
-312.308 -880.635 -2056 35 39 38
-308.038 -880.874 -2057 37 41 40
-303.176 -879.403 -2054 36 40 39
-298.475 -878.363 -2052 36 40 39
-293.929 -877.755 -2051 35 39 38
-289.39 -877.149 -2050 35 39 38
-284.858 -876.547 -2049 35 39 38
-280.333 -875.947 -2048 34 38 37
-275.68 -874.922 -2046 32 35 35
-270.772 -873.046 -2042 32 34 34
-266.015 -871.6 -2039 29 33 32
-260.503 -867.593 -2030 32 35 34
-254.149 -860.599 -2014 34 36 36
-248.609 -856.173 -2004 35 39 38
-243.237 -852.179 -1995 35 39 38
-237.665 -847.335 -1984 37 39 39
-232.849 -845.057 -1979 39 41 41
-228.633 -844.917 -1979 41 43 43
-223.966 -843.072 -1975 41 43 43
-219.875 -843.364 -1976 41 43 43
-215.562 -842.805 -1975 41 43 43
-211.15 -841.823 -1973 39 41 41
-207.272 -842.976 -1976 41 43 43
-203.074 -842.852 -1976 45 47 47
-199.08 -843.583 -1978 45 47 47
-194.882 -843.463 -1978 44 46 46
-191.072 -845.052 -1982 43 46 45
-187.058 -845.791 -1984 41 43 43
-183.497 -848.663 -1991 40 42 42
-179.729 -850.683 -1996 40 42 42
-176.029 -853.133 -2002 38 42 41
-172.219 -855.158 -2007 37 41 40
-168.306 -856.76 -2011 37 41 40
-164.541 -859.215 -2017 36 40 39
-160.514 -860.395 -2020 36 40 39
-156.707 -862.855 -2026 36 40 39
-153.027 -866.168 -2034 34 38 37
-149.899 -872.889 -2050 29 31 31
-146.137 -876.206 -2058 17 17 17
-142.136 -878.248 -2063 17 17 17
-137.915 -879.015 -2065 19 19 19
-133.233 -876.805 -2060 23 23 23
-128.512 -874.172 -2054 25 25 25
-123.817 -871.543 -2048 33 33 33
-119.031 -868.065 -2040 39 40 40
-114.112 -863.314 -2029 42 43 43
-109.619 -861.545 -2025 42 43 42
-105.092 -859.353 -2020 43 45 40
-100.686 -858.015 -2017 42 45 41
-96.2469 -856.254 -2013 44 47 44
-91.8708 -854.921 -2010 45 48 45
-87.6825 -855.293 -2011 44 47 44
-83.4077 -854.816 -2010 43 46 44
-79.2168 -855.192 -2011 43 45 45
-74.9477 -854.72 -2010 42 44 44
-70.6132 -853.401 -2007 41 43 43
-66.3912 -853.36 -2007 39 41 41
-62.1387 -852.896 -2006 39 41 41
-57.9487 -853.285 -2007 38 40 40
-53.6481 -851.976 -2004 38 40 40
-49.4346 -851.945 -2004 37 39 39
-45.1085 -849.791 -1999 39 41 41
-40.9063 -849.765 -1999 38 42 39
-36.7227 -850.167 -2000 38 42 39
-32.5841 -851.846 -2004 36 40 37
-28.2875 -849.278 -1998 38 42 39
-24.1608 -851.812 -2004 39 42 39
-19.9993 -853.924 -2009 36 39 36
-15.8091 -855.614 -2013 37 40 37
-11.6196 -858.581 -2020 38 41 38
-7.42251 -864.101 -2033 38 41 38
-3.16465 -867.923 -2042 38 41 38
1.1299 -870.897 -2049 37 40 37
5.44858 -873.025 -2054 35 38 35
