ply
format ascii 1.0
comment Created by Open3D
element vertex 1336
property double x
property double y
property double z
property uchar red
property uchar green
property uchar blue
end_header
-138.247 -70.9294 -1946 209 203 142
-134.436 -70.9592 -1947 202 197 136
-130.487 -70.9161 -1946 198 194 132
-126.608 -70.9099 -1946 201 194 133
-122.73 -70.9039 -1946 203 195 135
-118.915 -70.9344 -1947 204 195 135
-115.037 -70.9288 -1947 199 189 132
-111.274 -70.9959 -1949 194 183 126
-107.504 -71.0635 -1951 196 180 127
-103.462 -70.9491 -1948 196 179 128
-99.7388 -71.0534 -1951 199 182 133
-95.8572 -71.0487 -1951 204 191 141
-92.118 -71.1533 -1954 209 197 147
-88.2772 -71.1854 -1955 210 203 149
-84.6058 -71.3632 -1960 214 207 157
-80.8328 -71.4685 -1963 217 210 163
-77.0878 -71.6102 -1967 217 212 165
-73.253 -71.6792 -1969 216 211 164
-69.3757 -71.7121 -1970 213 206 159
-65.7276 -72 -1978 212 204 158
-62.0795 -72.3245 -1987 215 205 161
-58.396 -72.6492 -1996 217 207 164
-54.5955 -72.8648 -2002 207 198 155
-51.0244 -73.4446 -2018 186 180 135
-253.344 -76.8545 -1992 209 213 189
-247.324 -76.2243 -1976 216 218 182
-242.726 -76.0185 -1971 219 220 180
-238.392 -75.8904 -1968 218 218 179
-234.31 -75.8396 -1967 215 215 172
-229.882 -75.6733 -1963 213 213 165
-226.048 -75.7 -1964 212 210 154
-221.76 -75.5728 -1961 210 208 150
-217.708 -75.5228 -1960 207 204 152
-213.552 -75.4348 -1958 205 202 148
-209.513 -75.3852 -1957 203 200 146
-205.06 -75.1819 -1952 203 200 145
-201.04 -75.1328 -1951 203 200 145
-196.824 -75.0071 -1948 202 198 143
-192.721 -74.9199 -1946 198 195 141
-188.919 -74.9485 -1947 197 194 141
-185.114 -74.9774 -1948 196 193 140
-181.213 -74.9679 -1948 195 192 138
-177.405 -74.9972 -1949 194 191 134
-173.505 -74.988 -1949 194 192 134
-169.259 -74.8254 -1945 197 195 138
-165.2 -74.7397 -1943 201 200 142
-161.317 -74.7313 -1943 204 203 145
-157.434 -74.7232 -1943 206 204 147
-153.553 -74.715 -1943 205 203 147
-149.751 -74.7457 -1944 201 198 143
-146.02 -74.8151 -1946 203 198 139
-142.137 -74.8075 -1946 211 205 146
-138.254 -74.8003 -1946 214 208 149
-134.442 -74.8318 -1947 208 203 145
-130.493 -74.7866 -1946 200 195 137
-126.614 -74.7798 -1946 201 193 134
-122.736 -74.7734 -1946 203 194 136
-118.92 -74.8056 -1947 206 197 138
-115.101 -74.8381 -1948 204 195 138
-111.337 -74.9091 -1950 198 188 132
-107.51 -74.9417 -1951 196 182 129
-103.626 -74.9363 -1951 196 180 130
-99.8971 -75.0463 -1954 201 181 134
-96.0586 -75.0797 -1955 202 188 138
-92.2168 -75.1133 -1956 207 194 143
-88.4171 -75.1855 -1958 210 201 149
-84.7396 -75.373 -1963 215 206 155
-80.8781 -75.4072 -1964 219 210 161
-77.0916 -75.5183 -1967 218 212 165
-73.3311 -75.668 -1971 218 212 165
-69.5201 -75.7795 -1974 215 208 161
-65.7641 -75.9678 -1979 213 204 158
-62.0513 -76.2332 -1986 214 204 159
-58.4282 -76.6523 -1997 217 207 165
-54.7074 -76.9949 -2006 207 199 156
-51.1028 -77.5679 -2021 186 182 138
-47.6489 -78.4865 -2045 184 180 141
-253.231 -80.7917 -1991 200 205 179
-247.713 -80.2912 -1979 209 211 173
-243.231 -80.1156 -1975 213 214 173
-238.768 -79.9402 -1971 215 215 173
-234.56 -79.846 -1969 214 214 170
-230.246 -79.7117 -1966 211 211 164
-226.291 -79.6992 -1966 210 208 153
-221.998 -79.5654 -1963 208 206 149
-217.941 -79.5129 -1962 208 205 152
-213.672 -79.3797 -1959 207 204 150
-209.631 -79.3276 -1958 204 201 147
-205.176 -79.1137 -1953 204 201 146
-201.257 -79.1026 -1953 205 202 147
-196.936 -78.9297 -1949 205 202 148
-193.128 -78.9597 -1950 206 203 150
-189.026 -78.8683 -1948 206 203 151
-185.218 -78.8985 -1949 205 202 149
-181.409 -78.9291 -1950 206 203 149
-177.596 -78.9598 -1951 206 204 146
-173.426 -78.8289 -1948 206 204 146
-169.442 -78.7791 -1947 206 204 145
-165.379 -78.6892 -1945 208 207 149
-161.574 -78.7206 -1946 207 206 148
-157.524 -78.6311 -1944 207 205 147
-153.798 -78.7037 -1946 205 202 146
-149.758 -78.6144 -1944 200 197 142
-146.028 -78.6873 -1946 200 195 136
-142.144 -78.6795 -1946 205 199 140
-138.191 -78.6314 -1945 215 209 149
-134.242 -78.5836 -1944 217 212 153
-130.366 -78.5765 -1944 207 202 144
-126.556 -78.61 -1945 201 193 136
-122.68 -78.6031 -1945 201 192 135
-118.927 -78.6774 -1947 205 196 139
-115.108 -78.7115 -1948 207 198 143
-111.285 -78.7458 -1949 205 196 141
-107.57 -78.8612 -1952 201 189 136
-103.738 -78.8959 -1953 199 184 133
-100.005 -79.0114 -1956 202 184 135
-96.1128 -79.0061 -1956 203 189 138
-92.269 -79.0414 -1957 206 193 142
-88.512 -79.1577 -1960 210 201 149
-84.744 -79.2742 -1963 214 205 154
-80.9236 -79.3505 -1965 219 210 160
-77.0957 -79.427 -1967 218 212 165
-73.2977 -79.5441 -1970 219 213 166
-69.5942 -79.7825 -1976 216 209 162
-65.834 -79.9807 -1981 213 204 158
-62.2733 -80.4615 -1993 212 202 156
-58.4899 -80.7005 -1999 216 206 165
-54.9012 -81.2626 -2013 207 199 157
-51.1815 -81.7038 -2024 186 182 139
-47.6048 -82.4681 -2043 183 180 141
-254.008 -85.0239 -1997 195 200 175
-248.228 -84.4133 -1983 205 207 170
-243.245 -84.0588 -1975 207 208 168
-238.902 -83.9174 -1972 210 210 168
-234.574 -83.7762 -1969 211 211 168
-230.376 -83.6778 -1967 209 209 163
-226.188 -83.5797 -1965 209 208 154
-222.01 -83.4816 -1963 208 207 151
-218.065 -83.469 -1963 208 205 152
-213.793 -83.3293 -1960 207 204 151
-210.071 -83.4022 -1962 207 204 151
-205.607 -83.1777 -1957 207 204 149
-201.577 -83.1236 -1956 209 206 151
-197.149 -82.8996 -1951 211 208 155
-193.237 -82.8884 -1951 212 209 157
-189.23 -82.8352 -1950 212 209 158
-185.324 -82.8244 -1950 211 208 155
-181.419 -82.8139 -1950 212 209 155
-177.515 -82.8038 -1950 211 209 151
-173.524 -82.7512 -1949 209 207 148
-169.538 -82.6991 -1948 205 203 143
-165.643 -82.6894 -1948 204 203 145
-161.749 -82.6802 -1948 205 204 146
-157.775 -82.6285 -1947 206 204 146
-153.886 -82.6197 -1947 206 203 147
-149.921 -82.5687 -1946 202 199 144
-146.036 -82.5602 -1946 197 192 133
-142.225 -82.5945 -1947 196 190 131
-138.269 -82.5441 -1946 209 203 142
-134.25 -82.4514 -1944 222 217 157
-130.507 -82.5287 -1946 217 212 153
-126.628 -82.5215 -1946 210 204 147
-122.813 -82.5569 -1947 205 198 141
-119.056 -82.6346 -1949 204 195 139
-115.232 -82.6704 -1950 206 197 143
-111.406 -82.7064 -1951 209 200 146
-107.631 -82.785 -1953 208 196 143
-103.85 -82.8638 -1955 205 190 139
-100.01 -82.9004 -1956 204 187 137
-96.2164 -82.9794 -1958 205 189 139
-92.4155 -83.0588 -1960 207 192 142
-88.5621 -83.0961 -1961 209 200 148
-84.7055 -83.1336 -1962 214 205 154
-80.8868 -83.2136 -1964 219 210 160
-77.0215 -83.2516 -1965 217 211 164
-73.3018 -83.4591 -1970 219 213 166
-69.5276 -83.6246 -1974 219 212 165
-65.8377 -83.9173 -1981 214 205 159
-62.2768 -84.422 -1993 210 200 154
-58.5808 -84.7998 -2002 215 205 165
-54.9042 -85.2625 -2013 208 200 159
-51.2855 -85.8946 -2028 186 182 139
-47.7472 -86.7812 -2049 183 180 141
-248.868 -88.5968 -1988 200 202 166
-243.506 -88.092 -1977 201 202 163
-239.401 -88.0328 -1976 204 205 164
-234.826 -87.7959 -1971 207 208 166
-230.507 -87.6484 -1968 207 208 163
-226.317 -87.5456 -1966 209 208 155
-222.25 -87.4877 -1965 209 208 153
-217.966 -87.3409 -1962 207 204 151
-213.915 -87.2835 -1961 206 203 150
-210.084 -87.3153 -1962 206 203 150
-205.514 -87.0359 -1956 208 205 151
-201.589 -87.0236 -1956 210 207 152
-197.262 -86.8337 -1952 211 208 155
-193.447 -86.8665 -1953 213 210 158
-189.435 -86.8107 -1952 213 210 159
-185.525 -86.7994 -1952 214 211 158
-181.429 -86.6995 -1950 215 212 158
-177.526 -86.6889 -1950 213 211 153
-173.356 -86.545 -1947 210 208 149
-169.374 -86.4904 -1946 208 206 146
-165.568 -86.5248 -1947 204 203 145
-161.842 -86.6037 -1949 205 204 146
-157.866 -86.5499 -1948 205 203 145
-153.974 -86.5407 -1948 205 202 146
-150.007 -86.487 -1947 203 200 145
-146.044 -86.4339 -1946 199 194 135
-142.16 -86.4252 -1946 194 188 129
-138.206 -86.3725 -1945 203 196 134
-134.258 -86.32 -1944 216 210 152
-130.381 -86.312 -1944 222 217 160
-126.635 -86.3932 -1946 220 214 157
-122.82 -86.4302 -1947 214 207 150
-119.062 -86.5119 -1949 207 198 140
-115.239 -86.5491 -1950 205 196 142
-111.412 -86.5868 -1951 208 199 145
-107.638 -86.6691 -1953 207 198 142
-103.803 -86.7072 -1954 205 193 139
-100.067 -86.8343 -1957 205 189 137
-96.2221 -86.8728 -1958 205 188 138
-92.3737 -86.9114 -1959 207 191 141
-88.477 -86.9061 -1959 208 199 146
-84.7537 -87.0784 -1963 213 204 153
-80.9327 -87.1622 -1965 218 209 159
-77.1829 -87.335 -1969 216 210 163
-73.4178 -87.5079 -1973 219 213 166
-69.6372 -87.6811 -1977 220 213 166
-65.9412 -87.9875 -1984 216 208 161
-62.3741 -88.5159 -1996 210 202 155
-58.6428 -88.8671 -2004 214 204 164
-55.0438 -89.4846 -2018 208 200 159
-51.2631 -89.8805 -2027 188 184 142
-249.259 -92.7079 -1991 192 194 161
-243.521 -92.0405 -1977 195 197 160
-239.537 -92.0255 -1977 199 200 160
-234.721 -91.6849 -1970 202 203 161
-230.638 -91.6236 -1969 205 206 162
-226.561 -91.5628 -1968 208 207 155
-222.376 -91.4557 -1966 207 205 152
-218.091 -91.3024 -1963 206 203 150
-214.146 -91.2889 -1963 207 204 151
-210.204 -91.2756 -1963 208 205 152
-205.842 -91.0766 -1959 210 207 153
-201.602 -90.9244 -1956 212 209 154
-197.476 -90.819 -1954 214 211 158
-193.756 -90.8996 -1956 214 211 159
-189.738 -90.8411 -1955 214 211 159
-185.726 -90.7831 -1954 215 212 159
-181.72 -90.7251 -1953 215 212 158
-177.628 -90.6209 -1951 213 210 154
-173.456 -90.4708 -1948 210 208 149
-169.472 -90.4135 -1947 208 206 147
-165.748 -90.4961 -1949 208 207 149
-161.852 -90.4858 -1949 209 208 150
-158.118 -90.5688 -1951 209 207 149
-154.142 -90.5125 -1950 209 206 150
-150.17 -90.4567 -1949 207 204 149
-146.053 -90.3081 -1946 204 199 140
-142.169 -90.2992 -1946 201 195 135
-138.215 -90.2439 -1945 197 190 128
-134.404 -90.2819 -1946 205 200 142
-130.456 -90.2274 -1945 221 216 159
-126.708 -90.312 -1947 225 220 163
-122.89 -90.3507 -1948 223 216 158
-119.131 -90.436 -1950 218 209 151
-115.364 -90.5215 -1952 211 202 147
-111.647 -90.6533 -1955 207 198 144
-107.699 -90.6002 -1954 204 195 139
-103.915 -90.6864 -1956 203 192 137
-100.175 -90.8192 -1959 203 189 136
-96.277 -90.8131 -1959 203 189 138
-92.4264 -90.8536 -1960 205 192 141
-88.6178 -90.9408 -1962 206 197 143
-84.7588 -90.9815 -1963 212 204 152
-80.9788 -91.1154 -1966 217 208 158
-77.1875 -91.2496 -1969 214 208 161
-73.4966 -91.523 -1975 217 211 164
-69.7825 -91.7966 -1981 220 214 167
-66.0117 -92.0241 -1986 219 212 165
-62.3779 -92.4835 -1996 212 205 158
-58.7634 -93.0357 -2008 213 203 163
-55.1289 -93.6345 -2021 208 200 160
-51.3421 -94.0482 -2030 188 184 144
-249.901 -96.9289 -1996 184 187 156
-244.029 -96.1842 -1981 190 193 159
-239.673 -96.0226 -1978 195 196 156
-234.855 -95.6674 -1971 197 198 157
-230.653 -95.5553 -1969 202 203 161
-226.575 -95.4916 -1968 207 205 155
-222.504 -95.4285 -1967 205 203 151
-218.216 -95.2686 -1964 205 202 149
-214.269 -95.2545 -1964 208 205 152
-210.217 -95.1922 -1963 209 206 153
-205.855 -94.9847 -1959 212 209 155
-201.717 -94.8744 -1957 215 212 158
-197.488 -94.7159 -1954 216 213 160
-193.471 -94.6547 -1953 216 213 160
-189.556 -94.6422 -1953 218 215 162
-185.548 -94.5814 -1952 221 218 165
-181.545 -94.5212 -1951 218 215 161
-177.275 -94.3157 -1947 213 210 155
-173.289 -94.2557 -1946 208 206 149
-169.395 -94.2448 -1946 206 204 146
-165.674 -94.3306 -1948 204 203 145
-161.862 -94.3685 -1949 205 204 146
-158.21 -94.5033 -1952 209 207 149
-154.31 -94.4932 -1952 211 209 153
-150.333 -94.4348 -1951 208 205 150
-146.213 -94.28 -1948 208 203 144
-142.397 -94.3189 -1949 210 204 145
-138.295 -94.1647 -1946 197 190 131
-134.412 -94.1557 -1946 197 191 134
-130.665 -94.244 -1948 217 212 155
-126.781 -94.2357 -1948 226 220 163
-123.024 -94.3244 -1950 226 219 162
-119.26 -94.4131 -1952 224 215 157
-115.49 -94.5023 -1954 221 212 157
-111.597 -94.495 -1954 209 200 146
-107.761 -94.5363 -1955 202 193 137
-103.922 -94.5776 -1956 204 193 139
-100.131 -94.6677 -1958 204 191 138
-96.234 -94.6614 -1958 203 191 140
-92.4324 -94.752 -1960 204 192 141
-88.6234 -94.8428 -1962 203 196 142
-84.8505 -94.9823 -1965 211 202 151
-81.0664 -95.1219 -1968 216 207 157
-77.31 -95.3099 -1972 213 207 159
-73.6501 -95.6434 -1979 215 209 162
-69.7869 -95.7354 -1981 221 215 168
-66.0158 -95.9727 -1986 221 215 168
-62.3193 -96.3551 -1994 213 206 159
-58.7378 -96.9794 -2007 211 203 163
-55.0506 -97.5073 -2018 207 201 161
-51.3453 -98.0837 -2030 188 185 147
-250.669 -101.221 -2002 178 182 153
-244.168 -100.193 -1982 184 187 155
-239.568 -99.9237 -1977 189 191 151
-234.99 -99.655 -1972 192 194 154
-230.785 -99.5379 -1970 196 199 157
-226.705 -99.4719 -1969 203 202 154
-222.745 -99.4567 -1969 204 202 153
-218.453 -99.29 -1966 206 203 150
-214.501 -99.2753 -1966 210 207 154
-210.338 -99.16 -1964 210 207 155
-206.079 -98.9944 -1961 212 209 156
-201.731 -98.7786 -1957 216 213 160
-197.704 -98.7146 -1956 220 217 164
-193.682 -98.6508 -1955 223 220 167
-189.763 -98.6378 -1955 225 222 169
-185.56 -98.4736 -1952 225 222 170
-181.557 -98.4109 -1951 222 219 167
-177.286 -98.197 -1947 216 213 158
-173.389 -98.185 -1947 211 208 151
-169.32 -98.0727 -1945 207 205 147
-165.77 -98.263 -1949 203 202 144
-161.956 -98.3022 -1950 200 199 141
-158.22 -98.3923 -1952 203 201 143
-154.32 -98.3816 -1952 205 202 146
-150.421 -98.3714 -1952 205 202 147
-146.222 -98.1597 -1948 207 202 143
-142.334 -98.15 -1948 212 207 148
-138.446 -98.1404 -1948 205 199 140
-134.629 -98.1816 -1949 194 188 130
-130.808 -98.2231 -1950 204 199 141
-127.05 -98.315 -1952 221 215 157
-123.159 -98.3066 -1952 225 218 160
-119.513 -98.4999 -1956 226 219 160
-115.615 -98.4918 -1956 224 217 161
-111.833 -98.5849 -1958 215 207 152
-107.879 -98.5272 -1957 210 202 146
-104.035 -98.5704 -1958 207 197 142
-100.137 -98.5633 -1958 208 195 142
-96.3386 -98.6574 -1960 204 193 140
-92.4856 -98.7015 -1961 202 193 140
-88.6294 -98.7457 -1962 203 196 142
-84.8561 -98.8909 -1965 208 201 149
-81.0305 -98.986 -1967 214 206 156
-77.3151 -99.2323 -1972 216 210 162
-73.5806 -99.4786 -1977 213 207 159
-69.8267 -99.7253 -1982 215 209 162
-66.0535 -99.9724 -1987 220 213 166
-62.3546 -100.371 -1995 211 204 157
-58.8002 -101.071 -2009 210 202 162
-55.136 -101.671 -2021 207 201 162
-51.4246 -102.271 -2033 189 186 150
-245.171 -104.574 -1990 178 181 152
-239.948 -104.032 -1980 183 187 146
-235.244 -103.7 -1974 187 191 150
-230.918 -103.526 -1971 191 195 155
-226.721 -103.405 -1969 199 198 152
-222.647 -103.336 -1968 202 200 152
-218.245 -103.11 -1964 207 204 151
-214.298 -103.095 -1964 211 208 156
-210.245 -103.028 -1963 213 210 159
-206.093 -102.908 -1961 215 212 159
-201.848 -102.736 -1958 219 216 163
-197.919 -102.722 -1958 223 220 167
-193.695 -102.551 -1955 226 223 171
-189.582 -102.432 -1953 228 225 172
-185.288 -102.209 -1949 228 225 173
-181.291 -102.144 -1948 224 221 169
-177.026 -101.922 -1944 218 215 160
-173.223 -101.962 -1945 211 209 152
-169.244 -101.897 -1944 206 204 146
-165.696 -102.095 -1948 204 203 145
-161.967 -102.188 -1950 201 200 142
-158.231 -102.282 -1952 202 200 142
-154.251 -102.219 -1951 203 200 144
-150.431 -102.26 -1952 204 201 146
-146.458 -102.197 -1951 205 200 141
-142.563 -102.187 -1951 206 201 142
-138.669 -102.177 -1951 204 199 140
-134.776 -102.168 -1951 192 187 128
-130.884 -102.158 -1951 192 187 128
-127.124 -102.254 -1953 211 205 146
-123.23 -102.245 -1953 224 218 159
-119.46 -102.341 -1955 225 219 161
-115.623 -102.386 -1956 224 218 161
-111.784 -102.43 -1957 220 214 157
-107.831 -102.37 -1956 216 210 153
-103.989 -102.415 -1957 211 202 147
-100.144 -102.46 -1958 209 196 143
-96.2961 -102.505 -1959 206 197 143
-92.4919 -102.603 -1961 207 198 144
-88.6806 -102.702 -1963 206 199 144
-84.9051 -102.853 -1966 209 202 149
-81.242 -103.161 -1972 213 206 156
-77.3989 -103.26 -1974 216 210 162
-73.66 -103.516 -1979 214 208 160
-69.9372 -103.825 -1985 211 205 157
-66.1245 -104.029 -1989 218 211 163
-62.359 -104.338 -1995 215 208 160
-58.892 -105.223 -2012 212 204 164
-55.3035 -106.004 -2027 208 201 163
-51.5546 -106.575 -2038 190 187 152
-245.558 -108.716 -1993 176 178 152
-240.693 -108.316 -1986 182 186 147
-235.857 -107.917 -1979 186 190 150
-231.521 -107.736 -1976 189 193 153
-227.313 -107.61 -1974 196 196 151
-223.116 -107.485 -1972 201 200 153
-218.706 -107.25 -1968 208 205 152
-214.641 -107.18 -1967 212 209 157
-210.261 -106.947 -1963 214 211 160
-206.213 -106.877 -1962 217 214 161
-202.069 -106.753 -1960 220 217 164
-198.136 -106.738 -1960 224 221 168
-193.808 -106.506 -1956 228 225 172
-189.887 -106.492 -1956 229 226 174
-185.586 -106.26 -1952 229 226 175
-181.397 -106.084 -1949 225 222 170
-177.402 -106.016 -1948 217 214 159
-173.503 -106.003 -1948 211 209 152
-169.779 -106.1 -1950 206 204 146
-165.963 -106.142 -1951 205 204 146
-162.228 -106.239 -1953 203 202 144
-158.404 -106.281 -1954 203 201 143
-154.5 -106.27 -1954 203 201 145
-150.442 -106.15 -1952 204 201 146
-146.618 -106.193 -1953 202 197 138
-142.646 -106.129 -1952 197 193 134
-138.75 -106.118 -1952 198 195 135
-135.062 -106.271 -1955 193 189 129
-131.095 -106.207 -1954 185 180 121
-127.328 -106.307 -1956 200 192 132
-123.428 -106.298 -1956 218 210 151
-119.652 -106.397 -1958 225 219 162
-115.691 -106.334 -1957 226 221 164
-112.02 -106.543 -1961 225 220 163
-107.949 -106.373 -1958 224 218 161
-104.156 -106.473 -1960 218 210 155
-100.305 -106.52 -1961 212 200 147
-96.4996 -106.622 -1963 207 198 144
-92.5929 -106.615 -1963 208 200 145
-88.8224 -106.771 -1966 207 200 144
-84.9976 -106.873 -1968 210 203 149
-81.0418 -106.813 -1967 213 206 155
-77.2868 -107.025 -1971 214 208 160
-73.5536 -107.291 -1976 214 208 160
-69.8717 -107.665 -1983 210 204 156
-65.8965 -107.606 -1982 214 207 160
-62.426 -108.416 -1997 219 212 165
-58.8669 -109.171 -2011 216 208 169
-55.3074 -110.036 -2027 208 201 164
-51.6848 -110.9 -2043 188 185 151
-246.562 -113.153 -2001 180 182 159
-241.074 -112.456 -1989 185 189 150
-236.709 -112.268 -1986 187 191 152
-231.89 -111.854 -1979 188 192 153
-227.561 -111.668 -1976 195 195 151
-223.132 -111.424 -1972 199 199 153
-218.944 -111.295 -1970 207 204 151
-214.766 -111.165 -1968 213 210 158
-210.383 -110.923 -1964 215 212 161
-206.229 -110.794 -1962 218 215 163
-202.084 -110.666 -1960 220 217 165
-198.05 -110.594 -1959 223 220 167
-193.823 -110.41 -1956 226 223 171
-189.804 -110.339 -1955 225 222 171
-185.6 -110.155 -1952 225 222 172
-181.317 -109.916 -1948 224 221 170
-177.325 -109.846 -1947 218 215 160
-173.694 -110.002 -1950 211 209 152
-169.966 -110.101 -1952 207 205 147
-166.146 -110.145 -1953 203 202 144
-162.323 -110.189 -1954 203 202 144
-158.416 -110.177 -1954 202 200 142
-154.432 -110.108 -1953 202 199 143
-150.53 -110.097 -1953 204 201 146
-146.629 -110.086 -1953 203 198 139
-142.73 -110.075 -1953 198 194 134
-138.973 -110.177 -1955 198 195 135
-135.21 -110.279 -1957 196 191 132
-131.239 -110.213 -1956 186 181 122
-127.403 -110.259 -1957 189 182 122
-123.501 -110.25 -1957 204 197 138
-119.783 -110.41 -1960 220 214 157
-115.64 -110.176 -1956 225 219 162
-111.914 -110.336 -1959 225 220 163
-107.957 -110.271 -1958 223 219 161
-104.217 -110.432 -1961 221 214 158
-100.312 -110.424 -1961 215 204 150
-96.556 -110.586 -1964 207 198 144
-92.6469 -110.579 -1964 207 199 144
-88.9193 -110.797 -1968 208 202 145
-85.0471 -110.847 -1969 210 203 149
-81.1715 -110.897 -1970 213 206 154
-77.4493 -111.172 -1975 214 207 159
-73.6708 -111.392 -1979 216 209 161
-69.9121 -111.668 -1984 210 204 156
-66.0011 -111.719 -1985 210 204 156
-62.3993 -112.333 -1996 219 212 165
-58.9299 -113.285 -2013 219 211 174
-55.3935 -114.238 -2030 208 202 165
-51.8658 -115.359 -2050 187 184 151
-247.321 -117.506 -2007 183 185 164
-241.457 -116.608 -1992 187 191 152
-236.728 -116.238 -1986 187 192 153
-232.259 -115.986 -1982 187 192 153
-228.039 -115.85 -1980 193 194 151
-223.715 -115.657 -1977 197 197 152
-219.184 -115.347 -1972 207 204 151
-215.11 -115.272 -1971 214 211 159
-210.721 -115.021 -1967 219 216 165
-206.455 -114.829 -1964 223 220 169
-202.306 -114.696 -1962 224 221 170
-198.267 -114.622 -1961 224 221 168
-193.937 -114.373 -1957 225 222 170
-190.013 -114.358 -1957 224 221 170
-185.9 -114.226 -1955 224 221 172
-181.703 -114.036 -1952 224 221 172
-177.703 -113.964 -1951 219 216 163
-173.796 -113.95 -1951 211 209 153
-169.979 -113.995 -1952 207 205 147
-166.158 -114.04 -1953 205 204 146
-162.501 -114.202 -1956 203 202 144
-158.51 -114.131 -1955 200 198 140
-154.602 -114.119 -1955 200 197 141
-150.542 -113.99 -1953 203 200 145
-146.641 -113.979 -1953 209 204 145
-142.814 -114.026 -1954 207 202 143
-138.984 -114.073 -1955 203 198 139
-135.221 -114.179 -1957 199 194 135
-131.316 -114.169 -1957 192 187 128
-127.543 -114.275 -1959 189 183 124
-123.51 -114.149 -1957 193 187 129
-119.853 -114.373 -1961 208 202 145
-115.767 -114.188 -1958 222 217 160
-111.923 -114.238 -1959 228 223 166
-107.855 -114.054 -1956 223 221 161
-104.172 -114.279 -1960 222 217 159
-100.269 -114.271 -1960 218 209 153
-96.6125 -114.555 -1965 211 202 148
-92.7484 -114.606 -1966 210 201 147
-88.9262 -114.715 -1968 207 201 144
-85.1399 -114.883 -1971 209 203 148
-81.2189 -114.877 -1971 214 207 155
-77.4161 -115.046 -1974 215 208 160
-73.6019 -115.215 -1977 218 211 163
-69.988 -115.733 -1986 213 207 159
-66.0394 -115.728 -1986 207 201 154
-62.5291 -116.539 -2000 214 208 161
-58.9344 -117.292 -2013 218 210 174
-55.3431 -118.161 -2028 207 200 165
-51.971 -119.672 -2054 187 184 151
-247.834 -121.763 -2011 183 186 165
-241.597 -120.653 -1993 189 194 155
-236.866 -120.27 -1987 191 196 158
-232.278 -119.948 -1982 189 195 157
-228.172 -119.869 -1981 193 194 152
-223.733 -119.609 -1977 195 195 152
-219.423 -119.409 -1974 204 201 148
-215.236 -119.271 -1972 212 209 157
-210.738 -118.951 -1967 220 217 166
-206.471 -118.752 -1964 225 222 171
-202.528 -118.736 -1964 227 224 173
-198.182 -118.477 -1960 226 223 170
-193.853 -118.22 -1956 228 225 173
-190.028 -118.265 -1957 229 226 175
-186.01 -118.189 -1956 228 225 175
-181.718 -117.932 -1952 228 225 174
-177.717 -117.857 -1951 223 220 167
-173.81 -117.843 -1951 214 211 157
-170.079 -117.95 -1953 208 205 149
-166.172 -117.936 -1953 205 204 146
-162.348 -117.983 -1954 203 202 144
-158.522 -118.031 -1955 200 198 140
-154.456 -117.897 -1953 199 197 141
-150.631 -117.945 -1954 201 198 143
-146.727 -117.933 -1954 210 205 146
-142.971 -118.042 -1956 214 209 150
-139.137 -118.091 -1957 211 206 147
-135.439 -118.261 -1960 203 198 140
-131.528 -118.25 -1960 195 190 132
-127.748 -118.36 -1962 190 184 125
-123.709 -118.229 -1960 189 183 124
-119.863 -118.28 -1961 197 191 133
-115.777 -118.089 -1958 212 206 149
-111.932 -118.14 -1959 228 222 166
-107.864 -117.951 -1956 225 223 163
-104.18 -118.183 -1960 223 219 160
-100.328 -118.235 -1961 221 215 157
-96.6694 -118.529 -1966 216 208 154
-92.803 -118.582 -1967 214 206 152
-89.114 -118.876 -1972 209 203 146
-85.2764 -118.989 -1974 209 203 148
-81.4725 -119.163 -1977 214 207 155
-77.6576 -119.337 -1980 215 208 160
-73.8312 -119.512 -1983 217 210 162
-70.064 -119.808 -1988 216 210 161
-66.2775 -120.103 -1993 206 200 152
-62.5966 -120.641 -2002 208 202 155
-59.0269 -121.479 -2016 214 206 169
-55.4839 -122.499 -2033 204 198 163
-247.978 -125.849 -2012 181 185 166
-241.739 -124.702 -1994 191 197 158
-236.885 -124.244 -1987 197 202 164
-232.414 -123.974 -1983 195 201 164
-228.191 -123.83 -1981 196 197 156
-223.865 -123.624 -1978 194 195 152
-219.553 -123.417 -1975 200 197 144
-215.473 -123.336 -1974 206 202 150
-210.97 -123.006 -1969 214 211 159
-206.594 -122.739 -1965 223 219 168
-202.442 -122.597 -1963 227 224 172
-198.097 -122.33 -1959 229 226 173
-193.77 -122.064 -1955 231 228 176
-189.849 -122.048 -1955 232 229 178
-185.93 -122.032 -1955 230 227 176
-181.919 -121.954 -1954 229 226 175
-178.005 -121.939 -1954 226 223 170
-174.181 -121.987 -1955 218 215 161
-170.268 -121.972 -1955 212 209 154
-166.27 -121.896 -1954 208 206 149
-162.445 -121.944 -1955 206 205 148
-158.535 -121.931 -1955 205 202 145
-154.469 -121.793 -1953 203 200 145
-150.566 -121.78 -1953 201 198 144
-146.589 -121.705 -1952 210 205 145
-142.91 -121.88 -1955 214 209 150
-139.078 -121.931 -1956 214 209 150
-135.381 -122.106 -1959 210 205 148
-131.606 -122.22 -1961 202 197 141
-127.759 -122.271 -1962 194 188 130
-123.846 -122.261 -1962 188 182 123
-119.934 -122.251 -1962 189 183 124
-115.845 -122.054 -1959 198 192 134
-111.827 -121.92 -1957 217 211 154
-107.872 -121.848 -1956 223 220 159
-104.029 -121.902 -1957 226 222 162
-100.183 -121.955 -1958 222 217 159
-96.5298 -122.259 -1963 218 211 157
-92.8577 -122.562 -1968 216 209 155
-89.1214 -122.804 -1972 213 208 151
-85.2401 -122.859 -1973 210 204 150
-81.3557 -122.914 -1974 212 205 153
-77.5854 -123.156 -1978 214 207 159
-73.8373 -123.461 -1983 217 210 162
-70.1049 -123.829 -1989 216 210 160
-66.2829 -124.072 -1993 207 201 152
-62.6018 -124.627 -2002 204 197 150
-58.9146 -125.245 -2012 210 202 165
-55.4612 -126.485 -2032 202 196 161
-248.122 -129.94 -2013 177 181 160
-241.881 -128.757 -1995 188 192 155
-236.906 -128.219 -1987 200 204 166
-232.2 -127.812 -1981 202 204 167
-228.096 -127.727 -1980 203 204 162
-223.771 -127.514 -1977 198 200 156
-219.46 -127.302 -1974 198 196 143
-215.273 -127.154 -1972 200 197 143
-211.202 -127.071 -1971 204 200 146
-206.716 -126.73 -1966 213 208 155
-202.356 -126.455 -1962 225 220 167
-198.013 -126.179 -1958 229 226 176
-193.688 -125.905 -1954 231 228 177
-189.574 -125.759 -1952 234 231 180
-185.661 -125.743 -1952 232 229 178
-181.748 -125.727 -1952 228 225 174
-177.929 -125.776 -1953 226 223 171
-174.018 -125.761 -1953 220 217 164
-170.021 -125.681 -1952 216 213 160
-166.284 -125.796 -1954 215 212 159
-162.292 -125.717 -1953 213 209 156
-158.305 -125.639 -1952 214 209 152
-154.403 -125.625 -1952 211 207 153
-150.502 -125.612 -1952 206 203 150
-146.602 -125.599 -1952 207 202 141
-142.995 -125.844 -1956 209 203 144
-139.161 -125.896 -1957 212 206 148
-135.461 -126.077 -1960 212 206 151
-131.684 -126.195 -1962 207 202 147
-127.77 -126.183 -1962 200 195 139
-123.793 -126.108 -1961 192 186 129
-119.944 -126.162 -1962 187 181 122
-115.914 -126.023 -1960 190 184 121
-111.779 -125.756 -1956 203 198 133
-107.882 -125.747 -1956 218 213 151
-104.091 -125.866 -1958 229 224 165
-100.191 -125.857 -1958 226 221 166
-96.6856 -126.363 -1966 220 214 162
-92.8656 -126.483 -1968 216 210 158
-89.2193 -126.861 -1974 214 208 151
-85.3338 -126.918 -1975 212 204 151
-81.5686 -127.168 -1979 211 203 152
-77.6706 -127.225 -1980 210 203 155
-73.8807 -127.476 -1984 214 207 159
-70.1462 -127.855 -1990 215 209 160
-66.3217 -128.106 -1994 211 203 157
-62.826 -129.064 -2009 203 195 149
-59.3297 -130.151 -2026 207 199 164
-55.7115 -131.11 -2041 202 196 164
-248.514 -134.169 -2016 179 183 162
-242.144 -132.883 -1997 185 188 152
-236.927 -132.196 -1987 200 202 166
-232.455 -131.909 -1983 209 210 172
-228.001 -131.622 -1979 208 210 167
-223.791 -131.469 -1977 205 207 162
-219.48 -131.249 -1974 199 198 146
-215.401 -131.163 -1973 196 194 141
-210.792 -130.746 -1967 197 192 138
-206.63 -130.594 -1965 205 200 146
-202.58 -130.509 -1964 218 213 159
-197.828 -129.96 -1956 225 221 172
-193.506 -129.676 -1952 231 227 177
-189.397 -129.526 -1950 237 234 182
-185.582 -129.576 -1951 236 233 182
-181.671 -129.56 -1951 230 227 176
-177.762 -129.544 -1951 226 223 172
-174.122 -129.727 -1954 222 219 167
-170.123 -129.645 -1953 218 215 162
-166.299 -129.697 -1954 217 214 162
-162.224 -129.549 -1952 215 212 159
-158.319 -129.535 -1952 215 211 154
-154.417 -129.521 -1952 213 210 155
-150.438 -129.441 -1951 208 205 151
-146.539 -129.428 -1951 203 198 137
-142.862 -129.614 -1954 201 195 136
-139.173 -129.8 -1957 206 200 142
-135.335 -129.854 -1958 211 206 149
-131.562 -129.975 -1960 212 207 151
-127.716 -130.03 -1961 206 201 146
-123.804 -130.019 -1961 197 192 136
-119.955 -130.074 -1962 188 182 124
-116.043 -130.064 -1962 184 178 114
-112.018 -129.921 -1960 190 184 119
-108.001 -129.779 -1958 207 201 138
-104.1 -129.769 -1958 225 219 159
-100.251 -129.826 -1959 230 225 168
-96.5464 -130.083 -1963 225 219 168
-92.8737 -130.406 -1968 217 211 160
-89.1367 -130.663 -1972 214 208 151
-85.3412 -130.854 -1975 211 204 150
-81.5758 -131.111 -1979 210 202 151
-77.7558 -131.303 -1982 208 201 152
-73.8873 -131.429 -1984 212 205 157
-70.1876 -131.886 -1991 215 209 161
-66.4607 -132.344 -1998 212 204 159
-62.8627 -133.133 -2010 205 196 152
-59.3055 -134.121 -2025 205 198 165
-55.8257 -135.44 -2045 200 195 164
-248.66 -138.274 -2017 186 190 169
-242.53 -137.086 -2000 184 187 152
-237.187 -136.31 -1989 194 196 160
-232.593 -135.946 -1984 208 209 171
-227.906 -135.514 -1978 212 213 170
-223.698 -135.356 -1976 209 211 166
-219.611 -135.267 -1975 204 205 155
-215.311 -135.041 -1972 196 196 145
-211.026 -134.816 -1969 195 192 139
-206.543 -134.455 -1964 199 195 142
-202.289 -134.23 -1961 207 202 149
-197.644 -133.733 -1954 219 213 163
-193.326 -133.441 -1950 228 224 172
-189.511 -133.492 -1951 237 234 181
-185.599 -133.475 -1951 239 236 185
-181.688 -133.458 -1951 233 230 179
-177.87 -133.509 -1952 227 224 173
-174.227 -133.699 -1955 223 220 168
-170.225 -133.614 -1954 218 215 162
-166.399 -133.667 -1955 217 214 161
-162.321 -133.515 -1953 213 211 157
-158.496 -133.569 -1954 211 209 151
-154.431 -133.418 -1952 209 207 151
-150.451 -133.335 -1951 206 203 148
-146.553 -133.322 -1951 202 197 138
-142.874 -133.514 -1954 202 196 137
-139.114 -133.637 -1956 206 200 141
-135.347 -133.761 -1958 212 206 149
-131.573 -133.886 -1960 215 210 153
-127.727 -133.942 -1961 212 207 152
-123.815 -133.931 -1961 205 199 144
-120.026 -134.056 -1963 196 190 133
-116.112 -134.045 -1963 189 183 121
-112.313 -134.171 -1965 185 179 115
-108.232 -133.956 -1962 193 187 123
-104.482 -134.151 -1965 211 206 144
-100.516 -134.074 -1964 228 223 164
-96.8995 -134.474 -1970 231 225 174
-93.0709 -134.602 -1972 222 216 165
-89.2804 -134.799 -1975 215 210 153
-85.4786 -134.995 -1978 210 204 149
-81.5831 -135.056 -1979 209 202 150
-77.7628 -135.253 -1982 208 201 151
-73.8939 -135.383 -1984 211 204 155
-70.194 -135.854 -1991 215 208 161
-66.6662 -136.735 -2004 214 206 161
-63.15 -137.752 -2019 207 199 155
-59.6916 -139.043 -2038 205 198 165
-56.2402 -140.538 -2060 198 193 164
-249.176 -142.597 -2021 195 199 178
-243.038 -141.374 -2004 188 191 156
-237.567 -140.504 -1992 188 191 155
-232.849 -140.059 -1986 205 207 169
-228.043 -139.543 -1979 216 217 176
-223.832 -139.381 -1977 218 219 176
-219.52 -139.148 -1974 214 214 170
-215.222 -138.916 -1971 203 201 154
-210.938 -138.685 -1968 199 196 144
-206.457 -138.312 -1963 198 194 142
-202.101 -138.011 -1959 197 193 141
-197.865 -137.781 -1956 208 204 152
-193.542 -137.48 -1952 221 218 165
-189.529 -137.392 -1951 233 230 177
-185.426 -137.233 -1949 239 236 185
-181.798 -137.427 -1952 237 234 183
-177.795 -137.34 -1951 228 225 174
-174.154 -137.534 -1954 223 220 168
-169.98 -137.307 -1951 220 217 164
-166.415 -137.572 -1955 218 215 162
-162.42 -137.486 -1954 214 211 158
-158.511 -137.471 -1954 211 208 153
-154.445 -137.316 -1952 209 206 150
-150.543 -137.301 -1952 209 206 149
-146.641 -137.287 -1952 212 207 149
-142.815 -137.344 -1953 215 209 152
-139.056 -137.471 -1955 213 207 150
-135.291 -137.599 -1957 214 208 152
-131.518 -137.727 -1959 216 211 155
-127.739 -137.855 -1961 216 211 156
-123.827 -137.843 -1961 212 207 151
-120.038 -137.973 -1963 205 199 142
-116.182 -138.032 -1964 196 190 129
-112.21 -137.951 -1963 189 183 122
-108.518 -138.221 -1967 187 181 117
-104.545 -138.141 -1966 193 188 125
-100.628 -138.131 -1966 211 206 144
-96.7117 -138.122 -1966 228 223 167
-92.938 -138.324 -1969 231 226 171
-89.1078 -138.456 -1971 224 219 162
-85.4001 -138.799 -1976 215 209 154
-81.5907 -139.002 -1979 210 203 150
-77.8485 -139.345 -1984 208 201 151
-74.0498 -139.619 -1988 209 202 153
-70.3415 -140.104 -1995 214 207 160
-66.8056 -141.01 -2008 218 210 165
-63.2496 -141.987 -2022 213 205 161
-59.9902 -143.807 -2048 206 199 167
-249.077 -146.573 -2020 197 201 180
-243.061 -145.388 -2004 191 194 159
-237.828 -144.639 -1994 187 191 155
-232.872 -144.036 -1986 205 209 170
-228.18 -143.578 -1980 222 224 183
-223.854 -143.338 -1977 229 230 188
-219.653 -143.172 -1975 223 223 183
-215.571 -143.078 -1974 210 209 164
-211.065 -142.695 -1969 203 200 150
-206.793 -142.457 -1966 197 194 144
-202.534 -142.22 -1963 192 189 139
-198.086 -141.838 -1958 201 198 145
-193.66 -141.457 -1953 213 210 158
-189.741 -141.438 -1953 226 223 171
-185.634 -141.275 -1951 236 233 181
-181.909 -141.402 -1953 239 236 185
-177.812 -141.239 -1951 233 230 179
-174.082 -141.367 -1953 225 222 170
-170.171 -141.35 -1953 222 219 166
-166.431 -141.479 -1955 220 217 165
-162.601 -141.535 -1956 217 214 161
-158.688 -141.519 -1956 213 210 157
-154.697 -141.432 -1955 210 207 151
-150.788 -141.417 -1955 209 207 149
-146.731 -141.258 -1953 216 212 154
-142.828 -141.244 -1953 220 215 158
-139.069 -141.375 -1955 219 214 157
-135.304 -141.506 -1957 218 213 158
-131.464 -141.565 -1958 218 213 158
-127.751 -141.77 -1961 217 212 157
-123.839 -141.757 -1961 215 210 154
-120.049 -141.89 -1963 214 208 151
-116.193 -141.951 -1964 205 199 140
-112.506 -142.229 -1968 197 191 131
-108.583 -142.218 -1968 189 183 120
-104.98 -142.641 -1974 184 179 115
-100.996 -142.559 -1973 194 190 125
-97.0653 -142.55 -1973 213 208 149
-93.2773 -142.757 -1976 229 224 166
-89.2972 -142.676 -1975 230 224 168
-85.5812 -143.029 -1980 223 217 162
-81.7222 -143.165 -1982 215 208 154
-77.9345 -143.446 -1986 212 205 155
-74.0196 -143.511 -1987 212 205 155
-70.3129 -144.01 -1994 215 208 161
-66.8784 -145.158 -2010 218 211 166
-63.5372 -146.669 -2031 215 207 163
-60.113 -148.179 -2052 208 201 170
-249.225 -150.696 -2021 198 202 182
-243.207 -149.478 -2005 196 199 164
-237.852 -148.634 -1994 190 194 157
-232.895 -148.014 -1986 198 202 163
-228.203 -147.544 -1980 219 221 179
-223.989 -147.372 -1978 236 237 195
-219.674 -147.126 -1975 236 234 194
-215.373 -146.881 -1972 221 219 176
-210.979 -146.561 -1968 209 206 158
-206.918 -146.466 -1967 201 198 148
-202.863 -146.371 -1966 194 191 142
-198.51 -146.053 -1962 198 195 142
-194.175 -145.736 -1958 205 202 149
-190.051 -145.568 -1956 218 215 164
-185.843 -145.325 -1953 231 228 177
-181.74 -145.158 -1951 243 240 189
-177.83 -145.14 -1951 241 238 187
-174.188 -145.346 -1954 232 229 176
-170.274 -145.328 -1954 226 223 170
-166.532 -145.46 -1956 222 219 168
-162.701 -145.518 -1957 220 217 165
-158.947 -145.651 -1959 217 212 161
-154.871 -145.486 -1957 211 208 152
-150.957 -145.471 -1957 210 208 150
-146.82 -145.233 -1954 216 214 154
-142.989 -145.293 -1955 220 217 159
-139.083 -145.279 -1955 224 219 163
-135.317 -145.414 -1957 222 217 162
-131.611 -145.624 -1960 218 213 158
-127.829 -145.759 -1962 216 211 156
-124.04 -145.895 -1964 216 210 154
-120.183 -145.957 -1965 216 210 153
-116.323 -146.02 -1966 215 209 153
-112.517 -146.157 -1968 207 201 145
-108.815 -146.443 -1972 197 191 129
-105.044 -146.655 -1975 187 182 118
-101.057 -146.57 -1974 186 182 115
-97.1732 -146.635 -1975 197 192 128
-93.2864 -146.7 -1976 217 212 149
-89.2608 -146.542 -1974 229 223 168
-85.4599 -146.756 -1977 233 226 172
-81.7715 -147.193 -1983 224 217 164
-77.9813 -147.482 -1987 218 212 160
-74.1759 -147.771 -1991 214 208 157
-70.4961 -148.358 -1999 212 205 158
-66.9182 -149.242 -2011 215 207 163
-63.5122 -150.645 -2030 214 206 164
-249.004 -154.594 -2019 198 202 183
-242.989 -153.343 -2003 200 203 168
-237.876 -152.63 -1994 192 195 159
-233.388 -152.299 -1990 191 194 156
-228.341 -151.587 -1981 208 209 169
-224.125 -151.41 -1979 234 235 194
-219.585 -151.005 -1974 247 244 205
-215.505 -150.906 -1973 235 232 191
-211.108 -150.578 -1969 217 214 168
-207.255 -150.633 -1970 210 207 159
-202.987 -150.383 -1967 199 196 148
-198.834 -150.209 -1965 197 194 141
-194.492 -149.883 -1961 197 194 143
-190.362 -149.71 -1959 207 204 154
-186.052 -149.385 -1955 224 221 170
-181.759 -149.061 -1951 237 234 183
-177.939 -149.119 -1952 241 238 187
-174.117 -149.177 -1953 237 234 182
-170.204 -149.159 -1953 230 227 174
-166.549 -149.371 -1956 227 224 172
-162.717 -149.43 -1957 224 220 169
-158.801 -149.414 -1957 222 216 167
-154.728 -149.245 -1955 217 213 159
-150.896 -149.306 -1956 213 210 154
-146.835 -149.138 -1954 213 211 151
-143.076 -149.275 -1956 215 213 154
-139.168 -149.261 -1956 219 214 160
-135.469 -149.476 -1959 219 214 159
-131.759 -149.691 -1962 216 211 156
-127.972 -149.83 -1964 215 210 155
-124.116 -149.894 -1965 214 209 153
-120.318 -150.034 -1967 214 208 151
-116.394 -150.022 -1967 213 207 152
-112.529 -150.086 -1968 212 207 152
-108.715 -150.227 -1970 206 200 140
-104.948 -150.445 -1973 196 191 129
-101.067 -150.511 -1974 186 182 117
-97.2323 -150.653 -1976 185 181 116
-93.4375 -150.872 -1979 195 190 126
-89.4959 -150.863 -1979 218 211 156
-85.6414 -151.006 -1981 232 225 171
-81.8622 -151.303 -1985 228 221 169
-77.9892 -151.447 -1987 219 214 162
-74.1461 -151.668 -1990 213 208 156
-70.609 -152.575 -2002 208 202 153
-67.0581 -153.559 -2015 213 205 162
-63.8314 -155.457 -2040 215 207 166
-249.4 -158.878 -2022 198 202 183
-243.379 -157.595 -2006 201 204 169
-237.901 -156.627 -1994 195 198 163
-233.178 -156.131 -1988 191 194 158
-228.365 -155.557 -1981 201 203 164
-223.809 -155.14 -1976 226 227 187
-219.386 -154.803 -1972 244 241 202
-215.309 -154.701 -1971 247 244 204
-211.023 -154.443 -1968 233 230 189
-207.171 -154.499 -1969 213 211 164
-203.215 -154.478 -1969 204 202 154
-199.057 -154.299 -1967 197 195 144
-194.909 -154.122 -1965 195 192 142
-190.479 -153.709 -1960 202 199 149
-186.166 -153.376 -1956 211 208 157
-181.778 -152.964 -1951 225 222 171
-177.957 -153.024 -1952 238 235 184
-174.045 -153.005 -1952 240 237 185
-170.309 -153.144 -1954 235 232 179
-166.567 -153.283 -1956 229 226 173
-162.734 -153.344 -1957 227 224 172
-158.899 -153.405 -1958 224 218 170
-154.823 -153.232 -1956 217 213 160
-151.22 -153.529 -1960 212 209 154
-147.076 -153.278 -1957 208 206 146
-143.164 -153.263 -1957 205 202 144
-139.254 -153.248 -1957 209 204 151
-135.552 -153.469 -1960 212 207 153
-131.84 -153.689 -1963 216 211 156
-128.051 -153.832 -1965 217 212 157
-124.318 -154.054 -1968 217 212 157
-120.391 -154.041 -1968 216 211 154
-116.525 -154.107 -1969 215 210 155
-112.54 -154.017 -1968 215 210 155
-108.561 -153.927 -1967 213 207 149
-104.799 -154.15 -1970 207 202 142
-101.026 -154.374 -1973 197 193 130
-97.2423 -154.599 -1976 190 186 121
-93.4945 -154.901 -1980 188 184 120
-89.5956 -154.97 -1981 197 191 134
-85.78 -155.195 -1984 218 212 157
-81.8294 -155.187 -1984 227 220 168
-78.0757 -155.569 -1989 223 217 167
-74.2283 -155.796 -1992 218 212 162
-70.5811 -156.492 -2001 211 205 155
-67.1981 -157.893 -2019 213 206 164
-63.9007 -159.685 -2042 214 206 168
-248.563 -162.37 -2015 199 203 185
-243.526 -161.699 -2007 203 206 172
-238.523 -161.028 -1999 201 204 169
-233.672 -160.439 -1992 194 197 161
-228.735 -159.769 -1984 197 198 160
-224.173 -159.342 -1979 216 217 177
-219.521 -158.835 -1973 237 236 195
-215.332 -158.65 -1971 249 249 208
-211.153 -158.466 -1969 243 242 202
-207.299 -158.524 -1970 220 219 175
-203.34 -158.502 -1970 206 206 160
-199.281 -158.399 -1969 204 201 151
-195.128 -158.217 -1967 197 194 144
-190.889 -157.955 -1964 195 192 142
-186.472 -157.532 -1959 198 195 144
-182.17 -157.191 -1955 211 208 157
-178.159 -157.091 -1954 229 226 175
-174.243 -157.072 -1954 238 235 184
-170.502 -157.214 -1956 240 237 185
-166.584 -157.196 -1956 234 232 180
-162.751 -157.258 -1957 231 228 177
-158.835 -157.241 -1957 226 222 172
-154.761 -157.063 -1955 219 215 163
-151.005 -157.207 -1957 217 214 160
-147.016 -157.111 -1956 214 210 154
-143.326 -157.336 -1959 205 201 145
-139.411 -157.321 -1959 205 201 148
-135.636 -157.467 -1961 209 204 150
-131.921 -157.693 -1964 213 208 153
-128.195 -157.92 -1967 216 211 156
-124.458 -158.147 -1970 219 214 158
-120.588 -158.214 -1971 219 214 159
-116.655 -158.202 -1971 217 212 156
-112.552 -157.948 -1968 214 209 153
-108.738 -158.097 -1970 216 210 152
-104.864 -158.166 -1971 215 210 151
-100.935 -158.155 -1971 210 205 146
-97.3019 -158.625 -1977 200 196 134
-93.5516 -158.936 -1981 191 186 124
-89.7409 -159.167 -1984 187 182 123
-85.8324 -159.237 -1985 199 193 137
-82.0031 -159.469 -1988 218 211 158
-78.1233 -159.621 -1990 226 220 170
-74.1616 -159.613 -1990 221 215 166
-70.5534 -160.407 -2000 214 208 159
-67.2386 -162.004 -2020 211 204 163
-64.0326 -164.082 -2046 211 203 166
-248.714 -166.496 -2016 199 203 186
-243.31 -165.56 -2005 202 205 172
-238.072 -164.708 -1995 201 204 171
-233.58 -164.351 -1991 196 199 163
-228.876 -163.83 -1985 193 195 156
-224.197 -163.31 -1979 204 205 165
-219.545 -162.79 -1973 227 227 184
-215.355 -162.601 -1971 243 243 201
-211.39 -162.577 -1971 247 247 207
-207.427 -162.554 -1971 238 238 195
-203.362 -162.448 -1970 216 216 173
-199.303 -162.344 -1969 211 208 160
-195.348 -162.322 -1969 202 199 149
-191.104 -162.053 -1966 194 191 140
-186.683 -161.62 -1961 193 190 139
-182.376 -161.27 -1957 201 198 147
-178.361 -161.167 -1956 216 213 162
-174.172 -160.901 -1953 230 227 176
-170.346 -160.964 -1954 238 235 184
-166.432 -160.945 -1954 237 235 185
-162.603 -161.009 -1955 236 234 184
-158.771 -161.074 -1956 232 229 178
-154.936 -161.139 -1957 224 221 169
-151.098 -161.204 -1958 221 218 166
-147.183 -161.188 -1958 222 217 162
-143.415 -161.336 -1960 214 210 155
-139.569 -161.403 -1961 209 206 153
-135.789 -161.552 -1963 211 207 152
-132.07 -161.784 -1966 213 208 153
-128.274 -161.934 -1968 214 209 154
-124.472 -162.085 -1970 217 212 158
-120.601 -162.154 -1971 220 215 160
-116.668 -162.141 -1971 220 215 159
-112.565 -161.881 -1968 218 213 156
-108.695 -161.951 -1969 220 214 158
-104.769 -161.94 -1969 220 214 158
-100.997 -162.175 -1972 217 212 155
-97.2633 -162.493 -1976 210 206 148
-93.6563 -163.058 -1983 202 198 139
-89.6602 -162.966 -1982 193 188 129
-85.8418 -163.203 -1985 189 183 127
-81.9709 -163.358 -1987 202 196 141
-78.0533 -163.431 -1988 217 212 160
-74.1697 -163.587 -1990 224 218 168
-70.5962 -164.483 -2001 217 211 163
-67.4125 -166.448 -2025 210 204 164
-64.1648 -168.496 -2050 208 201 165
-248.865 -170.627 -2017 204 208 191
-242.973 -169.33 -2002 205 208 175
-237.98 -168.626 -1994 203 206 173
-233.607 -168.346 -1991 199 202 166
-228.901 -167.812 -1985 194 195 157
-224.449 -167.448 -1981 195 196 156
-219.903 -167 -1976 215 215 171
-215.489 -166.637 -1972 235 235 192
-211.414 -166.528 -1971 246 246 205
-207.345 -166.42 -1970 247 247 207
-203.282 -166.312 -1969 231 231 191
-199.325 -166.289 -1969 217 213 167
-195.37 -166.267 -1969 210 207 159
-191.223 -166.076 -1967 201 198 147
-186.989 -165.801 -1964 192 189 138
-182.676 -165.442 -1960 193 190 139
-178.563 -165.253 -1958 204 201 150
-174.192 -164.811 -1953 219 216 165
-170.278 -164.792 -1953 232 229 178
-166.281 -164.688 -1952 236 234 185
-162.538 -164.838 -1954 239 237 188
-158.464 -164.651 -1952 241 238 185
-154.637 -164.718 -1953 233 230 178
-150.884 -164.869 -1955 225 222 171
-147.124 -165.021 -1957 224 220 165
-143.211 -165.004 -1957 220 217 163
-139.656 -165.41 -1962 217 214 161
-135.943 -165.647 -1965 217 212 158
-132.219 -165.885 -1968 216 211 156
-128.354 -165.954 -1969 217 212 157
-124.485 -166.024 -1970 219 214 160
-120.492 -165.926 -1969 222 217 164
-116.563 -165.913 -1969 223 218 164
-112.52 -165.731 -1967 223 218 162
-108.652 -165.803 -1968 224 217 162
-104.78 -165.875 -1969 222 216 161
-100.957 -166.032 -1971 218 213 158
-97.2249 -166.358 -1975 213 209 155
-93.4778 -166.684 -1979 208 205 151
-89.625 -166.842 -1981 203 198 139
-85.8081 -167.085 -1984 194 189 132
-81.98 -167.328 -1987 192 187 132
-77.9835 -167.235 -1986 200 195 142
-74.178 -167.563 -1990 219 214 162
-70.5336 -168.313 -1999 219 213 166
-67.2201 -169.989 -2019 213 206 167
-248.647 -174.504 -2015 207 211 195
-242.88 -173.263 -2001 208 211 178
-237.888 -172.542 -1993 207 210 176
-233.399 -172.168 -1989 204 207 171
-228.928 -171.795 -1985 199 201 163
-224.248 -171.249 -1979 194 195 156
-219.929 -170.964 -1976 206 205 161
-215.732 -170.766 -1974 227 227 183
-211.438 -170.481 -1971 244 244 200
-207.264 -170.284 -1969 252 253 212
-203.202 -170.173 -1968 246 247 208
-199.247 -170.15 -1968 230 226 183
-195.194 -170.04 -1967 218 214 169
-191.05 -169.845 -1965 209 206 156
-187.201 -169.909 -1966 197 194 143
-182.884 -169.542 -1962 193 190 139
-178.949 -169.521 -1962 198 195 144
-174.48 -168.982 -1956 208 205 154
-170.385 -168.789 -1954 219 216 165
-166.215 -168.511 -1951 229 226 180
-162.473 -168.664 -1953 237 234 187
-158.482 -168.559 -1952 243 240 186
-154.734 -168.714 -1954 240 237 184
-150.978 -168.869 -1956 233 230 177
-147.216 -169.024 -1958 230 227 172
-143.374 -169.094 -1959 230 227 173
-139.743 -169.422 -1963 228 225 173
-135.958 -169.579 -1965 224 219 165
-132.234 -169.822 -1968 221 216 161
-128.368 -169.893 -1969 220 215 159
-124.5 -169.965 -1970 221 216 161
-120.567 -169.951 -1970 223 218 163
-116.576 -169.851 -1969 222 217 165
-112.59 -169.751 -1968 223 218 166
-108.775 -169.911 -1970 221 214 161
-104.846 -169.899 -1970 218 212 158
-101.02 -170.059 -1972 216 211 155
-97.2362 -170.306 -1975 213 209 157
-93.4885 -170.64 -1979 211 208 156
-89.6352 -170.802 -1981 210 204 149
-85.8179 -171.051 -1984 205 199 143
-81.9481 -171.213 -1986 197 191 136
-77.9532 -171.118 -1985 190 186 132
-74.2238 -171.626 -1991 201 197 144
-70.4005 -171.963 -1995 214 208 161
-67.0614 -173.592 -2014 214 207 167
-248.8 -178.64 -2016 209 213 197
-242.909 -177.282 -2001 210 213 180
-237.796 -176.455 -1992 210 213 180
-233.544 -176.25 -1990 210 213 177
-229.301 -176.045 -1988 207 208 171
-224.841 -175.664 -1984 200 201 163
-220.4 -175.283 -1980 202 201 157
-216.086 -174.992 -1977 217 215 171
-211.785 -174.701 -1974 235 235 189
-207.393 -174.322 -1970 251 251 211
-203.122 -174.032 -1967 252 252 214
-199.169 -174.008 -1967 244 241 202
-195.217 -173.984 -1967 226 224 181
-191.17 -173.873 -1966 215 213 164
-187.223 -173.85 -1966 207 204 153
-183.092 -173.651 -1964 201 198 147
-178.97 -173.453 -1962 196 193 142
-174.679 -173.078 -1958 198 195 144
-170.405 -172.704 -1954 205 202 152
-166.064 -172.242 -1949 219 215 170
-162.16 -172.223 -1949 229 225 179
-158.176 -172.115 -1948 239 236 182
-154.514 -172.362 -1951 242 239 186
-150.687 -172.432 -1952 239 236 183
-147.008 -172.679 -1955 242 239 184
-143.245 -172.839 -1957 242 239 185
-139.688 -173.263 -1962 237 234 183
-135.905 -173.424 -1964 231 227 173
-132.249 -173.761 -1968 225 221 166
-128.383 -173.834 -1969 222 217 160
-124.388 -173.73 -1968 222 217 161
-120.459 -173.716 -1968 222 217 162
-116.531 -173.702 -1968 222 217 166
-112.661 -173.776 -1969 223 217 168
-108.953 -174.116 -1973 221 215 162
-105.017 -174.104 -1973 218 212 157
-101.134 -174.18 -1974 217 213 156
-97.346 -174.433 -1977 215 212 159
-93.4522 -174.509 -1978 214 211 159
-89.6457 -174.763 -1981 215 207 155
-85.7415 -174.841 -1982 209 202 149
-82.0403 -175.361 -1988 203 196 142
-78.0409 -175.263 -1987 189 185 130
-74.1952 -175.518 -1990 192 188 135
-70.4441 -176.039 -1996 205 200 152
-67.0027 -177.442 -2012 214 208 166
-248.583 -182.51 -2014 211 217 203
-242.817 -181.211 -2000 217 221 188
-237.586 -180.276 -1990 222 226 192
-233.455 -180.156 -1989 222 226 188
-229.098 -179.856 -1986 215 217 179
-224.982 -179.738 -1985 208 209 171
-220.538 -179.349 -1981 203 202 161
-216.112 -178.96 -1977 206 205 162
-211.811 -178.662 -1974 219 217 171
-207.418 -178.275 -1970 238 237 195
-203.044 -177.888 -1966 253 251 211
-199.092 -177.863 -1966 250 249 211
-195.141 -177.839 -1966 238 237 196
-191.096 -177.725 -1965 222 222 176
-187.246 -177.792 -1966 215 213 164
-183.3 -177.77 -1966 207 204 155
-179.174 -177.567 -1964 199 196 146
-174.967 -177.274 -1961 196 193 143
-170.6 -176.801 -1956 196 193 144
-166.169 -176.238 -1950 206 203 151
-162.013 -175.947 -1947 216 213 161
-158.114 -175.928 -1947 226 223 173
-154.216 -175.909 -1947 235 232 180
-150.474 -176.071 -1949 237 234 181
-146.875 -176.414 -1953 244 241 186
-143.042 -176.487 -1954 242 239 185
-139.491 -176.921 -1959 241 238 184
-135.783 -177.176 -1962 238 235 180
-132.131 -177.52 -1966 233 230 175
-128.268 -177.595 -1967 227 224 167
-124.466 -177.76 -1969 225 221 164
-120.473 -177.655 -1968 223 218 162
-116.604 -177.731 -1969 222 217 161
-112.788 -177.897 -1971 220 215 160
-109.021 -178.155 -1974 219 213 157
