ply
format ascii 1.0
comment Created by Open3D
element vertex 741
property double x
property double y
property double z
property double nx
property double ny
property double nz
property uchar red
property uchar green
property uchar blue
end_header
61.2633 -1413.92 -1949.19 0.099446 -0.981201 -0.184905 52 47 41
72.6303 -1413.51 -1955.02 -0.0967361 -0.96558 -0.173152 56 49 43
34.1669 -1407.81 -1951.82 -0.465549 -0.877339 0.0321825 47 41 37
82.8252 -1415.43 -1952.77 0.201995 -0.903955 0.0030852 55 49 44
86.9869 -1413.57 -1954.22 0.418193 -0.818445 0.0276035 55 49 44
94.4498 -1404.57 -1949.65 0.700078 -0.713344 0.0813216 56 50 46
107.404 -1397.86 -1952.27 0.338879 -0.905264 -0.169695 53 48 45
121.882 -1398.39 -1953.66 -0.403301 -0.889879 -0.0160629 46 42 37
-327.252 -1406.33 -1943.95 -0.132836 -0.944524 0.131395 55 51 45
-310.388 -1397.14 -1944.82 -0.159293 -0.959554 0.194345 52 49 43
-297.083 -1400.15 -1946.61 -0.175238 -0.967475 0.0860998 64 59 53
-294.203 -1401.56 -1948.13 -0.157495 -0.974023 0.006706 66 60 54
-277.347 -1401.66 -1946.46 0.0441395 -0.957115 0.0740195 62 59 52
-269.322 -1400.85 -1943.97 -0.11415 -0.926493 0.234454 57 54 46
-255.785 -1405.54 -1948.46 -0.0697067 -0.97206 -0.140513 57 53 46
-243.204 -1404.4 -1945.08 0.188145 -0.951839 -0.107597 54 49 44
-228.28 -1399.8 -1943.43 0.171652 -0.965471 0.0694888 18 16 15
-227.711 -1399.64 -1942.67 0.174374 -0.963548 0.0726514 16 15 13
22.1354 -1402.23 -1946.02 -0.259153 -0.944432 0.15856 45 40 35
587.429 -153.967 -1927.66 -0.0940479 0.931037 -0.317334 134 102 93
607.691 -152.309 -1929.39 -0.143256 0.912656 -0.348069 140 105 95
620.796 -149.097 -1933.58 -0.179029 0.877625 -0.384929 156 119 106
621.538 -148.667 -1927.09 -0.219956 0.886039 -0.375066 156 118 105
628.344 -146.534 -1930.82 -0.279461 0.837915 -0.427313 179 140 122
633.614 -144.072 -1933.57 -0.306138 0.808891 -0.458964 190 151 131
636.869 -141.256 -1927.48 -0.340865 0.81075 -0.458543 196 156 135
646.533 -135.274 -1928.77 -0.343176 0.80718 -0.462359 195 155 133
187.653 -1396.45 -1922.14 0.173512 -0.941574 0.176458 61 57 51
199.225 -1396.45 -1922.08 0.184635 -0.971408 0.0447196 63 60 54
213.737 -1396.42 -1921.55 0.222181 -0.967418 0.0141662 66 61 57
227.963 -1393.3 -1918.73 0.245073 -0.970001 -0.000409817 23 21 20
589.627 -153.314 -1919.43 -0.11101 0.946857 -0.298065 130 97 90
598.86 -152.936 -1920.77 -0.121569 0.941542 -0.307846 127 94 86
609.298 -151.645 -1922.21 -0.168945 0.926642 -0.335072 134 98 89
621.141 -148.202 -1920.88 -0.243824 0.891519 -0.369209 156 117 104
629.689 -145.741 -1924.28 -0.350322 0.827211 -0.440802 194 154 133
118.006 -1410.26 -1906.38 0.318303 -0.860442 0.168241 50 45 42
81.9806 -1399.17 -1910.61 -0.0336857 -0.664205 0.524011 41 37 34
86.9965 -1401.6 -1906.06 -0.430563 -0.514 0.475484 49 44 41
127.068 -1405.78 -1911.41 0.137142 -0.929749 0.0777679 47 43 39
136.654 -1400.24 -1910.41 0.133604 -0.877174 0.233051 49 45 40
151.53 -1396.64 -1907.7 -0.0400241 -0.91605 0.232694 53 50 44
164.72 -1398.94 -1906.74 -0.140584 -0.953042 0.1625 58 55 49
177.442 -1398.34 -1908.74 0.0906662 -0.969286 0.10838 61 57 52
196.973 -1398.21 -1910.77 0.122942 -0.977513 0.0239836 62 58 53
202.535 -1398.94 -1907.57 0.190514 -0.933751 0.105096 63 60 54
212.581 -1396.34 -1911.62 0.454982 -0.847991 0.145484 66 61 57
216.421 -1387.26 -1906.97 0.666947 -0.571583 0.383707 65 61 57
513.731 -142.127 -1903.01 0.0869588 0.875554 -0.474333 157 129 115
538.923 -146.24 -1901.1 0.206191 0.880112 -0.424225 141 110 93
526.973 -144.114 -1903.7 0.15385 0.877293 -0.4475 148 119 103
551.027 -148.834 -1902.74 0.181587 0.91898 -0.332883 132 103 88
562.924 -150.01 -1899.2 0.12533 0.964607 -0.249012 122 94 81
573.721 -150.864 -1902.79 0.0475116 0.94758 -0.292789 137 108 95
583.776 -150.526 -1904.09 -0.111117 0.93252 -0.328427 156 125 113
595.94 -149.743 -1905.57 -0.133908 0.938906 -0.314007 147 114 103
605.929 -147.887 -1904.62 -0.18856 0.910577 -0.350275 155 116 105
618.444 -141.429 -1900.14 -0.373843 0.780605 -0.496294 210 166 143
625.247 -137.835 -1901.32 -0.39394 0.770473 -0.503263 213 168 143
631.352 -128.783 -1899.51 -0.447486 0.699302 -0.556842 205 174 156
-101.104 -675.991 -1904.57 0.114459 -0.216069 -0.869746 39 42 42
-96.5133 -668.984 -1898.29 0.117634 -0.248528 -0.868699 37 40 39
-102.247 -660.792 -1904.01 0.136215 -0.224807 -0.923046 41 44 44
-105.193 -651.649 -1906.02 0.22084 -0.215028 -0.932575 48 50 51
-107.227 -656.379 -1907.27 0.128273 -0.2243 -0.941683 41 45 44
-98.6948 -652.55 -1900.66 0.142238 -0.215278 -0.922198 42 46 46
-42.1662 -1394.54 -1900.04 -0.106931 -0.732581 0.225592 30 28 25
-17.0395 -1397.56 -1907.64 -0.0855453 -0.895076 0.153853 21 19 17
-14.2765 -1397.62 -1908.61 -0.0825724 -0.919615 0.142945 20 18 16
-20.3611 -1396.08 -1902.72 -0.0897649 -0.876208 0.162834 22 20 18
-10.2803 -1395.25 -1905.15 -0.0799833 -0.948277 0.134641 18 17 15
0.565353 -1396.96 -1912.05 -0.085809 -0.970826 0.107328 15 14 12
-172.851 -813.365 -1899.36 0.460876 -0.172623 -0.840607 37 42 42
-171.775 -796.477 -1896.96 0.369449 -0.187657 -0.935094 37 42 42
-170.139 -790.868 -1895.26 0.34067 -0.116981 -0.953263 35 41 40
-168.173 -782.995 -1895.62 0.49187 -0.0488935 -0.494468 35 41 41
-158.875 -771.857 -1899.49 0.771352 -0.0268101 0.560369 37 43 42
-164.733 -760.262 -1893.42 0.890807 0.0294526 0.398906 38 44 43
-162.27 -761.192 -1897.24 0.908729 0.0524377 0.361798 37 43 43
-160.939 -749.483 -1898.16 0.928752 0.0936981 0.338369 37 43 42
-163.494 -739.64 -1898.12 0.825727 0.121799 0.114732 38 44 42
-139.758 -626.79 -1895.18 -0.027785 -0.147877 -0.257363 44 48 48
-133.454 -624.051 -1898.39 0.0208366 -0.151141 -0.188697 44 48 47
-118.058 -623.376 -1898.35 0.030724 -0.0733288 -0.729314 46 49 49
-112.016 -624.497 -1895 0.0747616 -0.0588615 -0.857678 43 46 46
-100.798 -631.457 -1894.52 0.187906 -0.129757 -0.632788 42 45 45
-147.077 -651.614 -1887.42 0.0597218 -0.0162615 -0.594554 37 39 39
-141.48 -634.272 -1891.7 0.0918593 -0.120962 -0.69202 42 45 46
-128.611 -635.946 -1888.27 -0.118575 -0.195188 -0.91261 38 42 41
-123.144 -634.905 -1889 -0.0610188 -0.217666 -0.98002 38 41 40
-108.675 -636.345 -1887.12 0.254162 -0.234742 -0.958418 36 40 39
-91.468 -652.614 -1887.61 0.196437 -0.230197 -0.850616 35 38 37
-93.2224 -641.624 -1888.07 0.153003 -0.243246 -0.899655 36 39 38
-48.3589 -1389.45 -1889.71 -0.0826821 -0.791973 0.183036 30 27 23
-33.4468 -1387.95 -1888.99 -0.0954906 -0.79607 0.196253 37 32 28
-22.1975 -1390.98 -1891.46 -0.0977761 -0.891237 0.139567 19 18 16
-16.0416 -1388.55 -1886.47 -0.0360048 -0.897163 0.189565 16 14 12
-3.70184 -1385.47 -1892.57 -0.0631808 -0.981589 0.0419217 16 14 13
-61.8025 -583.182 -1888.32 0.195706 -0.353067 0.902226 52 54 54
-47.0809 -581.746 -1891.75 0.214126 -0.388119 0.893633 53 56 55
-50.3264 -574.367 -1887.52 0.251992 -0.420578 0.866089 54 57 57
-35.2325 -580.149 -1891.18 -0.0461667 -0.305976 0.933082 54 57 56
-32.3276 -575.71 -1889.27 -0.124311 -0.35917 0.907878 57 61 60
-40.5991 -569.76 -1887.12 0.096116 -0.483754 0.841237 58 62 60
-16.3271 -580.062 -1888.43 0.0235725 -0.396293 0.917095 58 61 60
-9.70251 -577.283 -1887.71 0.049982 -0.422991 0.902156 58 60 59
-12.6956 -576.603 -1886.88 0.0788103 -0.421003 0.908293 59 62 61
26.2513 -630.438 -1887.1 -0.360609 0.0546768 0.932707 44 47 44
479.169 -143.539 -1890.68 0.0430928 0.862765 -0.483191 160 131 116
489.779 -141.457 -1890.11 0.0408841 0.860279 -0.490563 160 131 117
503.451 -139.964 -1891.87 0.0947816 0.880373 -0.468309 156 128 114
-202.711 -1397.39 -1887.72 0.0867917 -0.77834 0.190234 35 32 28
-211.987 -1397.63 -1893.08 0.0619505 -0.78216 0.185512 46 43 38
-195.317 -1401.15 -1890.36 -0.0570936 -0.778281 0.159389 30 27 24
-181.122 -1399.1 -1887.76 -0.0443337 -0.683015 0.177043 32 30 27
-179.745 -1401.83 -1892.1 -0.0522455 -0.662843 0.189662 35 33 30
-171.91 -1400.4 -1893.94 -0.0406081 -0.506659 0.253672 42 41 37
626.626 -112.525 -1888.19 -0.423377 0.638006 -0.626057 211 183 167
632.182 -117.003 -1894.72 -0.45806 0.684793 -0.566656 205 178 163
629.377 -110.466 -1890.88 -0.414045 0.654569 -0.616177 212 183 168
634.613 -117.883 -1897.36 -0.460819 0.684071 -0.566089 205 178 163
-320.104 -1408.67 -1884.44 0.11762 -0.789246 0.411604 42 40 35
-303.352 -1405.23 -1887.36 -0.248555 -0.888483 -0.0204155 52 47 42
-293.61 -1407.23 -1881.09 -0.375893 -0.736368 0.391854 56 51 45
-280.896 -1404.73 -1883.93 0.332591 -0.823128 0.172432 54 50 45
-276.979 -1402.36 -1886.08 0.442792 -0.85404 0.105767 53 48 43
-270.174 -1390.37 -1884.04 0.314124 -0.632799 0.481783 51 46 40
-263.375 -1390.45 -1883.05 -0.0599852 -0.906775 0.251358 52 47 42
-252.085 -1396.57 -1882.28 -0.244156 -0.956756 -0.0352345 55 50 45
-247.599 -1396.13 -1885.76 -0.135663 -0.972076 -0.0277347 47 43 38
-226.064 -1393.8 -1882.67 0.242466 -0.847522 -0.0358008 31 28 25
-218.197 -1390.4 -1884.71 0.318221 -0.733992 0.252227 42 38 34
-206.547 -1390.32 -1882.24 0.098674 -0.725125 0.16304 37 33 30
-207.413 -1384.45 -1880.97 -0.051489 -0.562111 0.0755859 37 33 30
-183.963 -1399.43 -1885.86 -0.062345 -0.762287 0.135493 26 24 21
26.0762 -881.796 -1881 -0.296811 0.154709 0.940477 43 43 42
28.2602 -865.295 -1881.67 -0.215464 0.013604 0.977552 41 41 40
25.8492 -862.221 -1882.18 -0.155608 0.00312222 0.984411 42 42 40
31.1953 -853.314 -1881 -0.199389 0.0102939 0.984873 43 43 41
28.9312 -845.744 -1881.93 -0.167573 0.0458088 0.990778 43 43 41
29.1362 -839.021 -1882.45 -0.186822 0.0451841 0.978959 42 43 40
28.3124 -780.246 -1883.74 0.247084 -0.0112394 0.967857 42 45 42
27.255 -776.257 -1883.68 0.265866 0.0330231 0.964812 42 45 42
38.8875 -783.03 -1882.34 -0.221974 -0.0092046 0.941087 43 45 43
35.8117 -777.332 -1883.47 -0.0307631 0.00549619 0.959491 43 46 43
33.6847 -766.094 -1885.2 0.0250453 0.111481 0.957097 44 46 44
34.766 -761.83 -1885 -0.0550164 0.0229484 0.955182 44 47 44
43.6484 -766.363 -1880.96 -0.45568 0.0834202 0.885904 44 47 45
28.7706 -756.492 -1885.91 0.0746832 -0.0615774 0.97628 43 46 43
27.4047 -749.353 -1883.56 -0.0407707 -0.201461 0.958828 42 45 43
29.9971 -752.951 -1884.41 -0.0160829 -0.200778 0.960966 43 46 43
39.9128 -752.099 -1881.99 -0.230114 -0.225514 0.931083 43 47 44
30.0113 -744.482 -1881.53 -0.141625 -0.229003 0.949021 43 46 43
-28.3014 -728.165 -1884.83 0.195851 0.101447 0.8274 37 40 38
-31.5672 -720.343 -1880.28 0.64351 0.0927558 0.647965 35 39 36
-28.0856 -713.378 -1885.34 0.279391 0.0475237 0.833564 37 40 38
-29.6672 -697.255 -1883.82 0.550668 0.081837 0.792042 35 38 35
-34.0524 -694.023 -1881.22 0.537911 0.159637 0.792192 31 34 31
-37.4677 -688.848 -1881.63 0.397416 0.292476 0.84122 32 33 31
450.975 -145.102 -1880.67 -0.234317 0.671576 -0.69151 191 157 137
462.426 -144.842 -1885.12 -0.200883 0.686857 -0.674361 187 154 135
476.834 -142.603 -1883.27 -0.11609 0.821576 -0.533784 170 138 121
486.452 -140.737 -1884.82 -0.0837421 0.8437 -0.509739 167 136 119
499.023 -137 -1882.42 -0.0470155 0.826802 -0.52777 170 139 123
514.933 -137.22 -1885.75 0.0355974 0.878864 -0.482723 163 133 119
534.12 -139.822 -1886.38 0.172384 0.848501 -0.493407 153 120 102
530.36 -136.437 -1881.35 0.125458 0.740803 -0.627374 166 132 111
537.757 -138.691 -1882.21 0.206634 0.788308 -0.554542 161 126 105
572.709 -145.999 -1883.2 0.0452038 0.854178 -0.460507 178 147 132
558.529 -145.005 -1881.73 0.194826 0.852134 -0.448963 167 135 118
579.787 -145.328 -1884.24 -0.118084 0.868939 -0.43391 182 151 136
588.768 -144.846 -1886.9 -0.149037 0.910268 -0.368958 170 139 125
-174.193 -1388.73 -1875.14 0.594805 -0.760682 0.17406 31 26 25
-152.767 -1387.97 -1877.77 -0.228331 -0.621298 0.663014 23 20 17
-151.871 -1388.77 -1877.42 -0.260202 -0.594774 0.678135 22 20 17
-164.638 -1383.03 -1878.37 0.392685 -0.869528 0.271045 29 24 22
-185.002 -817.397 -1876.16 0.463818 0.0663372 0.851341 37 39 39
-182.337 -815.315 -1877.48 0.41289 -0.000419484 0.816673 37 40 40
-179.95 -807.06 -1876.07 0.363416 -0.219695 0.438859 37 39 40
-182.752 -785.638 -1876.21 0.348819 0.131641 0.896416 38 41 39
-188.152 -780.961 -1876.07 0.468251 -0.0607807 0.885744 38 44 42
-188.805 -774.276 -1874.97 0.499575 -0.0951597 0.870311 38 43 41
-180.449 -771.253 -1876.32 0.309639 -0.128278 0.669458 38 41 39
-187.255 -740.006 -1875.27 0.429734 0.0990466 0.904143 37 44 40
-185.216 -736.922 -1876.88 0.462638 0.0799849 0.904655 37 43 40
-165.382 -832.839 -1878.85 0.177474 -0.08564 -0.845562 37 39 39
-164.268 -829.41 -1878.66 0.242499 -0.0302226 -0.838981 37 39 39
-162.373 -823.592 -1877.16 0.353022 0.0765398 -0.848709 37 39 39
-172.294 -818.674 -1875.64 0.225546 0.0956422 -0.0178406 37 39 38
-168.535 -809.18 -1874.95 0.165892 -0.0234389 -0.286826 37 39 38
6.67857 -1019.2 -1874.8 0.137883 0.0887473 0.977638 37 40 37
12.4195 -1019.54 -1874.83 0.0154838 0.102572 0.97896 37 40 37
15.3322 -1003.29 -1875.05 0.0306512 0.0205262 0.98673 37 40 37
13.049 -999.684 -1874.92 0.123595 0.00968627 0.981149 37 40 37
15.5056 -990.897 -1875.28 0.110124 0.0797603 0.981148 37 40 37
16.6455 -983.886 -1876.95 0.187486 0.201803 0.957212 38 41 39
-3.28611 -973.387 -1874.2 0.407772 0.0576297 0.888286 36 39 36
-3.74767 -818.282 -1875.14 0.430876 -0.00265914 0.892244 37 40 37
2.10478 -829.215 -1879.54 0.502894 -0.0970636 0.859597 42 45 42
3.00367 -827.093 -1879.81 0.494162 -0.10356 0.861887 42 45 42
1.81539 -811.455 -1880 0.413605 0.101232 0.901886 40 44 41
-6.97704 -807.359 -1874.98 0.416928 0.170724 0.887181 36 38 35
-6.31766 -799.85 -1876.63 0.356574 0.1732 0.909004 34 36 33
-24.499 -785.247 -1877.28 0.39306 0.247481 0.860478 31 35 32
-15.7147 -784.849 -1879 0.159838 0.271961 0.941638 31 35 32
-5.42736 -792.306 -1877.65 0.191284 0.151271 0.950638 32 35 32
-7.77648 -786.672 -1878.47 0.0885984 0.22474 0.964321 31 34 32
3.73117 -790.579 -1879.37 0.131562 -0.053862 0.968 36 39 36
0.782723 -785.797 -1879.01 0.060679 0.102655 0.975657 34 37 34
18.2537 -790.358 -1880.39 0.168456 -0.221895 0.951001 40 43 40
-27.7201 -777.529 -1877.62 0.523254 0.158432 0.801207 32 36 33
-29.0671 -775.629 -1876.91 0.578672 0.128712 0.765908 33 37 34
-29.9373 -762.255 -1877.81 0.562605 0.130792 0.783128 34 38 35
-32.243 -751.568 -1876.93 0.671191 0.122426 0.715258 35 39 36
-33.2172 -745.131 -1875.12 0.72937 0.0923 0.656723 35 39 36
-23.5302 -781.436 -1878.85 0.358786 0.219693 0.879718 31 36 33
-9.51942 -782.436 -1879.46 0.0587588 0.239117 0.969552 31 35 32
-75.5276 -565.556 -1880.1 0.0170342 -0.320767 0.943486 54 56 56
-69.5257 -560.233 -1879.47 0.036061 -0.203467 0.975596 54 57 56
-53.0911 -563.119 -1879.68 0.0445593 -0.342465 0.917723 53 57 56
-45.7874 -563.926 -1880.16 0.137027 -0.555093 0.806694 53 57 57
-68.486 -556.404 -1879 0.0643094 -0.161371 0.983257 54 57 57
-66.9361 -547.557 -1877.79 0.148636 -0.22391 0.94629 55 58 57
-53.2966 -554.196 -1878.95 -0.0501522 -0.0916166 0.98963 55 58 58
-53.5687 -548.656 -1878.3 -0.0678872 -0.0926803 0.988919 55 59 59
-70.0247 -543.915 -1875.52 0.220839 -0.378429 0.886932 55 58 58
-51.6738 -543.272 -1876.7 -0.0733064 -0.281045 0.929329 55 60 60
-52.3196 -553.482 -1878.82 -0.0606476 -0.0829224 0.992008 55 58 58
-41.7221 -549.666 -1877.54 -0.0197791 -0.210542 0.967972 56 60 60
-37.4704 -557.52 -1879.78 0.113245 -0.347309 0.917226 57 61 60
-29.6747 -549.54 -1877.36 0.053183 -0.378155 0.917214 60 64 62
-51.2699 -540.145 -1875.63 -0.066568 -0.424296 0.882375 56 60 61
-35.2008 -542.032 -1874.95 -0.0579246 -0.308585 0.944686 58 62 61
-85.7202 -725.232 -1878.07 0.572468 0.0417752 -0.523264 53 55 57
-87.2392 -728.299 -1884.28 0.529873 0.265125 -0.412932 73 76 79
-85.5578 -722.522 -1877.19 0.570364 -0.0570512 -0.523029 44 46 47
-86.9722 -709.712 -1882.45 0.494162 -0.146281 -0.345918 38 41 41
-86.9462 -703.622 -1882.17 0.458174 -0.173893 -0.418758 36 39 39
-86.0237 -706.835 -1878.47 0.506566 -0.200035 -0.459936 33 36 35
-85.13 -697.31 -1874.91 0.455979 -0.261312 -0.550882 30 32 31
-87.7424 -687.796 -1883.68 0.203723 -0.226078 -0.817359 37 40 39
-85.866 -688.288 -1876.96 0.298745 -0.279356 -0.704507 31 33 33
-86.2348 -679.827 -1876.34 0.239025 -0.322007 -0.643251 29 31 31
-88.4057 -674.471 -1881.78 0.231916 -0.314495 -0.595423 29 30 30
409.372 -148.057 -1874.76 -0.203413 0.876617 -0.434965 172 139 124
438.381 -145.52 -1874.99 -0.276126 0.806447 -0.514347 182 148 131
442.559 -145.709 -1878.58 -0.255003 0.751066 -0.589535 186 151 133
-188.688 -1199.08 -1868.3 0.311283 -0.0703664 0.894411 34 37 32
-184.708 -1196.53 -1870.62 0.184857 -0.0605734 0.954224 33 36 31
-179.245 -1185.87 -1873.7 0.306936 0.0801242 0.526219 34 37 32
-177.965 -1180.47 -1870.82 0.229587 0.135196 -0.0976739 34 37 32
-180.74 -1177.44 -1870.3 0.296419 0.167632 0.167664 34 36 32
-190.803 -1162.86 -1873.89 0.411636 0.214072 0.838274 35 37 32
-193.945 -1148.23 -1872.66 0.533344 0.00483381 0.254721 35 36 31
-177.541 -1149.36 -1868.61 0.138407 -0.0241159 -0.997483 35 38 34
-178.122 -1143.51 -1868.66 0.0655442 0.0110103 -1.0202 36 39 35
-172.265 -1210.99 -1870.46 0.316714 -0.131613 0.125296 35 37 34
-161.66 -1215.72 -1867.94 -0.0410464 -0.0781245 0.207681 34 37 34
-152.701 -1214.37 -1869.21 -0.0253521 -0.0717861 0.0969794 34 36 34
-145.568 -1225.3 -1867.98 -0.472588 -0.113685 0.893622 31 34 31
-175.059 -1206.37 -1873.96 0.306749 -0.190195 0.249257 36 38 34
-162.931 -879.903 -1873.98 0.461192 0.0246246 -0.885084 37 39 39
-160.911 -874.018 -1873.62 0.392001 -0.0218326 -0.914324 37 39 39
-160.756 -870.73 -1874.02 0.370154 -0.0331449 -0.920119 37 39 39
-157.892 -862.806 -1873.17 0.409551 -0.0616476 -0.898749 37 39 39
-156.644 -857.324 -1872.63 0.377056 -0.0667528 -0.905175 37 39 39
-152.812 -847.056 -1872.71 0.383023 -0.135088 -0.901587 37 39 39
-151.609 -850.567 -1870.99 0.463255 -0.12997 -0.855218 37 39 39
-149.333 -845.117 -1870.65 0.502605 -0.144526 -0.832881 37 39 39
-191.831 -833.231 -1868.83 0.278311 -0.159023 0.614815 37 40 36
-188.282 -828.266 -1871.29 0.38062 0.0229331 0.783746 37 39 37
-187.716 -824.817 -1873.09 0.437514 0.140648 0.823748 37 39 38
-193.165 -819.789 -1870.77 0.446637 0.0196174 0.79688 36 39 36
-188.79 -813.579 -1873.2 0.57894 -0.0796198 0.834594 36 38 37
-118.521 -682.796 -1870.89 0.637832 -0.18463 -0.749812 32 34 34
-113.948 -675.877 -1869.42 0.577104 -0.284296 -0.760382 30 32 32
-105.209 -669.074 -1868.37 0.460028 -0.454387 -0.762015 28 30 30
-85.1333 -679.246 -1872.26 0.26732 -0.350648 -0.557786 27 28 28
-95.6461 -659.294 -1871.75 0.40941 -0.44516 -0.717534 28 30 30
-85.6225 -669.121 -1870.52 0.226147 -0.203317 -0.282184 24 25 25
-88.5116 -660.291 -1868.45 0.249184 -0.194068 -0.265938 24 25 25
-93.2367 -658.947 -1871.88 0.36989 -0.336149 -0.537044 27 29 28
-87.1561 -658.344 -1870.77 0.236162 -0.0278249 -0.0324166 25 25 25
-88.5297 -651.22 -1870.08 0.209359 0.0138343 -0.124488 26 27 26
-95.2256 -635.447 -1870.39 0.251525 -0.0169893 -0.132623 28 29 28
-68.044 -1390.88 -1873.84 0.0532608 -0.977622 -0.00467986 6 5 4
-62.0276 -1385.7 -1867.85 0.323263 -0.499107 0.206401 30 24 18
-7.08953 -859.159 -1869.77 0.597033 0.3066 0.732136 41 43 40
-0.83339 -880.171 -1869.72 0.764741 0.0085058 0.63561 34 36 33
-1.14009 -867.769 -1871.35 0.665032 0.150891 0.718331 38 40 37
-11.07 -855.917 -1868.84 0.495385 0.314507 0.795502 38 41 38
-10.1811 -852.363 -1870.64 0.467413 0.261358 0.830823 37 40 37
-15.1642 -841.769 -1870.76 0.340409 0.196345 0.911142 34 37 34
-18.7294 -837.897 -1870.32 0.316559 0.182727 0.920545 32 35 33
-11.6049 -841.371 -1871.87 0.37108 0.150894 0.904033 36 39 36
-7.75733 -833.916 -1873.27 0.347088 0.00625685 0.92745 36 39 36
40.0719 -930.828 -1870.02 -0.460836 0.129211 0.865437 37 38 38
41.6045 -924.728 -1871.18 -0.408484 0.165312 0.886032 37 38 38
42.2599 -923.204 -1871.3 -0.406725 0.154834 0.887951 38 38 38
42.8857 -916.919 -1871.32 -0.413586 0.0514212 0.893073 38 39 39
44.0302 -909.668 -1870.61 -0.380368 -0.0177479 0.906566 38 39 38
51.0587 -915.536 -1868.73 -0.380432 0.0185716 0.911805 36 38 36
38.8241 -908.191 -1872.47 -0.362353 0.0235047 0.915627 38 39 39
38.9857 -901.677 -1871.77 -0.38146 0.0630628 0.899503 39 40 39
-21.3737 -539.87 -1872.61 -0.0906673 -0.475331 0.864033 60 63 62
-24.4459 -538.562 -1872.44 -0.0937503 -0.454393 0.875238 59 63 62
-13.1941 -540.37 -1870.93 -0.140965 -0.589742 0.784003 60 62 62
-7.24404 -539.408 -1868.26 -0.191819 -0.675725 0.716212 60 62 62
9.60357 -552.411 -1871.38 -0.36166 -0.380009 0.841661 59 60 60
12.8356 -557.845 -1872.36 -0.359439 -0.358847 0.848893 57 59 59
4.20928 -545.405 -1870.05 -0.276483 -0.484902 0.821641 60 62 62
46.9061 -616.747 -1872.94 -0.584494 -0.0812575 0.801185 46 48 45
52.0705 -629.524 -1869.5 -0.65148 -0.116946 0.740385 44 47 43
51.0288 -618.814 -1869.53 -0.614877 -0.0832307 0.780548 44 47 44
45.7241 -606.654 -1872.59 -0.554345 -0.133162 0.808449 48 50 47
33.7502 -585.091 -1873.93 -0.475555 -0.255604 0.840885 49 52 50
40.9351 -590.36 -1870.95 -0.524928 -0.252821 0.81182 48 50 48
50.466 -605.992 -1868.03 -0.651584 -0.1414 0.735301 47 50 47
33.116 -575.964 -1871.24 -0.490819 -0.25433 0.830604 51 54 52
36.957 -575.939 -1868.61 -0.522876 -0.271888 0.806127 50 53 51
31.2211 -565.076 -1868.89 -0.506757 -0.271199 0.803332 52 55 53
23.1483 -556.112 -1869.22 -0.220017 -0.425143 0.863008 55 57 56
-204.452 -1332.82 -1865.67 0.345001 -0.153576 0.927357 36 35 31
-208.977 -1319.16 -1862.19 0.304806 -0.0798304 0.941012 36 36 31
-203.833 -1309.22 -1865.21 0.367521 0.0713438 0.926923 35 34 30
-197.066 -1320.88 -1866.65 0.362934 -0.110898 0.913681 37 37 32
-197.833 -1315.97 -1866.48 0.352676 -0.00193554 0.929383 36 37 32
-208.953 -1307.62 -1863.32 0.367187 0.0443161 0.923433 34 34 30
-211.054 -1298.11 -1862.6 0.514591 -0.105063 0.832696 34 34 31
-210.161 -1295.82 -1862.24 0.527033 -0.136338 0.816284 34 34 30
-204.165 -1285.79 -1864.04 0.497772 -0.0900967 0.851182 33 34 30
-199.844 -1295.74 -1868.04 0.355029 -0.00610028 0.932141 35 35 31
-118.95 -1333.25 -1862.95 0.421542 0.155477 -0.450091 34 35 32
-120.467 -1321.97 -1863.44 0.64423 0.245524 -0.77433 33 36 33
-121.025 -1313.12 -1862.34 0.632939 0.239492 -0.747772 33 36 33
-116.596 -1308.59 -1864.3 0.602438 0.239169 -0.69467 33 35 33
-115.961 -1300.13 -1866.43 0.567575 0.224842 -0.635914 33 35 33
-156.627 -1283.63 -1864.95 -0.403307 0.00672596 0.840372 35 38 35
-154.779 -1275.72 -1863.56 -0.368799 -0.0378651 0.7371 35 38 35
-166.374 -1263.24 -1866.62 -0.192856 -0.145003 0.983824 35 38 35
-159.89 -1265.73 -1864.79 -0.287384 -0.0904456 0.958221 35 38 35
-160.469 -1259.6 -1864.7 -0.222553 -0.0997024 0.991455 34 37 34
-148.243 -1279.92 -1862.19 -0.204324 0.0278419 0.0565405 37 39 36
-150.26 -1277.89 -1862.46 -0.299786 0.00283912 0.334506 36 39 36
-138.275 -1279.19 -1866.31 -0.223244 0.066363 -0.223305 39 40 38
-140.068 -1266.09 -1867.99 -0.197836 0.0690238 -0.292498 40 41 38
-141.014 -1260.28 -1867.69 -0.237405 0.0652887 -0.0750878 38 40 37
-175.982 -1254.4 -1867.66 -0.129883 -0.145204 0.974417 35 38 35
-168.061 -1248.26 -1866.15 -0.168164 -0.00970145 0.980259 33 36 33
-152.587 -1258.61 -1863.32 -0.27424 -0.00960078 0.778227 35 38 35
-164.208 -1252.77 -1865.07 -0.178128 -0.0584563 0.988785 33 36 33
-165.953 -1241.88 -1866.16 -0.199391 0.0721073 0.979927 34 37 34
-158.51 -1244.44 -1864.24 -0.180883 0.0223598 0.999154 34 37 34
-162.337 -1236.07 -1864.86 -0.239661 -0.0143685 0.981487 34 37 34
-148.207 -1257.22 -1863.91 -0.296126 0.0247043 0.600112 35 38 35
-147.362 -1247.05 -1864.44 -0.337543 -0.0173385 0.928945 33 36 33
-148.848 -1243.85 -1864.02 -0.32643 -0.0374998 0.962468 33 36 33
-151.109 -1238.45 -1863.26 -0.313857 -0.071199 0.950861 34 37 34
-186.882 -1231.83 -1866.02 0.271109 -0.104434 0.924221 33 36 32
-185.079 -1222.86 -1863.76 0.255502 -0.156642 0.973955 34 37 32
-195.66 -1210.9 -1863.25 0.320436 0.0757021 0.618517 32 35 31
-178.129 -1220 -1865.83 0.0732616 -0.250407 0.948776 34 38 33
-178.153 -1210.12 -1866.59 0.112575 0.111008 0.784528 33 36 31
-160.88 -1069.45 -1865.01 0.207834 0.0404223 -0.971779 37 40 37
-165.326 -1065.22 -1865.87 0.156458 0.124329 -0.96949 37 40 37
-151.361 -1078.44 -1862.27 0.335812 -0.0882944 -0.932557 37 39 38
-151.08 -1062.01 -1862.98 0.268438 0.0510429 -0.947909 37 39 38
-168.856 -1054.24 -1865.26 -0.00756635 0.0814708 -0.975508 38 40 37
-170.559 -1048.94 -1865.73 -0.0280906 -0.0246578 -0.978959 37 40 37
-158.061 -1053.5 -1863.9 0.213012 0.0709986 -0.960721 38 40 38
-158.355 -1052.45 -1863.89 0.218105 0.0598603 -0.96048 39 40 38
-165.242 -1044.53 -1865.55 0.124489 -0.0700797 -0.977534 38 40 37
-160.006 -1040.2 -1863.9 0.312499 -0.0328931 -0.941014 39 41 38
-160.823 -1037.66 -1864.45 0.309414 -0.038117 -0.944237 38 40 38
-202.107 -1022.13 -1865.57 0.37373 0.0408049 0.336743 33 37 31
-200.386 -1031.85 -1866.45 0.683765 0.0206157 0.537459 34 37 32
-194.334 -1026.82 -1863.84 -0.0949677 -0.132848 -0.711625 35 38 34
-194.623 -1018.73 -1866.42 0.0156687 0.0327229 -0.560846 34 37 33
-197.033 -1011.79 -1865.63 0.0362109 0.0845723 -0.380422 35 37 34
-204.705 -998.393 -1864.83 0.864905 0.156074 0.435717 34 37 32
-208.534 -989.616 -1861.88 0.595898 -0.00779616 0.291439 35 38 33
-193.659 -1007.33 -1866.09 -0.153321 0.119585 -0.83441 35 37 34
-187.476 -997.599 -1867.87 -0.109713 0.178109 -0.622654 36 38 36
-187.985 -994.246 -1866.19 -0.0880651 0.139046 -0.382461 36 39 36
-205.198 -978.157 -1865.77 0.794745 -0.0281089 0.571382 36 38 35
-153.834 -882.413 -1867.98 0.530445 -0.0734405 -0.851743 38 40 40
-149.084 -872.001 -1865.36 0.608522 -0.0901099 -0.784252 35 37 37
-148.213 -867.574 -1865.04 0.642073 -0.0822444 -0.763435 36 38 38
-147.701 -854.044 -1867.1 0.616499 -0.139505 -0.768398 37 39 39
-142.003 -846.406 -1863.68 0.679285 -0.184206 -0.709858 37 39 39
-140.338 -835.067 -1862.22 0.659829 0.0185437 -0.738214 38 40 40
-212.848 -830.929 -1863.59 0.638075 -0.0358451 0.599692 38 40 39
-210.088 -826.202 -1864.17 0.466859 -0.019135 0.553761 37 39 38
-209.258 -819.044 -1862.49 0.535649 -0.0016899 0.657207 37 39 38
-197.893 -829.112 -1867.28 0.222452 -0.00678088 0.48928 36 39 36
-199.865 -824.146 -1867.08 0.276691 0.0153009 0.507761 36 38 35
-197.169 -812.977 -1866.53 0.556551 -0.119872 0.782863 37 40 37
-214.052 -796.769 -1862.61 0.72774 -0.0144537 0.599009 39 42 39
-209.446 -789.547 -1863.69 0.53144 -0.0196359 0.768071 39 42 39
-211.532 -787.815 -1862.83 0.579359 -0.0194235 0.734837 39 43 39
-197.412 -805.121 -1864.69 0.535722 -0.0589111 0.806397 37 40 37
-199.654 -800.003 -1863.71 0.481365 -0.00993108 0.835935 37 40 38
-170.387 -728.098 -1867.6 0.152554 0.0585749 -0.797008 39 41 41
-171.048 -716.961 -1866.53 0.123592 0.0781471 -0.866819 40 42 41
-169.093 -711.141 -1863.54 0.124559 0.0353639 -0.793301 39 41 41
-168.016 -700.904 -1864.42 0.0772143 0.00777726 -0.611425 40 42 41
-166.407 -687.533 -1864.27 0.0556892 -0.00171298 -0.575906 40 42 42
-120.844 -728.354 -1863.42 0.575403 -0.234969 -0.775817 31 33 33
-122.927 -720.965 -1867.3 0.487116 -0.181666 -0.840375 31 33 33
-115.767 -711.379 -1862.62 0.624841 -0.154919 -0.751863 29 31 31
-118.597 -702.214 -1867.16 0.610116 -0.153272 -0.773847 31 33 33
-116.449 -690.974 -1867.04 0.666127 -0.170186 -0.7299 30 32 32
-111.385 -684.63 -1864.07 0.613214 -0.245797 -0.750276 29 31 31
-162 -677.325 -1863.17 0.213584 -0.0614279 0.133168 40 43 41
-155.155 -667.897 -1862.84 0.0779428 -0.108351 -0.481096 39 41 41
166.351 -1391.01 -1865.47 -0.0848336 -0.963235 -0.14721 50 45 41
160.265 -1387.23 -1867.3 -0.154271 -0.943434 0.0510399 45 42 37
182.185 -1388.86 -1862.13 0.155503 -0.974099 -0.0245185 27 25 23
216.726 -1386.08 -1865.96 -0.200904 -0.944627 0.0931125 64 59 54
222.111 -1388.08 -1867.45 -0.287583 -0.905024 0.148152 59 53 49
149.856 -1381.36 -1866.56 0.129856 -0.8282 0.293786 44 42 36
203.634 -1383.22 -1861.2 -0.047884 -0.98724 0.030169 56 50 46
227.69 -1391.38 -1864.72 -0.434263 -0.878028 0.167158 50 46 43
223.41 -1389.51 -1862.31 -0.351531 -0.910624 0.134588 57 52 48
-13.3044 -1230.61 -1863.08 0.326577 0.0441423 0.928736 37 37 33
-3.5118 -1224.5 -1862.69 -0.0544215 0.0350483 0.979747 34 34 30
-11.0772 -1219.1 -1862.98 0.19728 0.0247373 0.965526 37 37 32
-14.4072 -1208.57 -1862.89 0.309744 0.00525571 0.947217 37 38 31
-3.03804 -1210.88 -1862.09 -0.111473 0.0476222 0.979931 34 35 30
-11.0368 -973.243 -1864.91 0.754961 -0.0847134 0.652155 39 42 37
-7.48829 -967.87 -1868.02 0.726855 -0.112268 0.674763 38 41 37
-13.7343 -955.346 -1862.84 0.671274 -0.0408206 0.719859 37 40 36
-14.4116 -948.523 -1861.81 0.706909 -0.0809777 0.682324 35 38 35
-7.7388 -940.449 -1867.55 0.704557 -0.156368 0.682051 36 39 36
39.5887 -1030.65 -1863.04 -0.626134 -0.0978975 0.491226 34 37 32
40.8488 -1018.21 -1863.36 -0.668982 0.141873 0.674298 35 37 32
44.3325 -1010.74 -1862.74 -0.712827 0.262892 0.581408 35 37 32
47.1159 -1002.08 -1862.66 -0.674906 0.210804 0.523561 34 37 32
47.198 -985.763 -1864.75 -0.806614 0.140295 0.506272 33 36 31
47.4207 -982.53 -1864.6 -0.827308 0.188288 0.455018 33 36 31
-31.8648 -845.112 -1861.86 0.542905 0.264412 0.784421 32 34 32
-2.04228 -880.474 -1867.26 0.769409 -0.00362748 0.627265 33 35 32
-6.44984 -875.851 -1862.32 0.618786 0.0572323 0.754144 34 37 34
-8.99308 -869.029 -1862.75 0.637083 0.187324 0.724615 35 38 35
-9.25521 -861.643 -1867.02 0.569544 0.333476 0.737291 39 42 39
-24.7185 -858.653 -1861.8 0.449093 0.264938 0.844658 34 35 33
-22.4312 -851.961 -1865.52 0.450171 0.297709 0.83461 33 35 33
53.5491 -931.177 -1864.36 -0.4896 0.287464 0.810743 34 37 34
59.3097 -925.095 -1862.33 -0.616001 0.165309 0.71424 35 38 35
54.8489 -916.143 -1867.35 -0.395841 0.0535121 0.903573 35 38 35
60.0782 -916.441 -1863.63 -0.561857 0.0879601 0.812189 35 38 35
69.0732 -731.207 -1862.33 -0.538643 -0.102445 0.824957 39 43 39
69.5679 -721.769 -1862.18 -0.604167 0.0221539 0.785251 39 42 38
65.7918 -713.133 -1865.97 -0.585508 0.0655173 0.806969 40 43 40
63.9913 -706.154 -1867.86 -0.546174 0.0393265 0.833271 40 45 42
67.3053 -700.093 -1865.43 -0.570189 -0.00226656 0.814312 40 44 42
66.8275 -692.134 -1865.38 -0.515779 -0.0419836 0.850402 42 45 43
71.9156 -687.653 -1862.73 -0.490534 -0.0104183 0.87013 44 47 43
61.1036 -681.672 -1868.16 -0.480856 0.00528474 0.874726 43 46 44
71.8811 -675.946 -1863.59 -0.496854 0.0569814 0.862195 43 46 43
69.4843 -666.682 -1865.04 -0.567664 0.0399067 0.795786 43 45 43
71.8876 -661.082 -1862.26 -0.693573 -0.0273679 0.708517 44 47 43
64.355 -651.125 -1866.82 -0.450615 -0.185243 0.859856 45 48 46
-65.3488 -150.434 -1861.77 0.0783847 -0.010666 0.991255 250 248 209
-56.4449 -142.328 -1862.35 0.0127378 0.187373 0.956724 248 247 205
-57.2527 -134.457 -1863.76 0.176193 0.0624673 0.960695 246 246 208
-40.0632 -140.805 -1862.53 -0.0931232 0.379867 0.912137 245 244 200
-44.4355 -136.656 -1864.69 -0.0165155 0.224896 0.947455 248 247 210
-29.0193 -137.448 -1862.42 -0.107333 0.241748 0.948837 247 245 208
-62.6903 -129.207 -1862.13 0.277164 -0.0257641 0.955478 245 244 207
-63.0914 -126.136 -1861.96 0.285188 -0.0252594 0.956815 245 244 208
-65.9395 -112.566 -1862.2 0.101317 0.00855831 0.96847 238 239 218
-59.2227 -115.299 -1864.03 0.159692 -0.0909805 0.950313 252 251 230
-192.143 -1397.59 -1858.68 -0.469453 -0.780738 0.239447 18 15 14
-183.583 -1398.43 -1861.81 0.00728848 -0.935424 0.159954 13 11 10
-199.689 -1385.81 -1860.14 -0.44931 -0.536737 0.436915 26 23 21
-179.561 -1385.2 -1855.73 0.454571 -0.247324 0.711322 26 22 21
-267.588 -1381.23 -1862.12 0.162207 -0.0189828 0.434888 43 37 32
-227.776 -1378.98 -1856.41 0.260845 -0.352493 0.884158 26 22 21
-268.52 -1349.39 -1856.13 0.446142 0.0341689 0.893712 41 38 32
-264.348 -1343.49 -1856.66 0.442612 0.0129256 0.892397 40 38 32
-270.3 -1340.94 -1856.9 0.439947 0.0132386 0.894283 40 38 32
-234.263 -1348.56 -1856.51 0.522128 0.129608 0.837068 41 40 36
-228.977 -1343.58 -1859.49 0.446958 0.00743617 0.861773 40 40 36
-232.062 -1335.2 -1857.28 0.437962 -0.25296 0.842774 39 41 35
-219.335 -1381.03 -1861.92 0.389715 -0.532575 0.622519 30 26 26
-221.196 -1374.94 -1858.61 0.318926 -0.180621 0.880011 30 26 26
-211.737 -1371.17 -1860.13 0.218998 -0.0135682 0.91101 34 31 30
-222.413 -1364.98 -1858.02 0.359327 0.0866331 0.926561 37 34 32
-226.328 -1363.76 -1856.27 0.420119 0.0616904 0.890061 38 36 33
-210.502 -1365.79 -1861.05 0.238241 0.173519 0.928698 38 35 33
-200.716 -1383.51 -1859.88 -0.440358 -0.524186 0.484251 26 23 20
-197.294 -1375.86 -1858.51 -0.252334 -0.0838324 0.858489 31 29 26
-183.864 -1377.49 -1856.07 0.126751 0.165937 0.953325 34 30 29
-188.643 -1375.72 -1857.36 -0.172877 0.109374 0.928377 34 32 30
-195.818 -1368.95 -1861.95 0.0259958 0.2333 0.940559 37 36 32
-226.729 -1354 -1859.54 0.444465 0.133915 0.881052 41 39 35
-224.183 -1337.59 -1860.12 0.371683 -0.146716 0.882841 39 39 34
158.15 -1384.91 -1860.92 -0.318083 -0.892317 0.0794523 40 37 33
163.506 -1388.93 -1856.69 -0.217432 -0.936451 0.0140265 43 39 36
183.488 -1387.12 -1857.47 0.219638 -0.946353 0.0905327 24 22 20
209.712 -1384.68 -1860.17 -0.24354 -0.968448 0.0407743 66 60 54
216.707 -1387.34 -1857.6 -0.307649 -0.940102 0.0978624 64 59 53
137.834 -1382.86 -1859.75 0.341605 -0.811434 0.266199 37 36 31
153.663 -1381.71 -1856.09 -0.315173 -0.868987 0.0393618 31 29 25
192.739 -1383.16 -1858.71 0.232422 -0.935842 0.120086 25 22 21
228.257 -1392.37 -1858.27 -0.411308 -0.888926 0.172558 53 50 46
-14.8328 -978.534 -1860.55 0.728163 -0.0911622 0.66781 38 41 37
-15.3053 -977.341 -1859.65 0.74551 -0.101293 0.651504 38 41 37
-17.1153 -960.373 -1858.32 0.765586 0.0264325 0.631343 36 38 35
-15.2071 -956.433 -1861.24 0.694736 -0.00629663 0.699405 36 39 36
-16.4476 -951.598 -1859.91 0.695008 -0.0777687 0.688374 35 38 35
-11.9748 -938.653 -1860.61 0.766512 -0.183729 0.608786 35 38 35
42.1788 -1029.98 -1860.08 -0.726962 -0.0985126 0.495062 34 36 31
47.9492 -1020.26 -1856.02 -0.680861 0.0450063 0.711621 33 35 30
45.7005 -1010.27 -1860.72 -0.730683 0.236811 0.569694 35 37 32
49.9022 -1000.13 -1858.25 -0.761042 0.185346 0.490956 34 37 33
48.7058 -986.532 -1861.4 -0.903428 0.166321 0.395172 34 36 32
72.268 -643.529 -1859.8 -0.529334 -0.152262 0.822594 45 48 46
77.3093 -679.073 -1859.01 -0.621561 -0.0659412 0.767115 43 45 41
76.8255 -673.266 -1858.09 -0.675746 -0.07871 0.715824 42 45 41
73.3285 -667.108 -1861.04 -0.699007 -0.00537787 0.700788 44 47 42
73.4602 -657.729 -1860.41 -0.731153 -0.0430716 0.686025 45 48 44
73.6633 -643.506 -1858.79 -0.564471 -0.12616 0.799015 45 48 46
-204.573 -632.45 -1856.73 0.59217 -0.147909 0.792389 44 48 46
-201.814 -631.369 -1858.53 0.597577 -0.169399 0.781375 44 48 46
-198.11 -617.286 -1861.22 0.62845 -0.00715945 0.777693 45 48 46
-200.468 -611.801 -1856.79 0.74942 -0.190478 0.607103 46 49 47
-193.216 -596.478 -1858.07 0.736298 -0.275233 0.608465 47 50 49
-191.352 -594.545 -1860.2 0.718138 -0.240862 0.641663 48 51 50
-191.114 -580.097 -1857.08 0.757408 -0.26522 0.569988 47 49 48
-187.522 -577.177 -1859.42 0.681554 -0.374146 0.607231 47 49 48
-179.957 -561.897 -1860.13 0.655196 -0.208106 0.709497 53 55 54
-20.655 -149.275 -1857.76 0.0100574 0.397357 0.916829 207 202 143
-10.493 -148.125 -1856.16 -0.290761 0.399247 0.850732 197 192 135
-15.3301 -137.922 -1860.71 -0.0961648 0.230259 0.9599 236 234 185
-9.64093 -145.148 -1856.87 -0.312301 0.362226 0.859408 201 197 141
-12.9543 -137.693 -1860.03 -0.158478 0.231415 0.943638 231 228 180
24.6947 -201.159 -1855.49 -0.54254 0.173125 0.818349 168 132 102
466.457 -105.973 -1857.4 -0.320396 -0.0471406 -0.921659 232 209 198
463.944 -97.6234 -1858.52 -0.360314 -0.126337 -0.894626 222 203 197
476.332 -124.467 -1861.12 -0.181317 0.435408 -0.871234 211 176 155
481.405 -117.499 -1859.52 -0.104669 0.272347 -0.953945 228 194 173
485.171 -114.113 -1859.55 -0.127881 0.215607 -0.963896 236 205 186
486.271 -112.248 -1859.54 -0.1353 0.193099 -0.967791 238 209 191
479.194 -104.089 -1858.89 -0.0740848 0.135067 -0.990277 231 208 195
473.088 -96.262 -1860.09 -0.18587 0.0391161 -0.956877 220 202 194
490.744 -106.465 -1860.4 -0.226162 0.131415 -0.960906 233 212 200
492.729 -100.292 -1861.56 -0.294866 0.0963513 -0.949898 215 204 199
544.005 -110.311 -1860.78 0.391383 0.382256 -0.825079 231 206 189
558.081 -126.481 -1859.62 0.332714 0.417258 -0.840027 239 205 184
567.705 -132.129 -1859.81 0.177939 0.520058 -0.799206 234 200 182
562.89 -121.12 -1856.72 0.237121 0.335389 -0.90401 239 207 187
550.921 -119.834 -1859.41 0.398814 0.418744 -0.812597 238 206 184
553.179 -113.832 -1857.2 0.365926 0.361188 -0.855135 234 207 188
563.62 -116.373 -1855.43 0.208169 0.321049 -0.908698 237 207 188
574.787 -125.2 -1857.79 -0.0771774 0.458956 -0.843453 236 204 186
587.912 -122.081 -1861.24 -0.319581 0.585644 -0.748186 229 199 183
-195.391 -1384.57 -1854.72 -0.416971 -0.212304 0.882774 31 28 25
-185.101 -1384.97 -1853.64 0.0634712 -0.089049 0.888188 30 26 24
-275.608 -1382.47 -1855.08 0.182659 -0.441168 0.152796 43 39 34
-261.164 -1381.19 -1850.95 0.0290898 -0.691891 0.277659 36 32 28
-248.377 -1380.43 -1852.84 -0.0421531 -0.609131 0.745012 37 33 31
-246.993 -1375.84 -1849.28 0.177217 -0.615597 0.723541 31 28 26
-236.331 -1381.98 -1854.37 0.162129 -0.440443 0.889713 30 27 24
-230.313 -1372.27 -1853.49 0.285954 -0.287932 0.890214 27 24 22
-228.018 -1370.2 -1854.27 0.327299 -0.155002 0.910678 29 26 24
-230.578 -1360.5 -1854.72 0.47486 0.0689638 0.854914 38 36 32
-277.672 -1347.7 -1853.63 0.442635 0.0375694 0.899492 41 38 32
-276.923 -1342.97 -1855.28 0.434856 0.0263993 0.900671 41 39 33
-268.464 -1336.89 -1849.88 0.450784 -0.0286987 0.875559 39 38 33
-241.147 -1346.42 -1852.73 0.573597 0.091663 0.804021 39 40 35
-236.508 -1347.88 -1855.59 0.541304 0.123163 0.825307 40 40 36
-239.415 -1333.72 -1852.75 0.56583 -0.227211 0.770297 37 40 34
-239.185 -1339.04 -1854.65 0.585859 -0.0395462 0.786113 39 41 35
-185.477 -1379.8 -1854.87 0.018379 0.0668167 0.931616 32 29 27
-218.284 -890.341 -1851.03 0.842561 0.216178 0.408628 36 40 38
-178.53 -898.82 -1850.08 0.629132 0.0467363 0.777242 36 38 35
-181.07 -887.709 -1853.05 0.616411 0.0592059 0.707171 36 38 36
-221.039 -875.409 -1854.06 0.861159 0.243153 0.422389 34 38 37
-222.128 -860.287 -1851.4 0.734939 -0.160535 0.611696 33 38 38
-218.921 -853.517 -1853.39 0.704795 -0.224303 0.638594 34 39 38
-221.069 -841.759 -1851.52 0.8554 0.0149029 0.497348 36 40 39
-220.685 -836.656 -1852.88 0.873727 0.0368089 0.483539 36 40 39
-135.275 -930.081 -1849.47 0.725292 0.0458775 -0.682551 33 35 35
-138.967 -924.275 -1853.24 0.733106 -0.0278736 -0.676999 34 36 36
-139.114 -910.755 -1851.73 0.799299 0.0631933 -0.598662 34 36 36
13.249 -1333.4 -1853.64 -0.452026 -0.195792 0.850022 42 42 37
20.6194 -1329.75 -1850.06 -0.335172 -0.255812 0.853643 41 41 37
20.881 -1326.45 -1850.07 -0.321557 -0.237248 0.86921 41 42 38
3.34012 -1315.13 -1854.1 -0.353586 -0.277929 0.884239 36 36 31
6.69049 -1310.6 -1851.43 -0.337988 -0.276188 0.891038 34 34 30
17.9779 -1320.29 -1850.57 -0.295395 -0.261901 0.883308 40 40 36
-4.34941 -1297.34 -1851.96 -0.402251 -0.181481 0.886186 31 30 27
-8.55975 -1292.94 -1854.08 -0.3854 -0.0711849 0.905106 33 32 28
-10.6199 -1285.96 -1855.79 -0.375364 0.0407071 0.904537 35 35 31
-0.562297 -1308.58 -1853.45 -0.357475 -0.257422 0.894883 33 32 29
-27.6016 -1280.09 -1852.24 0.601519 -0.0531554 0.792509 34 34 30
-27.211 -1258.7 -1851.23 0.42283 0.0544475 0.90443 32 33 28
-28.9538 -1250.91 -1851.25 0.387667 0.103929 0.914279 33 34 29
-29.3121 -1241.59 -1852.65 0.403357 0.121448 0.903093 34 35 29
-33.0515 -1237.93 -1851.79 0.442576 0.0794234 0.885662 33 34 28
-9.79112 -1282.38 -1855.63 -0.424493 0.0585444 0.879238 36 36 33
-2.56941 -1276.91 -1850.22 -0.501218 0.0876801 0.829024 33 32 29
-22.4891 -1260.56 -1853.7 0.445347 0.0175629 0.882823 32 33 29
-4.58699 -1268.87 -1855.05 -0.323558 0.0998911 0.917031 33 33 29
3.9282 -1262.12 -1851.75 -0.481632 0.230187 0.838093 29 28 24
70.3529 -906.663 -1852.52 -0.696283 0.196959 0.537629 34 38 35
71.2326 -896.8 -1853.3 -0.881435 -0.0351518 0.48122 36 39 35
68.8898 -885.001 -1853.7 -0.857303 -0.134854 0.446057 35 38 35
68.7266 -872.49 -1851.2 -0.868164 -0.0873954 0.453534 36 39 36
67.183 -862.977 -1854.08 -0.833626 0.00394684 0.542728 36 39 36
68.6351 -854.831 -1852.53 -0.838422 0.0450554 0.52995 37 40 37
72.0753 -840.481 -1850.58 -0.862553 0.285344 0.352984 37 40 37
-47.8699 -827.913 -1849.45 0.887366 0.0832364 0.414936 30 33 30
-46.397 -819.212 -1852.56 0.887271 0.0313563 0.434173 31 33 31
-45.1306 -804.583 -1852.57 0.862814 -0.0460857 0.444096 33 36 33
-44.7316 -802.027 -1853.4 0.854343 -0.0494163 0.440577 33 36 33
-107.948 -132.719 -1852.54 0.399988 -0.224021 0.879059 253 252 227
-107.374 -117.295 -1849.66 0.503955 -0.202993 0.832528 254 253 227
-98.3627 -127.042 -1854.71 0.309893 -0.244259 0.912101 253 252 219
-94.674 -126.051 -1855.51 0.237297 -0.256615 0.935255 253 252 218
-94.1176 -116.706 -1854.65 0.273608 -0.14119 0.946246 253 252 220
-94.3696 -108.647 -1853.85 0.239686 -0.181395 0.944695 253 252 220
-75.2908 -480.046 -1849.65 0.104099 -0.169704 0.970684 58 60 62
-26.2971 -476.978 -1849.77 0.0688658 -0.0878026 0.977805 59 60 64
-15.3871 -482.336 -1849.43 -0.167457 -0.0434623 0.972751 60 60 62
-30.3327 -109.172 -1855.15 -0.128875 -0.431722 0.883787 255 255 241
-71.6048 -92.639 -1854.2 0.189039 -0.280693 0.93875 254 253 223
-73.0194 -86.3234 -1852.37 0.181503 -0.208947 0.948208 253 252 222
-60.5532 -94.9096 -1855.02 0.0374525 -0.450491 0.880656 254 254 228
-59.4943 -89.0873 -1851.12 -0.187246 -0.435528 0.852715 253 253 229
-46.7622 -97.9049 -1851.55 -0.255885 -0.578904 0.771674 254 254 243
-43.5174 -99.38 -1851.69 -0.246945 -0.558075 0.786205 255 254 245
-33.1288 -107.328 -1854.33 -0.170391 -0.440413 0.873381 255 254 243
-30.3567 -100.763 -1852.08 0.00977504 -0.382409 0.905407 255 255 245
-10.3163 -110.288 -1855.49 -0.0372873 -0.443925 0.897697 203 200 181
6.3348 -130.605 -1853.77 -0.269793 0.306886 0.890687 66 57 48
15.5397 -132.838 -1850.81 -0.181639 0.279827 0.886593 49 42 34
0.0397076 -108.615 -1854.4 -0.00690375 -0.501532 0.835048 75 69 63
14.2942 -113.255 -1853.95 -0.446721 0.128524 0.879045 50 43 37
-21.9676 -107.92 -1854.89 0.0400898 -0.36919 0.926736 255 255 238
-23.4375 -96.0391 -1851.53 0.0938605 -0.33697 0.918769 241 240 224
-20.6388 -99.8758 -1852.81 0.0308075 -0.292297 0.941214 243 241 223
-6.54075 -107.247 -1852.79 -0.12137 -0.4837 0.851372 125 121 109
-17.2887 -95.8377 -1851.45 -0.0596005 -0.279623 0.923377 204 201 186
-0.694394 -106.138 -1851.81 0.0186482 -0.555695 0.790896 71 65 59
4.65533 -100.963 -1849.2 0.302862 -0.568257 0.730252 53 45 40
21.1054 -108.338 -1851.13 -0.351986 0.11244 0.89031 90 85 64
21.103 -99.9953 -1851.25 -0.142766 -0.0464488 0.831445 85 80 58
-78.2408 -1123.31 -1860.19 0.600538 -0.0353434 -0.242913 32 35 32
-78.4377 -1108.04 -1858.95 0.609082 -0.0495509 0.0511524 33 35 32
235.939 -1396.45 -1861.57 -0.464961 -0.857833 0.188203 46 43 40
-109.405 -1391.01 -1846.65 -0.440738 0.576995 0.401842 27 23 20
-101.797 -1396.94 -1844.65 -0.156186 -0.12383 0.459528 33 29 26
-100.78 -1389.8 -1845.06 -0.0226038 -0.17508 0.552061 30 26 24
-81.0913 -1385.5 -1845.03 -0.0372623 -0.866954 0.491386 39 35 32
-110.085 -1377.46 -1846.01 -0.128805 -0.00207243 0.295729 48 43 37
-111.245 -1366.98 -1844.91 -0.165617 0.169507 0.390143 39 37 33
-107.329 -1360.75 -1843.21 -0.508754 0.190225 0.83548 33 32 31
-92.0899 -1382.05 -1848.16 -0.0127204 -0.853389 0.409837 31 28 25
-107.563 -1357.65 -1844.35 -0.48055 0.158265 0.779992 35 33 31
-105.372 -1352.43 -1843.96 -0.413938 0.0671949 0.678945 34 32 30
-116.201 -1342.44 -1846.46 0.48924 0.268181 -0.77509 35 34 32
-117.654 -1334.42 -1848.21 0.425901 0.272226 -0.60467 35 35 33
-134.212 -1229.3 -1843.66 0.666068 0.0227804 -0.755674 32 35 32
-137.984 -1220.53 -1848.29 0.664122 -0.0400621 -0.74297 33 36 33
-134.109 -1213.09 -1845.53 0.711835 -0.0333358 -0.698447 31 34 31
-135.824 -1200.69 -1847.57 0.743305 -0.0447081 -0.665825 32 35 32
-133.728 -1190.82 -1846.8 0.738377 -0.0386071 -0.674923 32 34 33
-131.84 -1187.4 -1844.78 0.742907 -0.0214568 -0.666419 32 34 33
-133.764 -1173.1 -1844.58 0.741464 0.149381 -0.655122 32 34 33
-135.208 -1168.21 -1844.43 0.716314 0.175828 -0.676055 33 36 34
-141.712 -1156.42 -1849.23 0.65481 0.0614062 -0.747894 35 38 35
-137.681 -1149.28 -1846.3 0.664499 -0.0401772 -0.74311 33 36 33
-138.387 -1141.59 -1847.8 0.660164 -0.0206275 -0.747309 33 36 33
-121.142 -782.592 -1847.87 0.696106 -0.0581774 -0.714603 28 30 30
-117.602 -771.465 -1846.22 0.65331 -0.145104 -0.742489 30 31 31
-118.532 -764.34 -1848.88 0.62398 -0.186378 -0.758589 31 32 32
-115.09 -757.485 -1848.56 0.643209 -0.204298 -0.736191 29 29 29
-110.906 -750.006 -1846.23 0.714559 -0.17333 -0.676026 27 27 27
-109.785 -737.606 -1847.09 0.765296 -0.144102 -0.624023 28 29 29
-227.15 -725.799 -1847.63 0.856077 -0.0139334 0.499738 41 45 42
-226.807 -724.415 -1847.88 0.848636 -0.0374301 0.507566 41 45 42
-222.074 -713.869 -1849.12 0.65187 -0.352701 0.659756 40 43 40
-224.479 -695.364 -1843.4 0.707874 -0.0280855 0.706042 40 45 42
-221.669 -694.626 -1846.04 0.715269 -0.00314586 0.690739 41 45 42
-223.154 -688.667 -1844.45 0.776283 0.0252132 0.614143 40 44 41
-46.6205 -1145.94 -1844.31 0.899081 0.0518398 0.437551 33 36 30
-47.6515 -1134.45 -1843.42 0.899755 0.0711032 0.436123 33 36 30
23.3408 -1211.93 -1843.33 -0.636254 0.00312044 0.772659 26 26 22
26.5548 -1192.14 -1844.3 -0.803865 0.164998 0.560947 29 29 25
25.1324 -1182.53 -1848.2 -0.784979 0.081731 0.59536 30 30 26
25.2626 -1170.96 -1847.97 -0.813685 0.0816651 0.550961 30 30 26
28.334 -1158.78 -1849.28 -0.820132 0.344565 0.439091 32 32 28
34.3208 -1151.68 -1844.31 -0.807029 0.289076 0.481135 35 37 32
39.5253 -1139.2 -1848.04 -0.834082 0.203131 0.455122 32 32 27
-28.4665 -907.425 -1847.31 0.690668 0.0801085 0.71668 30 33 30
-33.837 -894.07 -1843.35 0.609154 0.209531 0.750998 31 33 31
-34.8472 -888.471 -1845.63 0.601481 0.258254 0.744111 30 33 31
-21.8073 -931.775 -1847.34 0.699984 0.00282897 0.706455 32 35 32
-25.881 -926.109 -1845.15 0.656919 0.127007 0.741113 31 34 31
-43.6886 -879.219 -1842.6 0.731653 0.197093 0.644709 28 32 30
-39.3891 -878.473 -1846.78 0.649431 0.259834 0.705089 29 32 30
-45.0518 -865.221 -1843.2 0.82682 0.0873472 0.55809 30 34 29
-43.0999 -855.339 -1847.89 0.769018 0.117527 0.627464 30 33 30
-47.2819 -842.934 -1846.01 0.825513 0.179073 0.521699 28 32 28
-103.98 -479.59 -1843.18 0.22298 0.0725098 0.975579 61 63 66
-102.409 -463.013 -1843.09 0.130565 -0.134528 0.976916 35 38 39
-92.2011 -477.715 -1845.51 0.196217 -0.093368 0.970008 59 61 63
-95.6134 -474.963 -1844.7 0.168074 -0.0438459 0.979268 56 58 60
-88.1339 -472.403 -1845.69 0.150085 -0.133264 0.976617 52 54 56
-83.5542 -477.322 -1847.53 0.192646 -0.185555 0.961805 58 60 62
-91.5965 -469.072 -1844.77 0.119071 -0.110507 0.98429 47 49 51
-91.4458 -463.521 -1844.38 0.0918882 -0.0797738 0.992201 40 42 44
-81.9237 -469.586 -1846.09 0.155781 -0.179136 0.966349 51 53 55
-82.4129 -461.889 -1844.97 0.0995681 -0.124563 0.97702 43 45 47
-87.077 -456.313 -1844.32 0.10053 -0.118379 0.977803 44 46 48
-82.3866 -451.333 -1843.41 0.0370694 -0.214646 0.961279 48 50 53
-78.8909 64.2331 -1848.79 -0.1417 0.200646 0.638505 28 23 26
71.9538 -616.931 -1846.17 -0.762701 -0.201017 0.606247 46 49 47
71.5876 -608.063 -1844 -0.697212 -0.230271 0.676525 46 49 48
67.2933 -601.114 -1847.09 -0.731764 -0.0931629 0.66488 48 50 49
63.3593 -586.838 -1847.79 -0.754408 -0.239021 0.597275 46 50 48
75.4507 -627.858 -1845.28 -0.711472 -0.453892 0.531011 46 50 45
73.5159 -612.205 -1843.35 -0.722309 -0.184131 0.663786 46 49 47
63.2042 -581.798 -1845.54 -0.760361 -0.295681 0.573679 45 48 46
56.3579 -568.425 -1846.75 -0.697662 -0.365389 0.607028 46 49 48
54.3699 -559.859 -1845.39 -0.690581 -0.112263 0.673633 47 50 49
-71.995 -317.388 -1843.15 -0.0451856 0.441292 0.890469 244 242 191
-64.8465 -311.931 -1846.05 0.0389179 0.33883 0.935738 242 240 189
-58.5535 -316.541 -1844.2 0.0315147 0.220402 0.95802 215 213 156
-61.4668 -313.39 -1845.29 0.0155358 0.283368 0.946913 231 229 175
-43.1882 -328.374 -1843 -0.0316522 0.184721 0.973598 210 209 154
-47.9194 -308.659 -1843.06 -0.0740832 0.0490595 0.97891 202 200 143
-34.7536 -311.014 -1843.72 -0.0577225 0.078239 0.980733 205 203 149
-65.1527 -306.549 -1848.21 0.0554896 0.301859 0.950205 250 248 200
-69.9249 -299.524 -1849.1 0.123886 0.141833 0.969683 246 244 197
-54.2905 -302.308 -1848.47 -0.137698 0.256009 0.952549 251 248 199
-72.1099 -287.169 -1846.36 0.160861 -0.208002 0.963441 227 224 172
-52.4181 -291.523 -1849.11 -0.109876 0.0217397 0.975484 249 247 199
