ply
format ascii 1.0
comment Created by Open3D
element vertex 1471
property double x
property double y
property double z
property uchar red
property uchar green
property uchar blue
end_header
-329.419 223.293 -1583 63 62 76
-326.12 223.229 -1583 65 64 78
-322.62 223.026 -1582 60 59 73
-319.531 223.104 -1583 62 61 75
-316.24 223.043 -1583 63 61 75
-313.347 223.264 -1585 62 58 73
-310.058 223.204 -1585 61 57 72
-306.578 223.004 -1584 63 59 74
-303.679 223.227 -1586 67 63 78
-300.205 223.028 -1585 67 64 79
-296.926 222.97 -1585 67 66 80
-294.02 223.195 -1587 67 66 80
-291.658 223.841 -1592 62 61 75
-288.372 223.786 -1592 61 60 74
-285.268 223.871 -1593 60 59 73
-282.161 223.957 -1594 59 58 72
-279.578 224.465 -1598 60 59 73
-276.462 224.552 -1599 58 57 71
-274.199 225.342 -1605 59 58 70
-271.744 225.992 -1610 57 56 67
-269.271 226.642 -1615 58 57 67
-266.451 227.011 -1618 55 56 68
-263.458 227.241 -1620 56 57 69
-260.619 227.612 -1623 57 58 68
-257.77 227.983 -1626 54 53 64
-254.911 228.355 -1629 46 44 56
-251.888 228.587 -1631 38 37 49
-248.858 228.819 -1633 35 34 46
-245.221 228.492 -1631 34 33 43
-241.446 228.025 -1628 41 36 45
-237.831 227.699 -1626 46 40 49
-234.515 227.654 -1626 56 49 57
-230.917 227.33 -1624 65 59 68
-228.029 227.706 -1627 62 57 68
-225.131 228.083 -1630 55 50 59
-222.223 228.46 -1633 53 49 58
-219.036 228.558 -1634 56 53 63
-215.451 228.237 -1632 55 52 62
-212.006 228.057 -1631 51 49 59
-208.311 227.597 -1628 55 54 64
-204.756 227.278 -1626 64 63 73
-201.458 227.24 -1626 67 66 76
-198.284 227.342 -1627 66 65 75
-195.227 227.584 -1629 66 65 75
-192.046 227.687 -1630 66 65 77
-188.862 227.79 -1631 65 64 76
-185.562 227.755 -1631 64 63 75
-182.376 227.86 -1632 64 63 75
-179.186 227.965 -1633 63 62 74
-175.779 227.792 -1632 72 73 87
-172.8 228.177 -1635 73 73 87
-169.707 228.424 -1637 60 59 73
-166.607 228.671 -1639 58 59 73
-163.401 228.78 -1640 61 62 77
-160.485 229.307 -1644 60 62 78
-157.363 229.556 -1646 68 69 85
-154.327 229.945 -1649 86 87 103
-151.098 230.055 -1650 90 91 106
-147.866 230.167 -1651 81 82 97
-144.456 230 -1650 76 77 92
-141.222 230.112 -1651 78 78 92
-138.236 230.643 -1655 81 81 96
-135.072 230.896 -1657 80 81 97
-132.061 231.428 -1661 75 76 92
-128.956 231.822 -1664 73 74 90
-125.69 231.937 -1665 67 68 86
-122.2 231.635 -1663 65 66 84
-119.005 231.891 -1665 76 78 96
-115.803 232.147 -1667 78 80 97
-112.661 232.544 -1670 73 75 92
-109.574 233.079 -1674 69 71 89
-106.281 233.198 -1675 66 68 86
-102.924 233.179 -1675 66 68 86
-99.6866 233.438 -1677 66 67 85
-96.2695 233.28 -1676 66 67 84
-92.8571 233.123 -1675 65 67 82
-89.503 233.106 -1675 67 69 84
-86.2009 233.229 -1676 63 66 82
-82.8956 233.352 -1677 63 66 82
-79.6345 233.615 -1679 61 65 80
-76.3205 233.74 -1680 61 65 80
-73.0466 234.004 -1682 61 65 80
-69.6823 233.99 -1682 63 65 81
-66.3975 234.256 -1684 65 67 83
-63.0679 234.383 -1685 63 65 81
-59.8055 234.789 -1688 61 62 79
-56.5317 235.195 -1691 62 63 79
-53.1521 235.185 -1691 67 70 82
-49.8317 235.453 -1693 63 66 79
-46.449 235.444 -1693 55 58 72
-43.092 235.575 -1694 57 60 72
-39.8016 236.123 -1698 64 67 78
-36.4527 236.394 -1700 65 68 80
-33.0962 236.666 -1702 62 63 77
-29.7842 237.355 -1707 64 65 79
-26.3599 237.211 -1706 68 69 85
-22.9531 237.206 -1706 68 70 84
-19.5352 237.063 -1705 73 76 89
-16.1498 237.338 -1707 81 82 97
-12.7415 237.335 -1707 86 88 104
-9.3553 237.889 -1711 87 92 110
-5.93565 237.749 -1710 78 83 100
-2.52319 237.887 -1711 71 76 92
0.892719 237.887 -1711 73 77 94
4.31892 238.444 -1715 82 88 105
7.74285 238.445 -1715 94 102 120
11.1929 239.003 -1719 103 109 128
14.6252 239.005 -1719 108 114 132
18.0364 238.73 -1717 101 107 124
21.3899 237.9 -1711 96 103 121
24.8209 238.043 -1712 96 104 122
28.3551 239.021 -1719 96 103 123
31.8807 239.722 -1724 94 101 120
35.3853 240.146 -1727 84 90 107
42.7011 242.524 -1744 88 94 113
46.1057 242.116 -1741 108 116 135
49.6698 242.542 -1744 103 110 129
53.0938 242.273 -1742 96 102 121
56.5101 242.006 -1740 98 101 122
59.919 241.738 -1738 104 109 129
63.5028 242.167 -1741 101 111 130
66.8297 241.623 -1737 102 108 126
70.546 242.471 -1743 101 105 122
74.0319 242.484 -1743 103 108 125
167.327 246.557 -1768 255 225 200
171.083 246.867 -1770 255 226 198
-987.387 216.04 -1354 0 0 0
-984.604 216.12 -1356 92 60 58
-981.823 216.2 -1358 81 53 52
-980.482 216.6 -1362 74 54 50
-975.545 216.205 -1361 68 53 50
-969.201 215.494 -1358 70 53 57
-967.153 215.737 -1361 67 55 59
-967.221 216.456 -1367 67 55 58
-961.63 215.908 -1365 67 54 58
-958.87 215.995 -1367 69 54 59
-789.911 212.022 -1405 117 103 100
-785.057 211.546 -1403 124 106 104
-776.881 210.168 -1395 126 107 102
-776.516 210.9 -1401 130 107 101
-776.128 211.632 -1407 131 105 96
-772.423 211.462 -1407 141 108 94
-768.728 211.293 -1407 150 113 90
-764.497 210.975 -1406 157 120 97
-761.903 211.108 -1408 163 125 100
-757.154 210.642 -1406 168 129 100
-756.71 211.375 -1412 174 133 100
-754.111 211.509 -1414 178 137 106
-751.51 211.644 -1416 184 142 111
-747.322 211.332 -1415 186 143 111
-743.673 211.17 -1415 196 146 108
-740.556 211.158 -1416 199 149 106
-736.4 210.849 -1415 200 149 104
-734.33 211.137 -1418 203 150 101
-729.675 210.681 -1416 206 153 103
-728.115 211.119 -1420 207 156 106
-724.502 210.962 -1420 207 157 107
-722.42 211.252 -1423 207 157 106
-719.321 211.245 -1424 206 158 105
-716.224 211.239 -1425 210 161 109
-712.629 211.086 -1425 209 159 108
-708.545 210.786 -1424 204 154 107
-705.959 210.93 -1426 204 152 106
-702.877 210.928 -1427 202 151 104
-700.778 211.221 -1430 201 151 101
-698.185 211.368 -1432 200 148 101
-695.103 211.367 -1433 197 143 101
-691.541 211.219 -1433 192 137 97
-688.467 211.22 -1434 192 136 98
-684.918 211.075 -1434 188 136 97
-681.851 211.077 -1435 190 137 99
-678.786 211.08 -1436 190 135 98
-675.723 211.084 -1437 193 138 102
-672.663 211.088 -1438 194 139 103
-669.139 210.947 -1438 194 140 102
-667.011 211.246 -1441 193 139 99
-665.336 211.692 -1445 203 146 106
-661.358 211.406 -1444 211 151 110
-657.847 211.268 -1444 213 150 109
-655.703 211.569 -1447 219 155 116
-652.649 211.578 -1448 218 158 121
-649.149 211.442 -1448 216 159 122
-646.547 211.599 -1450 216 160 121
-644.386 211.902 -1453 213 157 118
-640.894 211.768 -1453 211 154 115
-638.724 212.071 -1456 212 153 115
-636.547 212.376 -1459 212 152 114
-633.927 212.535 -1461 213 154 116
-630.01 212.258 -1460 216 156 118
-626.963 212.273 -1461 219 159 120
-623.917 212.289 -1462 223 167 126
-620.872 212.305 -1463 225 170 130
-617.407 212.177 -1463 228 173 137
-614.788 212.34 -1465 237 179 141
-611.33 212.214 -1465 242 185 146
-608.294 212.233 -1466 243 191 147
-605.672 212.398 -1468 227 191 155
-602.225 212.273 -1468 137 111 83
-599.601 212.439 -1470 73 64 54
-596.162 212.317 -1470 73 67 66
-593.535 212.484 -1472 68 64 66
-590.103 212.362 -1472 71 68 76
-586.677 212.242 -1472 75 66 76
-582.861 211.979 -1471 68 62 71
-579.448 211.86 -1471 63 60 68
-576.042 211.742 -1471 65 60 69
-573.03 211.769 -1472 62 59 69
-570.406 211.94 -1474 58 57 69
-568.163 212.256 -1477 62 58 73
-565.912 212.572 -1480 62 60 73
-562.512 212.457 -1480 59 58 70
-560.252 212.774 -1483 57 56 68
-556.856 212.661 -1483 57 56 69
-553.466 212.549 -1483 59 58 72
-549.71 212.294 -1482 58 58 74
-547.438 212.613 -1485 59 58 74
-544.425 212.646 -1486 58 57 73
-542.506 213.109 -1490 59 60 74
-539.849 213.286 -1492 60 61 76
-537.189 213.464 -1494 60 61 76
-534.525 213.642 -1496 60 61 75
-531.857 213.82 -1498 62 63 78
-528.479 213.714 -1498 62 63 79
-525.807 213.893 -1500 57 59 74
-522.783 213.931 -1501 56 57 72
-518.722 213.542 -1499 54 55 69
-516.393 213.866 -1502 53 54 67
-513.031 213.763 -1502 56 58 69
-510.352 213.946 -1504 56 59 68
-507.669 214.129 -1506 53 56 65
-505.652 214.596 -1510 50 52 62
-502.956 214.78 -1512 50 51 63
-499.595 214.681 -1512 53 54 66
-496.896 214.866 -1514 57 58 71
-493.214 214.626 -1513 61 62 76
-490.188 214.67 -1514 64 65 77
-486.842 214.573 -1514 62 63 75
-484.777 215.044 -1518 59 60 74
-481.43 214.948 -1518 54 55 67
-479.033 215.278 -1521 44 45 57
-476.001 215.325 -1522 44 45 57
-473.901 215.798 -1526 49 50 62
-470.554 215.704 -1526 53 54 66
-468.13 216.036 -1529 54 55 68
-465.394 216.227 -1531 55 56 69
-462.35 216.277 -1532 53 54 68
-458.708 216.045 -1531 57 58 70
-456.561 216.52 -1535 52 53 65
-452.925 216.29 -1534 48 49 61
-449.004 215.919 -1532 48 49 60
-445.387 215.691 -1531 56 57 68
-442.644 215.886 -1533 58 59 69
-438.75 215.518 -1531 49 50 62
-436.007 215.714 -1533 48 49 61
-432.976 215.77 -1534 55 56 68
-430.786 216.248 -1538 54 55 67
-427.748 216.305 -1539 54 55 67
-424.71 216.363 -1540 55 56 68
-421.397 216.28 -1540 57 58 70
-418.36 216.339 -1541 56 57 69
-415.053 216.258 -1541 50 53 64
-412.017 216.318 -1542 47 50 61
-409.51 216.659 -1545 48 49 62
-406.994 217.001 -1548 47 48 62
-404.208 217.202 -1550 47 48 62
-401.159 217.264 -1551 52 53 67
-398.365 217.467 -1553 55 56 70
-395.058 217.39 -1553 54 55 69
-392.006 217.454 -1554 53 54 68
-389.453 217.799 -1557 57 57 71
-386.892 218.143 -1560 60 59 73
-383.829 218.209 -1561 58 56 72
-380.765 218.275 -1562 56 55 71
-377.701 218.342 -1563 43 44 56
-374.635 218.409 -1564 40 41 52
-371.569 218.477 -1565 50 51 61
-368.737 218.685 -1567 61 62 74
-365.433 218.614 -1567 58 59 71
-362.364 218.684 -1568 54 55 67
-359.064 218.615 -1568 50 51 63
-355.541 218.407 -1567 53 54 66
-352.924 218.757 -1570 57 60 73
-350.298 219.108 -1573 51 54 67
-347.221 219.18 -1574 47 50 63
-344.361 219.393 -1576 53 54 68
-341.712 219.745 -1579 59 61 74
-338.839 219.958 -1581 55 58 71
-335.537 219.894 -1581 51 54 67
-332.447 219.969 -1582 51 54 67
-328.94 219.767 -1581 61 60 74
-325.646 219.704 -1581 63 62 76
-322.354 219.643 -1581 59 58 72
-319.066 219.582 -1581 57 56 70
-315.98 219.66 -1582 61 60 74
-313.287 220.017 -1585 63 60 75
-310.194 220.096 -1586 61 57 72
-306.906 220.038 -1586 63 59 74
-303.429 219.841 -1585 70 66 81
-300.527 220.061 -1587 67 64 79
-297.244 220.005 -1587 66 65 79
-293.964 219.949 -1587 66 65 79
-291.236 220.309 -1590 64 63 77
-288.136 220.393 -1591 63 62 76
-284.855 220.338 -1591 64 63 77
-281.754 220.423 -1592 64 63 77
-279 220.786 -1595 64 63 77
-275.891 220.872 -1596 55 54 68
-273.805 221.788 -1603 54 53 65
-271.355 222.429 -1608 56 55 65
-268.887 223.069 -1613 59 58 68
-265.577 223.019 -1613 55 56 68
-262.757 223.384 -1616 55 56 68
-259.767 223.611 -1618 60 61 72
-256.929 223.977 -1621 61 60 72
-254.081 224.343 -1624 54 53 65
-251.377 224.848 -1628 44 43 56
-248.506 225.215 -1631 42 41 53
-245.175 225.169 -1631 40 39 50
-241.697 224.985 -1630 42 38 48
-237.786 224.388 -1626 47 43 53
-234.327 224.206 -1625 58 52 61
-231.015 224.162 -1625 62 57 68
-228.127 224.533 -1628 58 54 66
-225.089 224.766 -1630 49 46 54
-222.181 225.138 -1633 53 50 58
-218.995 225.234 -1634 56 53 63
-215.543 225.056 -1633 55 52 62
-211.966 224.74 -1631 55 52 62
-208.272 224.287 -1628 57 56 66
-204.717 223.973 -1626 64 63 73
-201.42 223.935 -1626 67 66 76
-198.368 224.173 -1628 67 66 76
-195.19 224.274 -1629 66 65 75
-192.01 224.376 -1630 63 62 73
-188.942 224.615 -1632 63 62 74
-185.641 224.581 -1632 63 62 74
-182.23 224.409 -1631 63 62 73
-179.153 224.65 -1633 65 64 75
-176.069 224.892 -1635 70 71 84
-172.979 225.135 -1637 74 74 87
-169.572 224.965 -1636 60 59 72
-166.474 225.209 -1638 58 59 72
-163.37 225.453 -1640 59 60 74
-160.26 225.698 -1642 57 58 74
-157.142 225.943 -1644 58 59 74
-153.924 226.052 -1645 71 72 87
-151.161 226.848 -1651 80 81 95
-147.659 226.545 -1649 75 76 90
-144.429 226.655 -1650 70 70 84
-141.281 226.903 -1652 70 70 84
-138.211 227.29 -1655 72 71 85
-134.884 227.264 -1655 71 72 88
-131.956 227.926 -1660 62 63 79
-128.622 227.902 -1660 60 61 77
-125.591 228.427 -1664 60 61 79
-122.03 227.992 -1661 73 75 93
-118.911 228.382 -1664 73 75 93
-115.643 228.497 -1665 73 75 91
-112.573 229.025 -1669 66 67 83
-109.423 229.416 -1672 63 65 82
-106.198 229.671 -1674 64 66 83
-102.844 229.651 -1674 66 68 86
-99.5491 229.77 -1675 64 65 82
-96.0218 229.34 -1672 64 65 80
-92.7289 229.46 -1673 64 66 80
-89.326 229.305 -1672 67 69 83
-85.9792 229.289 -1672 63 65 81
-82.6825 229.411 -1673 59 63 78
-79.5248 229.944 -1677 57 62 77
-76.2154 230.067 -1678 57 62 77
-72.9895 230.464 -1681 56 60 75
-69.7108 230.725 -1683 60 62 78
-66.5035 231.261 -1687 62 64 80
-63.0936 231.112 -1686 62 64 79
-59.7944 231.375 -1688 60 61 76
-56.5213 231.775 -1691 60 61 76
-53.205 232.039 -1693 62 65 76
-49.8225 232.03 -1693 60 63 74
-46.4678 232.158 -1694 59 62 73
-43.1857 232.698 -1698 59 62 73
-39.8177 232.827 -1699 59 62 72
-36.5103 233.368 -1703 60 63 72
-33.1484 233.636 -1705 64 66 79
-29.8311 234.315 -1710 58 61 74
-26.4168 234.31 -1710 61 62 78
-22.9624 233.894 -1707 67 69 83
-19.5545 233.89 -1707 73 76 89
-16.1278 233.613 -1705 75 76 90
-12.7317 233.747 -1706 75 77 91
-9.32607 233.745 -1706 69 71 87
-5.93458 234.292 -1710 62 66 82
-2.52422 234.565 -1712 61 66 81
0.893587 234.702 -1713 74 76 92
4.32315 235.251 -1717 81 85 102
7.764 235.663 -1720 88 94 111
11.2234 236.213 -1724 101 107 124
14.6733 236.352 -1725 108 114 131
18.1171 236.355 -1725 105 111 128
21.4983 235.674 -1720 99 105 122
24.9611 235.952 -1722 85 92 109
28.4489 236.368 -1725 86 92 110
31.9486 236.785 -1728 96 102 119
35.3994 236.791 -1728 74 80 97
38.9851 237.62 -1734 48 54 71
42.5463 238.176 -1738 56 62 80
46.0442 238.321 -1739 99 105 123
49.6036 238.741 -1742 93 99 116
53.0533 238.614 -1741 80 86 103
56.4671 238.35 -1739 89 91 110
59.9424 238.361 -1739 98 102 121
63.4546 238.509 -1740 104 114 132
66.8556 238.247 -1738 117 121 139
70.5327 238.945 -1743 119 122 140
91.4542 239.035 -1743 106 116 134
95.2703 239.875 -1749 116 126 144
98.8289 240.031 -1750 124 134 152
102.685 240.872 -1756 120 130 146
106.444 241.44 -1760 116 126 143
109.721 240.912 -1756 119 129 148
112.854 240.109 -1750 131 136 152
116.429 240.268 -1751 179 180 193
119.94 240.29 -1751 232 226 231
152.888 242.577 -1766 255 227 207
156.707 243.018 -1769 254 226 205
159.904 242.498 -1765 255 226 202
163.921 243.215 -1770 255 225 199
167.296 242.971 -1768 255 223 195
170.858 243.003 -1768 255 224 194
174.421 243.035 -1768 255 223 194
177.885 242.93 -1767 255 224 194
181.347 242.826 -1766 255 223 196
369.072 257.813 -1857 255 243 214
373.331 258.162 -1859 255 243 214
377.603 258.511 -1861 255 243 214
381.681 258.722 -1862 255 246 216
385.559 258.795 -1862 255 248 221
-985.691 212.528 -1352 0 0 0
-982.19 212.45 -1353 70 54 53
-980.864 212.843 -1357 70 55 56
-977.368 212.767 -1358 66 57 54
-971.729 212.222 -1356 63 55 55
-965.402 211.523 -1353 71 55 59
-961.949 211.452 -1354 67 55 60
-775.238 207.487 -1399 134 115 114
-777.062 208.801 -1409 136 114 111
-775 209.077 -1412 141 114 108
-768.56 208.17 -1407 135 114 102
-763.243 207.561 -1404 132 110 100
-763.902 208.579 -1412 134 110 96
-759.682 208.267 -1411 140 115 94
-756.546 208.251 -1412 146 118 92
-755.014 208.679 -1416 151 120 99
-752.939 208.959 -1419 161 128 106
-748.745 208.651 -1418 166 131 108
-744.564 208.344 -1417 179 134 100
-742.488 208.626 -1420 187 139 98
-737.803 208.174 -1418 190 140 96
-736.243 208.604 -1422 192 140 94
-731.064 208.008 -1419 193 141 93
-728.472 208.146 -1421 195 145 96
-724.348 207.845 -1420 196 146 97
-721.759 207.984 -1422 195 145 96
-718.662 207.978 -1423 200 151 97
-716.574 208.265 -1426 203 153 101
-712.978 208.114 -1426 204 153 102
-709.389 207.963 -1426 203 153 104
-706.799 208.106 -1428 199 148 99
-703.713 208.103 -1429 194 142 93
-701.61 208.392 -1432 195 142 94
-698.037 208.245 -1432 191 138 91
-694.471 208.099 -1432 191 136 95
-690.431 207.809 -1431 188 133 94
-687.362 207.81 -1432 188 134 97
-683.819 207.667 -1432 185 132 96
-681.232 207.814 -1434 185 131 95
-678.171 207.817 -1435 184 129 95
-675.581 207.966 -1437 184 129 97
-672.522 207.97 -1438 182 128 94
-670.86 208.409 -1442 182 128 93
-667.334 208.27 -1442 185 133 96
-665.657 208.71 -1446 194 136 100
-662.594 208.717 -1447 201 140 103
-659.532 208.724 -1448 205 141 104
-656.019 208.588 -1448 209 144 107
-653.415 208.741 -1450 207 146 111
-649.911 208.607 -1450 206 147 112
-646.413 208.474 -1450 207 149 112
-643.809 208.628 -1452 206 146 110
-642.084 209.071 -1456 204 144 108
-639.47 209.227 -1458 203 143 107
-637.288 209.526 -1461 205 144 105
-634.664 209.683 -1463 209 147 108
-630.744 209.41 -1462 211 148 110
-627.263 209.282 -1462 215 153 112
-623.789 209.154 -1462 219 161 118
-620.321 209.027 -1462 223 166 123
-617.703 209.187 -1464 226 171 132
-615.501 209.49 -1467 233 173 132
-612.04 209.366 -1467 235 177 135
-609 209.385 -1468 240 187 143
-605.136 209.119 -1467 221 182 147
-601.692 208.997 -1467 146 116 90
-598.663 209.018 -1468 77 64 51
-595.635 209.039 -1469 72 65 64
-593.012 209.204 -1471 68 61 65
-589.984 209.227 -1472 69 63 71
-586.558 209.108 -1472 72 64 73
-582.743 208.849 -1471 66 61 69
-579.725 208.874 -1472 62 59 67
-576.708 208.9 -1473 63 58 67
-573.692 208.926 -1474 60 58 69
-571.065 209.095 -1476 58 57 69
-568.433 209.264 -1478 59 57 70
-566.563 209.717 -1482 59 58 69
-562.779 209.462 -1481 58 57 67
-560.517 209.775 -1484 56 55 67
-556.744 209.522 -1483 57 56 69
-553.728 209.552 -1484 60 59 73
-550.341 209.443 -1484 58 58 72
-547.328 209.475 -1485 56 56 70
-544.317 209.507 -1486 59 58 72
-542.397 209.963 -1490 57 58 70
-539.742 210.138 -1492 54 55 69
-536.723 210.172 -1493 53 54 68
-534.061 210.347 -1495 55 56 70
-531.041 210.383 -1496 57 58 73
-528.021 210.419 -1497 58 59 75
-525.352 210.596 -1499 56 59 72
-522.331 210.633 -1500 58 60 74
-518.273 210.25 -1498 58 59 73
-515.603 210.429 -1500 55 56 68
-512.246 210.328 -1500 55 57 67
-509.233 210.367 -1501 57 60 69
-506.895 210.688 -1504 54 57 66
-504.882 211.149 -1508 51 53 62
-502.192 211.33 -1510 49 50 60
-499.167 211.372 -1511 49 50 62
-496.47 211.555 -1513 52 53 66
-493.117 211.458 -1513 59 60 74
-490.092 211.502 -1514 65 66 78
-487.068 211.546 -1515 66 67 79
-484.043 211.591 -1516 63 64 76
-481.019 211.637 -1517 55 56 68
-478.309 211.822 -1519 46 47 59
-475.282 211.869 -1520 45 46 58
-473.498 212.474 -1525 46 47 59
-470.154 212.382 -1525 51 52 64
-467.733 212.709 -1528 52 53 65
-464.999 212.897 -1530 52 53 67
-461.959 212.946 -1531 51 52 66
-458.02 212.579 -1529 56 57 69
-455.58 212.908 -1532 50 51 63
-451.951 212.681 -1531 47 48 60
-448.331 212.455 -1530 50 51 61
-445.3 212.508 -1531 58 59 69
-442.269 212.561 -1532 57 58 68
-438.952 212.477 -1532 50 51 62
-435.638 212.392 -1532 50 51 63
-433.175 212.725 -1535 56 57 69
-430.422 212.919 -1537 55 56 68
-427.387 212.975 -1538 54 55 67
-424.628 213.17 -1540 51 52 64
-421.316 213.089 -1540 52 53 65
-418.28 213.147 -1541 52 53 65
-414.973 213.067 -1541 48 51 62
-412.205 213.265 -1543 47 50 61
-409.431 213.462 -1545 46 47 61
-407.179 213.937 -1549 46 47 61
-404.131 213.998 -1550 48 49 62
-401.34 214.197 -1552 52 53 66
-398.545 214.397 -1554 54 55 69
-395.236 214.321 -1554 54 55 69
-392.183 214.384 -1555 54 55 69
-389.629 214.723 -1558 57 57 71
-386.818 214.925 -1560 59 58 72
-383.756 214.99 -1561 58 56 72
-380.936 215.193 -1563 57 55 71
-378.354 215.534 -1566 44 45 57
-375.043 215.462 -1566 41 42 52
-371.973 215.529 -1567 47 48 58
-368.667 215.459 -1567 55 56 68
-365.13 215.252 -1566 55 56 68
-361.37 214.908 -1564 54 55 67
-358.08 214.84 -1564 51 52 64
-354.793 214.773 -1564 55 56 68
-351.958 214.981 -1566 58 61 74
-349.786 215.601 -1571 54 57 70
-346.934 215.81 -1573 49 52 65
-344.295 216.156 -1576 51 52 66
-341.431 216.366 -1578 57 59 73
-338.561 216.576 -1580 57 60 73
-335.049 216.376 -1579 52 55 68
-331.964 216.45 -1580 48 51 64
-328.254 216.114 -1578 58 57 71
-325.378 216.327 -1580 62 61 75
-322.294 216.403 -1581 59 58 72
-319.409 216.616 -1583 56 55 69
-316.12 216.557 -1583 60 59 73
-313.624 217.045 -1587 62 61 75
-310.136 216.85 -1586 61 58 72
-306.848 216.792 -1586 64 60 75
-303.563 216.735 -1586 68 64 79
-300.66 216.952 -1588 67 64 78
-297.376 216.896 -1588 65 64 78
-294.094 216.841 -1588 65 63 78
-291.182 217.059 -1590 65 64 78
-287.901 217.005 -1590 65 64 78
-284.623 216.952 -1590 65 64 78
-281.17 216.763 -1589 66 65 79
-278.248 216.984 -1591 64 63 77
-275.494 217.341 -1594 55 54 67
-273.071 217.972 -1599 51 50 62
-270.629 218.603 -1604 54 53 63
-268.17 219.234 -1609 56 55 66
-265.363 219.593 -1612 56 57 69
-262.058 219.544 -1612 56 57 69
-259.076 219.768 -1614 58 59 71
-256.247 220.129 -1617 59 59 71
-253.408 220.49 -1620 59 58 70
-250.867 221.124 -1625 49 48 62
-248.155 221.622 -1629 45 44 57
-245.129 221.848 -1631 47 46 58
-241.504 221.531 -1629 50 47 58
-237.742 221.079 -1626 55 52 62
-234.139 220.763 -1624 58 53 62
-230.83 220.72 -1624 59 55 66
-227.944 221.086 -1627 54 50 63
-225.047 221.451 -1630 49 45 54
-222.004 221.682 -1632 55 52 61
-218.686 221.641 -1632 58 55 65
-215.371 221.601 -1632 56 53 63
-211.797 221.29 -1630 55 52 62
-208.233 220.98 -1628 57 56 66
-204.679 220.67 -1626 64 63 73
-201.506 220.769 -1627 65 64 74
-198.331 220.867 -1628 65 64 74
-195.274 221.102 -1630 64 63 73
-192.209 221.338 -1632 63 62 72
-188.907 221.303 -1632 63 62 73
-185.72 221.404 -1633 63 62 74
-182.419 221.37 -1633 62 61 72
-179.12 221.337 -1633 62 61 71
-175.821 221.304 -1633 67 68 80
-172.736 221.544 -1635 75 75 87
-169.54 221.648 -1636 62 61 73
-166.24 221.617 -1636 57 58 72
-163.241 221.993 -1639 58 58 72
-160.035 222.099 -1640 60 61 75
-156.731 222.07 -1640 58 59 73
-153.428 222.041 -1640 62 63 77
-150.493 222.555 -1644 68 69 83
-147.184 222.528 -1644 68 69 83
-144.052 222.771 -1646 67 66 80
-140.828 222.881 -1647 69 68 82
-138.018 223.667 -1653 68 67 81
-134.778 223.777 -1654 65 66 82
-131.773 224.294 -1658 57 58 74
-128.443 224.27 -1658 57 58 74
-125.266 224.518 -1660 62 64 82
-121.787 224.225 -1658 80 82 100
-118.604 224.473 -1660 70 72 89
-115.343 224.587 -1661 65 67 82
-112.417 225.377 -1667 59 60 74
-109.272 225.763 -1670 55 57 73
-106.115 226.148 -1673 60 62 79
-102.702 225.994 -1672 63 65 81
-99.3525 225.976 -1672 61 63 78
-95.9467 225.823 -1671 62 63 78
-92.6565 225.941 -1672 65 66 80
-89.2562 225.789 -1671 65 66 81
-85.9634 225.908 -1672 63 65 81
-82.7661 226.298 -1675 58 60 76
-79.5102 226.553 -1677 59 62 77
-76.2922 226.944 -1680 60 63 78
-73.0195 227.201 -1682 57 60 76
-69.7808 227.593 -1685 59 61 77
-66.5307 227.986 -1688 59 60 75
-63.1942 228.109 -1689 63 64 78
-59.8542 228.233 -1690 60 61 76
-56.5443 228.493 -1692 59 60 73
-53.2267 228.753 -1694 59 60 70
-49.8428 228.743 -1694 60 61 71
-46.5415 229.14 -1697 59 61 71
-43.2286 229.537 -1700 60 62 72
-39.8807 229.799 -1702 57 59 69
-36.5465 230.197 -1705 61 63 72
-33.2395 230.866 -1710 59 62 73
-29.8431 230.995 -1711 59 61 74
-26.4274 230.99 -1711 61 62 76
-22.9985 230.85 -1710 61 63 77
-19.5624 230.577 -1708 63 66 79
-16.1344 230.303 -1706 64 65 79
-12.7368 230.436 -1707 64 65 79
-9.35174 230.974 -1711 63 64 78
-5.94741 231.377 -1714 60 63 77
-2.5282 231.511 -1715 59 63 77
0.894979 231.646 -1716 69 73 88
4.32488 231.917 -1718 77 81 97
7.76711 232.323 -1721 76 81 97
11.2149 232.595 -1723 81 87 104
14.6537 232.597 -1723 99 105 122
18.1031 232.735 -1724 101 107 124
21.5319 232.604 -1723 101 107 124
24.9567 232.473 -1722 94 100 117
28.4106 232.613 -1723 84 90 107
31.9244 233.158 -1727 98 104 121
35.3518 233.029 -1726 93 99 115
38.8655 233.441 -1729 85 91 107
42.465 234.259 -1735 92 98 114
45.9033 234.132 -1734 96 99 116
49.3952 234.276 -1735 83 87 104
52.7998 234.015 -1733 78 82 99
56.262 234.025 -1733 77 78 96
59.7244 234.035 -1733 81 83 101
63.224 234.182 -1734 88 96 114
66.7665 234.464 -1736 126 129 146
70.3985 235.017 -1740 158 160 177
84.3652 235.208 -1741 103 113 131
91.4899 235.646 -1744 110 120 139
95.1983 236.203 -1748 112 122 141
98.8108 236.491 -1750 119 129 148
102.432 236.78 -1752 114 124 140
106.122 237.204 -1755 109 119 138
109.451 236.819 -1752 105 115 136
112.704 236.298 -1748 110 111 127
116.208 236.319 -1748 159 158 169
119.918 236.746 -1751 240 230 229
142.131 238.784 -1765 253 225 200
145.677 238.81 -1765 253 224 201
149.225 238.837 -1765 255 223 205
152.947 239.136 -1767 255 222 202
156.589 239.299 -1768 255 222 201
160.237 239.464 -1769 254 221 197
163.89 239.629 -1770 255 220 195
167.454 239.659 -1770 255 220 194
171.02 239.69 -1770 255 223 195
174.389 239.451 -1768 254 221 193
177.853 239.348 -1767 253 220 192
181.416 239.381 -1767 253 219 192
185.086 239.55 -1768 254 221 194
188.548 239.449 -1767 255 220 193
192.333 239.755 -1769 255 223 198
196.239 240.197 -1772 255 223 198
200.272 240.776 -1776 255 224 198
215.372 241.743 -1782 255 227 201
249.74 243.894 -1795 255 231 204
252.97 243.533 -1792 255 231 204
256.907 243.852 -1794 255 234 207
369.996 254.694 -1862 255 238 208
374.265 255.038 -1864 255 237 206
378.14 255.108 -1864 255 235 204
382.018 255.179 -1864 254 234 203
385.9 255.251 -1864 253 235 206
389.994 255.461 -1865 254 237 211
393.884 255.535 -1865 255 241 215
-975.425 207.868 -1344 57 48 52
-970.515 207.485 -1343 57 49 55
-964.905 206.95 -1341 57 52 55
-757.101 202.848 -1393 150 137 137
-760.493 204.579 -1406 138 122 117
-756.828 204.418 -1406 133 116 104
-755.849 204.984 -1411 128 108 91
-756.986 206.131 -1420 130 106 93
-755.962 206.697 -1425 136 110 96
-751.753 206.393 -1424 143 115 100
-747.032 205.945 -1422 156 119 91
-745.467 206.367 -1426 163 123 88
-740.248 205.777 -1423 169 127 90
-737.123 205.766 -1424 171 127 89
-731.94 205.179 -1421 175 130 88
-730.369 205.603 -1425 179 133 92
-726.235 205.307 -1424 182 134 93
-723.637 205.444 -1426 185 136 95
-720.531 205.437 -1427 188 140 94
-717.931 205.575 -1429 190 139 92
-714.328 205.426 -1429 191 140 92
-710.236 205.134 -1428 193 143 92
-707.641 205.274 -1430 192 141 89
-704.059 205.128 -1430 191 136 87
-701.954 205.413 -1433 194 136 89
-698.379 205.268 -1433 188 131 84
-694.812 205.124 -1433 185 130 89
-691.252 204.981 -1433 182 128 88
-687.22 204.696 -1432 180 128 90
-684.154 204.698 -1433 182 129 94
-681.091 204.7 -1434 183 129 96
-678.975 204.989 -1437 183 128 96
-676.382 205.135 -1439 178 125 95
-674.253 205.424 -1442 175 122 90
-672.117 205.714 -1445 174 121 89
-669.048 205.719 -1446 178 125 91
-666.901 206.009 -1449 183 126 95
-663.373 205.874 -1449 190 129 98
-661.218 206.165 -1452 194 132 100
-657.244 205.889 -1451 201 136 103
-654.633 206.039 -1453 197 137 103
-651.122 205.907 -1453 197 138 104
-648.064 205.917 -1454 198 138 104
-644.565 205.786 -1454 198 136 102
-642.395 206.08 -1457 198 136 103
-639.778 206.234 -1459 197 136 103
-637.594 206.529 -1462 202 140 101
-634.536 206.542 -1463 205 141 102
-630.616 206.273 -1462 206 141 102
-627.994 206.429 -1464 210 145 104
-623.663 206.021 -1462 215 153 110
-620.195 205.896 -1462 221 161 117
-617.156 205.913 -1463 222 165 123
-614.958 206.212 -1466 230 168 123
-611.499 206.089 -1466 232 172 128
-608.048 205.967 -1466 232 178 134
-605.426 206.127 -1468 218 176 141
-601.982 206.007 -1468 154 122 95
-598.135 205.747 -1467 78 60 43
-595.516 205.909 -1469 63 55 54
-592.893 206.071 -1471 67 59 63
-589.465 205.953 -1471 69 59 67
-586.441 205.977 -1472 69 63 71
-583.418 206.001 -1473 65 61 69
-580.791 206.165 -1475 61 58 66
-577.768 206.19 -1476 61 56 65
-574.746 206.216 -1477 58 56 66
-571.725 206.243 -1478 57 56 67
-568.32 206.13 -1478 57 56 68
-565.686 206.297 -1480 56 55 66
-562.668 206.326 -1481 58 57 67
-560.406 206.633 -1484 57 56 68
-556.634 206.384 -1483 56 55 68
-553.618 206.414 -1484 58 57 70
-550.233 206.306 -1484 56 55 69
-547.589 206.477 -1486 53 52 66
-544.576 206.509 -1487 57 56 70
-542.655 206.958 -1491 57 57 69
-539.636 206.991 -1492 54 54 66
-536.258 206.886 -1492 54 54 67
-533.599 207.059 -1494 53 54 67
-530.937 207.233 -1496 56 57 72
-527.918 207.268 -1497 58 59 75
-524.899 207.304 -1498 56 59 72
-522.229 207.479 -1500 58 60 73
-518.517 207.24 -1499 58 59 72
-515.502 207.278 -1500 55 56 68
-512.146 207.179 -1500 55 56 67
-509.134 207.218 -1501 59 60 70
-506.796 207.534 -1504 56 58 67
-504.449 207.85 -1507 52 53 63
-501.762 208.029 -1509 50 51 61
-499.07 208.208 -1511 48 49 60
-496.374 208.388 -1513 48 49 61
-493.021 208.292 -1513 50 51 64
-490.321 208.473 -1515 57 58 69
-486.973 208.379 -1515 64 65 76
-483.95 208.424 -1516 62 63 75
-480.609 208.331 -1516 54 55 67
-478.217 208.651 -1519 47 48 60
-475.191 208.697 -1520 43 44 56
-473.407 209.293 -1525 44 45 56
-470.372 209.34 -1526 50 51 62
-468.255 209.799 -1530 51 52 64
-465.213 209.847 -1531 52 53 66
-462.172 209.896 -1532 53 54 68
-458.531 209.671 -1531 55 56 68
-455.79 209.858 -1533 49 50 62
-451.865 209.498 -1531 48 49 61
-448.245 209.275 -1530 53 54 64
-444.924 209.19 -1530 58 59 69
-442.185 209.38 -1532 52 53 63
-438.868 209.296 -1532 47 48 59
-435.839 209.35 -1533 50 51 63
-433.374 209.677 -1536 57 58 70
-430.62 209.868 -1538 54 55 67
-427.862 210.06 -1540 53 54 66
-425.098 210.252 -1542 50 51 63
-421.783 210.172 -1542 50 51 63
-418.743 210.229 -1543 50 51 63
-415.433 210.151 -1543 49 52 63
-412.394 210.209 -1544 50 52 64
-409.884 210.54 -1547 49 50 64
-407.365 210.871 -1550 46 47 60
-405.097 211.339 -1554 45 46 59
-401.782 211.263 -1554 49 51 63
-398.726 211.324 -1555 54 55 68
-395.924 211.521 -1557 56 57 71
-392.109 211.176 -1555 56 56 70
-389.305 211.374 -1557 57 56 70
-386.497 211.573 -1559 58 57 71
-383.683 211.772 -1561 58 57 73
-380.865 211.972 -1563 59 57 74
-378.524 212.443 -1567 46 47 59
-375.212 212.373 -1567 40 41 51
-371.903 212.303 -1567 43 44 54
-368.597 212.234 -1567 50 51 63
-364.829 211.895 -1565 55 56 68
-361.534 211.828 -1565 55 56 68
-357.784 211.49 -1563 52 53 65
-354.726 211.559 -1564 56 57 69
-351.892 211.764 -1566 60 63 76
-349.498 212.24 -1570 57 60 73
-346.649 212.445 -1572 50 53 66
-343.794 212.651 -1574 52 53 67
-340.718 212.723 -1575 56 58 72
-337.855 212.93 -1577 57 60 73
-334.35 212.733 -1576 52 55 68
-331.272 212.806 -1577 47 50 63
-327.776 212.611 -1576 57 56 70
-324.7 212.685 -1577 60 59 73
-321.214 212.491 -1576 59 58 72
-318.745 212.971 -1580 58 58 72
-315.462 212.912 -1580 60 61 75
-313.17 213.528 -1585 63 62 76
-309.883 213.47 -1585 60 57 72
-306.598 213.414 -1585 62 58 73
-303.316 213.358 -1585 65 61 76
-300.415 213.571 -1587 66 63 77
-296.946 213.382 -1586 65 64 78
-294.04 213.596 -1588 66 63 78
-290.945 213.677 -1589 67 63 78
-287.848 213.758 -1590 66 65 79
-284.391 213.571 -1589 68 67 81
-281.118 213.52 -1589 70 69 83
-278.197 213.737 -1591 68 67 81
-275.27 213.955 -1593 59 58 72
-272.85 214.576 -1598 53 52 64
-270.748 215.466 -1605 54 53 65
-268.287 216.088 -1610 56 55 66
-265.314 216.308 -1612 56 57 69
-262.009 216.259 -1612 56 57 68
-259.028 216.48 -1614 56 57 67
-255.883 216.567 -1615 57 57 70
-253.048 216.923 -1618 61 60 74
-250.512 217.547 -1623 52 51 65
-248.11 218.306 -1629 43 42 56
-244.934 218.395 -1630 45 44 56
-241.311 218.083 -1628 52 48 60
-237.845 217.905 -1627 58 54 66
-234.24 217.594 -1625 59 54 64
-230.93 217.552 -1625 59 55 66
-227.762 217.644 -1626 52 49 60
-224.868 218.004 -1629 51 48 58
-221.963 218.365 -1632 57 54 64
-218.646 218.325 -1632 57 55 65
-215.199 218.152 -1631 55 53 63
-211.628 217.846 -1629 55 52 62
-208.323 217.808 -1629 57 56 66
-204.893 217.636 -1628 62 61 71
-201.47 217.466 -1627 62 61 71
-198.295 217.563 -1628 63 62 72
-195.238 217.795 -1630 62 61 71
-192.292 218.16 -1633 63 62 72
-188.989 218.126 -1633 64 63 73
-185.914 218.359 -1635 64 63 73
-182.498 218.192 -1634 64 62 71
-179.087 218.026 -1633 63 61 70
-175.789 217.994 -1633 67 67 79
-172.599 218.096 -1634 77 76 88
-169.509 218.332 -1636 66 65 77
-166.312 218.435 -1637 56 56 70
-163.31 218.805 -1640 59 59 73
-160.103 218.91 -1641 60 61 75
-156.798 218.881 -1641 64 64 78
-153.494 218.853 -1641 64 64 78
-150.465 219.226 -1644 64 64 78
-147.337 219.465 -1646 65 65 78
-144.026 219.439 -1646 66 65 78
-140.802 219.547 -1647 67 67 81
-137.826 220.055 -1651 67 67 82
-134.509 220.03 -1651 63 64 80
-131.511 220.539 -1655 56 57 73
-128.188 220.516 -1655 56 56 71
-125.168 221.026 -1659 71 71 88
-121.765 220.871 -1658 84 85 102
-118.582 221.115 -1660 71 73 88
-115.392 221.361 -1662 65 67 81
-112.397 222.006 -1667 60 61 75
-109.121 222.119 -1668 54 55 70
-105.906 222.366 -1670 58 59 75
-102.56 222.347 -1670 61 63 79
-99.2752 222.462 -1671 60 61 76
-95.8145 222.179 -1669 60 61 76
-92.5288 222.295 -1670 65 66 80
-89.1865 222.278 -1670 64 65 79
-85.8964 222.396 -1671 62 63 78
-82.6523 222.647 -1673 59 60 75
-79.401 222.898 -1675 61 62 77
-76.1876 223.284 -1678 63 64 79
-73.0931 224.069 -1684 59 60 75
-69.7267 224.056 -1684 59 60 76
-66.4792 224.443 -1687 59 61 75
-63.1453 224.564 -1688 61 62 76
-59.8081 224.686 -1689 59 60 74
-56.4338 224.676 -1689 58 59 71
-53.1543 225.065 -1692 58 59 69
-49.8044 225.189 -1693 61 62 73
-46.5057 225.579 -1696 59 60 71
-43.17 225.837 -1698 58 59 69
-39.85 226.229 -1701 57 58 68
-36.5185 226.621 -1704 61 62 72
-33.1752 227.013 -1707 61 63 73
-29.7853 227.141 -1708 61 63 74
-26.4072 227.402 -1710 61 62 76
-22.9675 227.131 -1708 61 63 76
-19.5588 227.128 -1708 60 63 76
-16.1314 226.858 -1706 59 60 74
-12.7345 226.989 -1707 59 60 74
-9.33917 227.253 -1709 62 62 74
-5.9429 227.783 -1713 61 64 76
-2.52776 228.048 -1715 62 65 78
0.894809 228.181 -1716 67 72 87
4.3239 228.448 -1718 71 74 90
7.76573 228.848 -1721 70 72 88
11.1999 228.85 -1721 67 71 88
14.6511 229.118 -1723 83 87 104
18.1104 229.387 -1725 95 100 117
21.5279 229.124 -1723 95 99 116
24.9375 228.862 -1721 88 93 109
28.4056 229.133 -1723 90 95 112
31.8816 229.405 -1725 106 111 127
35.3249 229.411 -1725 96 101 116
38.7687 229.417 -1725 90 95 110
42.286 229.824 -1728 84 89 104
45.8421 230.364 -1732 69 71 87
49.2724 230.239 -1731 73 75 93
52.7293 230.248 -1731 74 76 94
56.2194 230.391 -1732 83 84 102
59.6447 230.269 -1731 76 78 96
63.1762 230.546 -1733 62 68 85
66.7161 230.823 -1735 74 76 93
70.3047 231.235 -1738 108 109 126
84.253 231.424 -1739 92 100 119
87.6811 231.306 -1738 95 103 122
91.316 231.721 -1741 96 104 124
94.9088 232.004 -1743 98 106 126
98.7363 232.82 -1749 105 114 134
102.413 233.238 -1752 103 113 129
106.043 233.523 -1754 97 106 124
109.556 233.542 -1754 95 102 123
112.877 233.163 -1751 96 94 109
116.453 233.317 -1752 119 115 124
123.689 233.76 -1755 253 229 210
127.572 234.448 -1760 254 227 204
131.103 234.472 -1760 254 226 201
134.788 234.762 -1762 254 226 198
138.168 234.52 -1760 253 223 195
141.864 234.812 -1762 254 220 193
145.403 234.838 -1762 253 218 191
149.029 234.998 -1763 253 216 192
152.4 234.758 -1761 254 216 192
156.472 235.586 -1767 253 215 190
160.208 235.881 -1769 252 215 187
164.046 236.311 -1772 254 217 189
167.613 236.341 -1772 255 220 191
171.085 236.238 -1771 252 216 188
174.653 236.269 -1771 252 216 187
178.021 236.034 -1769 254 217 187
181.486 235.933 -1768 255 219 191
184.947 235.833 -1767 255 218 190
188.513 235.867 -1767 255 219 190
192.19 236.035 -1768 255 218 193
196.425 236.871 -1774 255 221 195
200.01 236.907 -1774 255 222 197
207.768 237.649 -1779 255 224 199
211.368 237.687 -1779 255 224 199
215.211 237.993 -1781 255 226 200
219.188 238.433 -1784 254 226 200
223.303 239.008 -1788 255 227 199
227.055 239.182 -1789 255 226 198
230.942 239.492 -1791 255 227 199
234.97 239.935 -1794 255 227 199
238.214 239.577 -1791 255 227 200
242.258 240.022 -1794 255 230 204
245.769 239.932 -1793 255 229 201
249.416 239.977 -1793 255 231 204
252.783 239.756 -1791 255 230 204
257.003 240.337 -1795 255 233 207
260.515 240.251 -1794 255 233 205
264.32 240.432 -1795 254 233 202
268.58 241.017 -1799 255 234 204
281.935 243.178 -1814 255 237 209
286.275 243.766 -1818 255 239 210
290.633 244.355 -1822 255 239 209
297.771 244.194 -1820 255 237 207
301.337 244.115 -1819 255 237 209
305.573 244.573 -1822 255 238 212
309.484 244.764 -1823 255 239 212
313.917 245.358 -1827 255 239 211
328.043 247.684 -1843 255 237 209
332.381 248.148 -1846 255 236 209
336.37 248.344 -1847 255 237 210
339.998 248.272 -1846 255 236 212
344.183 248.604 -1848 255 238 214
348.002 248.667 -1848 255 239 215
353.348 249.809 -1856 255 238 213
357.768 250.278 -1859 255 235 211
361.814 250.479 -1860 254 233 208
366.063 250.815 -1862 255 233 204
369.728 250.748 -1861 255 229 200
373.794 250.952 -1862 250 224 195
377.867 251.156 -1863 246 219 190
382.152 251.496 -1865 243 216 186
386.035 251.567 -1865 241 214 185
389.712 251.504 -1864 245 216 189
394.233 251.981 -1867 249 224 196
397.917 251.919 -1866 253 231 205
402.892 252.669 -1871 255 239 214
406.369 252.474 -1869 255 243 217
411.598 253.36 -1875 255 242 214
415.304 253.302 -1874 255 241 213
-753.682 202.982 -1421 135 117 109
-751.068 203.111 -1423 133 114 104
-747.402 202.956 -1423 137 108 88
-745.834 203.371 -1427 137 105 79
-741.654 203.075 -1426 142 109 80
-738.522 203.064 -1427 148 113 82
-732.818 202.344 -1423 158 120 85
-730.73 202.619 -1426 163 122 89
-727.614 202.611 -1427 162 119 87
-725.009 202.745 -1429 169 124 92
-722.401 202.88 -1431 174 128 91
-719.289 202.874 -1432 179 130 90
-716.18 202.869 -1433 181 131 89
-712.079 202.581 -1432 182 133 86
-708.979 202.577 -1433 185 136 85
-705.883 202.574 -1434 190 133 86
-703.768 202.854 -1437 194 133 88
-699.697 202.57 -1436 184 126 80
-696.124 202.428 -1436 179 126 84
-692.075 202.146 -1435 178 125 85
-688.998 202.147 -1436 178 126 88
-685.447 202.008 -1436 179 127 95
-683.327 202.291 -1439 179 125 95
-681.199 202.575 -1442 177 123 94
-678.594 202.719 -1444 175 123 95
-675.052 202.582 -1444 174 121 90
-673.376 203.007 -1448 173 118 87
-669.837 202.872 -1448 174 117 85
-667.226 203.018 -1450 169 114 87
-663.239 202.744 -1449 173 116 89
-661.085 203.031 -1452 176 119 91
-658.017 203.039 -1453 185 124 97
-655.402 203.187 -1455 184 127 97
-650.991 202.777 -1453 187 130 99
-648.38 202.927 -1455 188 130 99
-644.879 202.798 -1455 191 130 100
-642.266 202.948 -1457 193 133 102
-640.088 203.238 -1460 194 134 102
-637.903 203.529 -1463 192 132 93
-634.842 203.542 -1464 193 131 93
-631.352 203.416 -1464 195 131 94
-628.298 203.43 -1465 201 136 96
-624.818 203.306 -1465 208 144 101
-620.92 203.045 -1464 213 150 106
-618.299 203.2 -1466 216 157 111
-616.094 203.494 -1469 224 161 113
-612.212 203.234 -1468 228 167 121
-609.586 203.391 -1470 224 168 126
-606.544 203.41 -1471 215 171 137
-602.683 203.153 -1470 165 130 102
-599.24 203.035 -1470 81 58 37
-596.209 203.056 -1471 63 55 53
-593.179 203.077 -1472 62 53 56
-589.749 202.962 -1472 65 54 61
-586.724 202.985 -1473 65 62 69
-583.7 203.008 -1474 65 62 70
-581.464 203.308 -1477 61 58 66
-578.046 203.195 -1477 61 56 65
-575.411 203.358 -1479 58 55 65
-572 203.246 -1479 57 56 66
-568.594 203.136 -1479 55 54 66
-565.575 203.163 -1480 54 53 63
-562.558 203.191 -1481 56 55 65
-560.297 203.494 -1484 56 55 67
-556.901 203.386 -1484 55 54 66
-554.257 203.552 -1486 56 55 67
-550.867 203.446 -1486 54 53 67
-548.22 203.614 -1488 54 53 67
-545.202 203.645 -1489 57 55 69
-542.913 203.951 -1492 56 55 67
-539.531 203.846 -1492 56 55 67
-536.513 203.88 -1493 57 56 68
-533.853 204.05 -1495 56 57 69
-530.834 204.084 -1496 54 55 70
-527.816 204.119 -1497 53 54 70
-525.148 204.291 -1499 48 51 64
-522.825 204.6 -1502 51 53 65
-518.763 204.228 -1500 54 55 67
-515.403 204.129 -1500 53 54 66
-512.389 204.167 -1501 56 57 68
-509.375 204.206 -1502 58 59 69
-506.699 204.381 -1504 56 57 67
-504.353 204.693 -1507 53 54 64
-501.666 204.869 -1509 51 52 62
-498.644 204.909 -1510 48 49 59
-496.607 205.358 -1514 50 51 62
-492.927 205.128 -1513 48 49 61
-490.227 205.307 -1515 50 51 61
-487.202 205.349 -1516 53 54 64
-483.857 205.258 -1516 54 55 66
-480.517 205.167 -1516 53 54 66
-477.811 205.347 -1518 51 52 64
-474.788 205.392 -1519 45 46 58
-472.386 205.709 -1522 42 43 54
-469.666 205.89 -1524 50 51 61
-467.248 206.207 -1527 52 53 65
-464.214 206.255 -1528 52 53 66
-461.179 206.303 -1529 53 54 67
-457.546 206.082 -1528 52 53 65
-454.812 206.266 -1530 49 50 62
-451.779 206.316 -1531 49 50 62
-448.16 206.097 -1530 53 54 64
-445.131 206.148 -1531 55 56 66
-442.102 206.2 -1532 49 50 60
-439.072 206.252 -1533 46 47 59
-435.757 206.171 -1533 49 50 62
-433.011 206.358 -1535 55 56 68
-430.54 206.681 -1538 52 53 65
-427.782 206.87 -1540 51 52 64
-425.019 207.059 -1542 50 51 63
-421.704 206.981 -1542 51 52 64
-418.664 207.037 -1543 50 51 63
-415.894 207.228 -1545 49 52 63
-412.851 207.285 -1546 49 51 63
-410.072 207.477 -1548 49 50 64
-407.814 207.937 -1552 46 47 60
-405.021 208.13 -1554 44 45 57
-401.707 208.055 -1554 44 47 58
-399.165 208.383 -1557 51 53 66
-395.597 208.175 -1556 56 57 71
-392.288 208.103 -1556 58 57 71
-388.983 208.031 -1556 57 56 70
-385.93 208.093 -1557 56 55 69
-383.367 208.423 -1560 58 56 73
-380.794 208.753 -1563 59 58 74
-378.212 209.084 -1566 48 49 61
-375.142 209.148 -1567 40 41 52
-371.834 209.08 -1567 42 43 53
-368.294 208.878 -1566 50 51 63
-364.295 208.411 -1563 57 58 70
-361.236 208.478 -1564 56 57 69
-357.489 208.146 -1562 54 55 67
-354.207 208.08 -1562 58 59 71
-351.378 208.282 -1564 61 64 77
-348.988 208.751 -1568 58 61 74
-345.924 208.82 -1569 53 56 69
-343.294 209.157 -1572 53 54 68
-340.439 209.36 -1574 57 59 72
-337.15 209.298 -1574 57 60 73
-333.864 209.237 -1574 51 54 67
-331.001 209.443 -1576 46 49 62
-327.3 209.117 -1574 57 56 70
-324.434 209.323 -1576 57 56 70
-321.563 209.53 -1578 58 57 71
-318.888 209.87 -1581 59 60 74
-315.804 209.945 -1582 60 60 74
-313.113 210.286 -1585 64 63 77
-310.022 210.362 -1586 60 57 72
-306.735 210.306 -1586 59 55 70
-303.452 210.251 -1586 62 58 73
-300.549 210.461 -1588 64 61 75
-297.079 210.275 -1587 65 64 78
-293.986 210.354 -1588 67 64 79
-291.075 210.566 -1590 67 63 78
-287.614 210.381 -1589 65 64 78
-284.16 210.197 -1588 69 68 82
-281.244 210.411 -1590 71 70 84
-278.146 210.492 -1591 67 66 80
-275.566 210.971 -1595 64 63 76
-272.8 211.319 -1598 60 59 71
-270.699 212.195 -1605 58 57 69
-267.905 212.543 -1608 57 56 68
-265.101 212.892 -1611 55 56 68
-261.962 212.977 -1612 55 56 68
-258.821 213.062 -1613 55 56 67
-255.52 213.016 -1613 56 56 70
-252.69 213.366 -1616 60 60 74
-249.849 213.717 -1619 54 53 68
-247.303 214.332 -1624 43 42 55
-244.439 214.684 -1627 40 39 51
-241.119 214.64 -1627 50 47 60
-237.656 214.465 -1626 57 53 66
-234.198 214.291 -1625 57 52 63
-231.031 214.381 -1626 57 53 64
-227.861 214.472 -1627 49 46 57
-224.965 214.827 -1630 49 46 56
-221.923 215.05 -1632 55 53 63
-218.607 215.011 -1632 55 54 64
-215.161 214.841 -1631 55 52 62
-211.72 214.671 -1630 55 52 62
-208.285 214.501 -1629 57 56 67
-204.856 214.333 -1628 62 61 72
-201.557 214.297 -1628 60 59 69
-198.259 214.261 -1628 60 59 69
-194.963 214.226 -1628 60 59 69
-192.022 214.586 -1631 63 62 71
-188.839 214.683 -1632 64 63 73
-185.767 214.913 -1634 63 62 72
-182.242 214.617 -1632 64 61 70
-178.945 214.585 -1632 64 61 69
-175.543 214.422 -1631 65 64 76
-172.357 214.522 -1632 75 74 86
-169.272 214.755 -1634 68 67 79
-166.282 215.119 -1637 57 56 70
-163.281 215.484 -1640 59 58 72
-159.977 215.455 -1640 60 60 74
-156.674 215.427 -1640 65 64 78
-153.373 215.4 -1640 64 63 77
-150.255 215.635 -1642 63 62 76
-147.042 215.74 -1643 65 64 77
-143.913 215.977 -1645 65 64 76
-140.692 216.083 -1646 63 64 78
-137.551 216.321 -1648 65 66 81
-134.485 216.691 -1651 61 62 78
-131.408 217.061 -1654 56 56 71
-128.32 217.431 -1657 54 53 67
-125.07 217.54 -1658 72 72 87
-121.67 217.387 -1657 78 79 95
-118.347 217.366 -1657 64 67 80
-115.233 217.738 -1660 60 62 75
-112.242 218.374 -1665 61 62 76
-108.971 218.486 -1666 56 57 72
-105.697 218.598 -1667 58 59 74
-102.481 218.842 -1669 60 61 77
-99.1386 218.824 -1669 59 60 76
-95.74 218.675 -1668 60 61 76
-92.5124 218.921 -1670 64 65 79
-89.2774 219.167 -1672 62 63 77
-85.9839 219.283 -1673 60 60 74
-82.6871 219.399 -1674 58 59 73
-79.5764 220.04 -1679 60 61 75
-76.3103 220.288 -1681 61 62 76
-72.9933 220.406 -1682 59 60 74
-69.7557 220.786 -1685 60 61 75
-66.5068 221.167 -1688 60 61 75
-63.1342 221.156 -1688 60 61 75
-59.8328 221.407 -1690 58 59 73
-56.4571 221.397 -1690 57 58 71
-53.1134 221.518 -1691 59 60 70
-49.7661 221.64 -1692 62 63 74
-46.4151 221.762 -1693 58 59 71
-43.1114 222.147 -1696 58 59 69
-39.7961 222.533 -1699 58 59 69
-36.4477 222.788 -1701 59 60 70
-33.111 223.175 -1704 59 60 70
-29.7452 223.431 -1706 60 61 71
-26.3562 223.557 -1707 60 61 74
-22.9634 223.684 -1708 60 62 74
-19.5553 223.68 -1708 57 60 71
-16.138 223.546 -1707 53 55 68
-12.7546 223.937 -1710 55 56 69
-9.35395 224.197 -1712 63 60 73
-5.94881 224.588 -1715 60 62 75
-2.52734 224.587 -1715 61 64 77
0.894641 224.718 -1716 67 70 85
4.32313 224.98 -1718 67 69 84
7.75062 224.982 -1718 65 66 81
11.1849 225.114 -1719 61 63 78
14.6315 225.378 -1721 64 66 81
18.0862 225.643 -1723 76 79 95
21.5366 225.778 -1724 80 84 100
24.9332 225.389 -1721 83 88 104
28.3839 225.525 -1722 91 96 112
31.8204 225.53 -1722 95 100 115
35.2573 225.536 -1722 84 87 103
38.7168 225.673 -1723 77 80 94
42.254 226.205 -1727 65 69 82
45.7545 226.474 -1729 61 63 79
49.1497 226.221 -1727 71 73 90
52.6286 226.361 -1728 73 75 92
56.0794 226.37 -1728 87 88 106
59.5308 226.381 -1728 86 88 106
63.0556 226.653 -1730 71 77 94
66.6271 227.058 -1733 63 65 81
70.1709 227.332 -1735 65 65 81
73.6384 227.345 -1735 79 80 95
77.1953 227.62 -1737 95 99 115
80.6678 227.634 -1737 99 105 123
84.2864 228.042 -1740 94 100 118
87.7663 228.057 -1740 91 97 115
91.457 228.598 -1744 91 97 117
94.783 228.221 -1741 91 97 117
98.5494 228.893 -1746 89 96 115
102.161 229.173 -1748 93 100 116
105.903 229.716 -1752 90 96 114
109.224 229.342 -1749 88 93 113
112.921 229.755 -1752 89 84 98
116.232 229.382 -1749 102 95 103
120.012 229.928 -1753 187 172 165
123.667 230.212 -1755 249 222 201
127.259 230.365 -1756 251 220 194
130.93 230.65 -1758 251 218 191
134.611 230.936 -1760 252 217 188
138.379 231.354 -1763 251 214 184
141.999 231.51 -1764 251 213 183
145.542 231.536 -1764 252 213 184
149.087 231.562 -1764 253 214 184
152.718 231.72 -1765 252 213 186
156.533 232.142 -1768 252 212 185
160.179 232.301 -1769 252 213 180
163.924 232.593 -1771 251 213 179
167.583 232.753 -1772 250 211 178
171.151 232.784 -1772 251 211 180
174.523 232.552 -1770 252 212 180
178.09 232.583 -1770 253 213 180
181.248 232.089 -1766 252 213 182
185.019 232.385 -1768 253 214 183
188.373 232.155 -1766 255 216 185
192.155 232.452 -1768 254 218 191
196.168 233.013 -1772 255 221 194
199.974 233.311 -1774 255 223 196
203.904 233.742 -1777 255 224 197
207.964 234.305 -1781 255 224 197
211.568 234.342 -1781 255 224 197
215.414 234.643 -1783 255 224 197
219.271 234.945 -1785 255 225 198
223.137 235.248 -1787 255 226 197
227.268 235.815 -1791 255 225 196
231.287 236.251 -1794 255 226 197
235.059 236.425 -1795 255 227 198
238.703 236.467 -1795 255 227 199
242.62 236.774 -1797 255 229 200
245.724 236.29 -1793 255 230 201
249.51 236.467 -1794 255 230 202
253.302 236.643 -1795 255 231 203
257.815 237.48 -1801 255 231 202
261.194 237.263 -1799 255 231 202
265.156 237.574 -1801 255 232 204
268.979 237.754 -1802 255 233 205
273.413 238.463 -1807 255 234 206
277.87 239.172 -1812 255 235 207
282.35 239.882 -1817 255 236 210
286.695 240.462 -1821 255 237 210
290.9 240.91 -1824 255 237 207
294.311 240.698 -1822 255 236 206
298.044 240.752 -1822 255 235 206
301.779 240.806 -1822 255 236 208
305.853 241.125 -1824 255 236 210
310.446 241.842 -1829 255 236 210
314.719 242.295 -1832 255 237 209
319.528 243.146 -1838 255 236 208
324.013 243.733 -1842 255 235 207
328.873 244.586 -1848 255 235 207
332.321 244.381 -1846 254 234 206
336.491 244.706 -1848 255 234 206
340.304 244.767 -1848 255 232 205
344.679 245.227 -1851 255 232 205
349.445 245.952 -1856 255 232 206
353.664 246.281 -1858 254 230 203
357.895 246.611 -1860 252 229 204
362.72 247.339 -1865 250 225 200
366.979 247.671 -1867 246 218 192
370.852 247.738 -1867 244 214 189
374.93 247.938 -1868 239 210 184
378.812 248.007 -1868 234 204 179
382.902 248.209 -1869 233 202 178
386.585 248.146 -1868 234 201 177
390.268 248.084 -1867 237 201 177
394.794 248.554 -1870 243 208 184
398.696 248.626 -1870 251 221 198
403.464 249.232 -1874 255 232 209
405.86 248.374 -1867 255 233 211
411.083 249.247 -1873 255 237 210
423.088 249.609 -1874 255 241 219
-751.974 201.088 -1432 146 125 111
-748.816 201.075 -1433 130 109 92
-742.022 200.082 -1427 128 104 85
-737.336 199.651 -1425 127 102 79
-731.638 198.941 -1421 130 100 74
-730.068 199.353 -1425 142 108 85
-728.485 199.764 -1429 145 108 86
-725.876 199.896 -1431 152 112 91
-724.778 200.448 -1436 157 115 89
-721.654 200.441 -1437 163 117 87
