ply
format ascii 1.0
comment Created by Open3D
element vertex 1459
property double x
property double y
property double z
property uchar red
property uchar green
property uchar blue
end_header
-110.505 -121.931 -1598 54 55 65
-107.381 -121.996 -1599 55 56 66
-104.45 -122.29 -1603 54 55 65
-101.503 -122.585 -1607 53 54 64
-98.4808 -122.803 -1610 52 53 63
-95.3876 -122.946 -1612 53 54 64
-92.4587 -123.318 -1617 55 56 66
-89.29 -123.385 -1618 56 57 67
-86.3839 -123.833 -1624 59 60 71
-83.6594 -124.587 -1634 63 64 76
-80.8957 -125.341 -1644 65 66 78
-77.9039 -125.79 -1650 49 50 62
-74.8889 -126.24 -1656 46 47 59
-71.5912 -126.232 -1656 46 47 59
-68.2117 -126.073 -1654 50 51 63
-64.7228 -125.685 -1649 55 57 64
-403.498 -125.214 -1567 74 71 79
-401.961 -125.729 -1574 68 67 76
-398.624 -125.685 -1574 55 54 64
-394.538 -125.402 -1571 49 48 60
-391.714 -125.519 -1573 46 46 58
-388.884 -125.636 -1575 46 46 58
-386.049 -125.753 -1577 48 49 63
-383.209 -125.87 -1579 50 50 63
-380.364 -125.988 -1581 53 52 63
-376.083 -125.628 -1577 54 54 66
-371.585 -125.189 -1572 55 56 68
-366.878 -124.671 -1566 54 57 68
-363.127 -124.472 -1564 53 55 66
-359.388 -124.273 -1562 53 54 66
-356.573 -124.393 -1564 51 52 64
-353.526 -124.435 -1565 49 50 62
-350.478 -124.476 -1566 50 51 63
-347.208 -124.438 -1566 49 52 63
-343.72 -124.321 -1565 50 53 63
-340.023 -124.125 -1563 47 50 59
-336.767 -124.088 -1563 45 48 58
-333.301 -123.973 -1562 46 49 60
-329.842 -123.857 -1561 48 51 62
-326.39 -123.742 -1560 49 52 63
-323.152 -123.707 -1560 50 51 65
-319.096 -123.356 -1556 51 52 67
-315.263 -123.083 -1553 53 54 70
-311.645 -122.891 -1551 49 50 63
-307.84 -122.62 -1548 48 49 62
-304.64 -122.587 -1548 50 51 64
-301.053 -122.396 -1546 50 51 65
-297.863 -122.364 -1546 50 52 65
-294.484 -122.253 -1545 47 51 63
-291.112 -122.142 -1544 50 54 67
-287.56 -121.953 -1542 51 55 69
-284.572 -122.001 -1543 53 55 70
-281.035 -121.813 -1541 53 54 71
-278.05 -121.862 -1542 53 52 71
-274.528 -121.674 -1540 51 51 62
-271.369 -121.645 -1540 53 53 62
-268.212 -121.616 -1540 51 53 66
-265.057 -121.587 -1540 51 54 68
-261.905 -121.559 -1540 52 56 71
-258.587 -121.452 -1539 52 56 70
-255.607 -121.504 -1540 55 59 73
-252.133 -121.319 -1538 60 60 73
-248.994 -121.292 -1538 62 60 74
-245.856 -121.265 -1538 61 58 72
-242.878 -121.318 -1539 58 58 72
-239.899 -121.371 -1540 57 57 70
-236.763 -121.346 -1540 58 56 70
-233.629 -121.321 -1540 60 60 72
-230.348 -121.217 -1539 64 65 76
-227.22 -121.193 -1539 65 64 76
-224.24 -121.247 -1540 65 64 76
-221.401 -121.381 -1542 66 65 78
-218.555 -121.515 -1544 63 62 75
-215.844 -121.728 -1547 64 63 76
-212.571 -121.627 -1546 58 60 75
-209.44 -121.604 -1546 57 59 74
-206.311 -121.582 -1546 56 58 72
-203.314 -121.639 -1547 53 54 69
-200.186 -121.618 -1547 49 51 65
-197.06 -121.597 -1547 53 52 66
-194.186 -121.733 -1549 53 56 68
-191.059 -121.712 -1549 50 57 66
-188.176 -121.85 -1551 52 55 68
-184.928 -121.751 -1550 55 58 71
-181.921 -121.81 -1551 56 57 69
-179.141 -122.027 -1554 55 54 64
-176.125 -122.086 -1555 57 56 64
-172.883 -121.989 -1554 58 57 68
-170.084 -122.207 -1557 61 60 71
-167.167 -122.346 -1559 61 60 73
-164.033 -122.328 -1559 58 58 72
-161.003 -122.39 -1560 59 60 74
-158.072 -122.53 -1562 57 60 70
-155.134 -122.67 -1564 52 55 65
-152.383 -122.968 -1568 50 53 64
-149.523 -123.187 -1571 53 55 66
-146.559 -123.328 -1573 55 56 68
-143.496 -123.391 -1574 54 55 67
-140.431 -123.454 -1575 53 54 65
-137.45 -123.597 -1577 48 50 59
-134.292 -123.582 -1577 45 48 57
-131.302 -123.725 -1579 47 49 59
-128.304 -123.868 -1581 49 50 60
-125.22 -123.933 -1582 49 50 60
-122.288 -124.155 -1585 53 54 64
-119.419 -124.456 -1589 59 58 68
-116.536 -124.756 -1593 58 57 67
-113.495 -124.901 -1595 57 58 68
-110.517 -125.124 -1598 57 58 68
-107.46 -125.269 -1600 57 58 68
-104.526 -125.571 -1604 54 55 65
-101.388 -125.639 -1605 52 53 62
-98.3686 -125.863 -1608 51 52 62
-95.3383 -126.087 -1611 51 52 62
-92.3539 -126.391 -1615 52 53 63
-89.2992 -126.616 -1618 57 58 68
-86.3397 -126.998 -1623 60 61 72
-83.668 -127.85 -1634 63 64 76
-80.9041 -128.624 -1644 62 63 74
-77.912 -129.085 -1650 46 47 59
-74.8515 -129.468 -1655 46 47 59
-71.5554 -129.46 -1655 48 49 61
-68.2187 -129.374 -1654 54 55 67
-64.6902 -128.898 -1648 57 59 66
-404.315 -128.657 -1570 77 74 82
-402.771 -129.185 -1577 70 68 78
-399.682 -129.222 -1578 56 55 66
-394.331 -128.522 -1570 49 48 60
-391.508 -128.642 -1572 48 47 59
-388.68 -128.762 -1574 49 48 60
-385.847 -128.882 -1576 47 48 62
-383.251 -129.084 -1579 47 47 60
-379.925 -129.041 -1579 51 50 61
-375.886 -128.754 -1576 55 55 67
-371.153 -128.222 -1570 55 56 68
-366.684 -127.772 -1565 53 56 67
-362.935 -127.568 -1563 53 55 66
-359.658 -127.528 -1563 53 54 66
-356.612 -127.57 -1564 51 52 64
-353.791 -127.693 -1566 49 50 62
-350.293 -127.572 -1565 49 50 62
-346.802 -127.452 -1564 49 52 63
-343.319 -127.332 -1563 49 52 63
-339.625 -127.131 -1561 45 48 57
-336.373 -127.094 -1561 44 47 57
-333.124 -127.056 -1561 46 49 60
-329.878 -127.02 -1561 48 51 62
-326.425 -126.902 -1560 49 52 64
-322.98 -126.784 -1559 51 52 66
-319.541 -126.668 -1558 51 52 67
-315.5 -126.307 -1554 53 54 70
-311.88 -126.11 -1552 49 50 62
-308.072 -125.832 -1549 47 48 60
-304.87 -125.798 -1549 51 52 64
-301.281 -125.602 -1547 51 52 66
-298.088 -125.569 -1547 50 51 64
-294.707 -125.455 -1546 48 51 60
-291.332 -125.342 -1545 51 54 65
-287.591 -125.066 -1542 53 56 69
-284.603 -125.116 -1543 53 56 69
-281.248 -125.004 -1542 54 56 70
-277.899 -124.892 -1541 52 53 69
-274.914 -124.942 -1542 51 51 62
-271.574 -124.831 -1541 53 52 62
-268.241 -124.721 -1540 49 50 64
-265.086 -124.691 -1540 51 52 67
-262.104 -124.743 -1541 51 53 69
-258.615 -124.553 -1539 51 53 69
-255.635 -124.605 -1540 52 54 70
-251.997 -124.335 -1537 56 57 73
-248.859 -124.308 -1537 59 58 74
-245.723 -124.28 -1537 59 57 74
-242.905 -124.415 -1539 56 57 73
-239.769 -124.389 -1539 52 53 69
-236.788 -124.444 -1540 52 52 68
-233.503 -124.337 -1539 55 56 68
-230.373 -124.312 -1539 57 58 68
-227.097 -124.206 -1538 59 58 68
-223.973 -124.181 -1538 63 62 73
-221.281 -124.399 -1541 65 64 76
-218.438 -124.537 -1543 61 60 72
-215.727 -124.755 -1546 60 59 72
-212.732 -124.812 -1547 55 57 73
-209.598 -124.789 -1547 51 52 68
-206.333 -124.686 -1546 55 56 71
-203.205 -124.664 -1546 53 54 70
-200.337 -124.803 -1548 47 47 63
-197.081 -124.701 -1547 48 47 61
-194.081 -124.76 -1548 49 51 63
-191.079 -124.82 -1549 49 55 64
-188.074 -124.88 -1550 54 57 70
-185.067 -124.94 -1551 53 55 68
-182.057 -125 -1552 55 54 66
-179.16 -125.142 -1554 55 53 64
-176.144 -125.203 -1555 55 52 62
-173.124 -125.265 -1556 55 54 65
-170.102 -125.326 -1557 59 58 68
-167.185 -125.469 -1559 59 58 70
-164.261 -125.612 -1561 57 58 70
-161.123 -125.595 -1561 60 61 73
-158.291 -125.819 -1564 58 61 73
-155.25 -125.882 -1565 53 56 68
-152.205 -125.946 -1566 52 55 66
-149.349 -126.171 -1569 54 55 67
-146.481 -126.396 -1572 55 56 68
-143.603 -126.621 -1575 55 56 68
-140.625 -126.767 -1577 54 56 67
-137.639 -126.913 -1579 49 51 60
-134.477 -126.898 -1579 46 49 58
-131.399 -126.964 -1580 46 49 58
-128.318 -127.03 -1581 48 49 59
-125.233 -127.097 -1582 48 49 59
-122.301 -127.324 -1585 51 52 62
-119.357 -127.552 -1588 58 58 68
-116.548 -127.941 -1593 59 59 69
-113.65 -128.25 -1597 59 60 70
-110.736 -128.559 -1601 59 60 70
-107.606 -128.628 -1602 58 59 69
-104.602 -128.857 -1605 56 56 64
-101.525 -129.006 -1607 53 53 62
-98.3179 -128.996 -1607 51 52 62
-95.3484 -129.306 -1611 51 52 62
-92.3066 -129.537 -1614 52 53 63
-89.3087 -129.848 -1618 56 57 67
-86.5085 -130.481 -1626 60 61 71
-83.7281 -131.194 -1635 62 63 73
-80.9127 -131.907 -1644 57 58 70
-77.9675 -132.46 -1651 46 47 59
-74.8594 -132.773 -1655 44 45 57
-71.563 -132.765 -1655 48 49 61
-68.2259 -132.677 -1654 54 55 67
-404.605 -132.99 -1584 75 72 83
-400.994 -132.86 -1583 64 62 73
-395.129 -131.975 -1573 54 53 65
-392.3 -132.097 -1575 49 48 60
-389.465 -132.22 -1577 47 46 56
-386.625 -132.343 -1579 45 46 60
-383.052 -132.215 -1578 46 47 59
-380.449 -132.422 -1581 52 51 61
-376.167 -132.044 -1577 55 56 67
-370.959 -131.331 -1569 57 58 70
-367.194 -131.122 -1567 56 59 70
-362.976 -130.745 -1563 56 58 70
-359.699 -130.704 -1563 55 56 68
-356.653 -130.747 -1564 53 54 66
-353.605 -130.79 -1565 51 52 64
-350.557 -130.833 -1566 49 50 62
-347.063 -130.71 -1565 48 51 62
-343.577 -130.587 -1564 48 51 62
-339.663 -130.297 -1561 45 48 57
-336.411 -130.259 -1561 44 47 57
-333.375 -130.304 -1562 46 49 60
-330.126 -130.266 -1562 49 52 63
-326.671 -130.145 -1561 49 52 63
-323.223 -130.025 -1560 51 52 65
-319.372 -129.739 -1557 51 52 67
-315.535 -129.453 -1554 52 53 69
-311.915 -129.251 -1552 50 51 63
-308.107 -128.966 -1549 49 50 62
-304.707 -128.848 -1548 51 52 64
-301.315 -128.73 -1547 50 51 65
-298.314 -128.779 -1548 47 48 62
-294.74 -128.579 -1546 51 50 60
-291.365 -128.463 -1545 52 52 63
-287.996 -128.347 -1544 53 53 65
-284.819 -128.315 -1544 54 56 66
-281.644 -128.283 -1544 55 56 68
-278.291 -128.168 -1543 52 53 66
-275.123 -128.137 -1543 52 50 64
-271.605 -127.94 -1541 57 53 68
-268.271 -127.826 -1540 53 52 68
-265.116 -127.796 -1540 51 51 66
-261.792 -127.684 -1539 50 51 66
-258.476 -127.572 -1538 54 54 69
-255.331 -127.543 -1538 56 56 71
-251.861 -127.348 -1536 53 55 69
-248.886 -127.403 -1537 53 54 69
-245.43 -127.209 -1535 53 54 69
-242.774 -127.431 -1538 52 54 69
-239.795 -127.486 -1539 49 52 67
-236.815 -127.542 -1540 50 53 67
-233.832 -127.599 -1541 51 54 66
-230.548 -127.49 -1540 53 56 67
-227.27 -127.382 -1539 58 58 69
-224.143 -127.356 -1539 60 60 72
-221.162 -127.414 -1540 61 61 74
-218.32 -127.555 -1542 60 60 73
-215.611 -127.779 -1545 59 59 72
-212.618 -127.838 -1546 57 58 73
-209.486 -127.814 -1546 54 55 69
-206.356 -127.791 -1546 51 52 66
-203.359 -127.851 -1547 49 50 64
-200.23 -127.828 -1547 53 54 68
-196.975 -127.723 -1546 54 52 63
-194.103 -127.867 -1548 53 52 62
-191.1 -127.928 -1549 53 55 62
-188.095 -127.989 -1550 49 50 61
-184.968 -127.969 -1550 52 53 65
-182.195 -128.196 -1553 53 52 65
-179.18 -128.258 -1554 52 51 63
-176.05 -128.238 -1554 54 53 65
-173.143 -128.384 -1556 53 54 64
-170.23 -128.53 -1558 55 56 66
-167.203 -128.594 -1559 57 57 68
-164.384 -128.823 -1562 58 58 70
-161.348 -128.887 -1563 59 60 72
-158.41 -129.034 -1565 58 59 74
-155.366 -129.099 -1566 54 56 70
-152.416 -129.247 -1568 50 53 64
-149.46 -129.395 -1570 49 51 63
-146.497 -129.543 -1572 49 50 62
-143.71 -129.857 -1576 52 53 65
-140.729 -130.006 -1578 53 54 65
-137.654 -130.073 -1579 48 51 60
-134.577 -130.14 -1580 48 50 59
-131.413 -130.125 -1580 46 48 57
-128.332 -130.193 -1581 48 49 59
-125.247 -130.262 -1582 49 50 60
-122.237 -130.412 -1584 49 50 60
-119.445 -130.811 -1589 57 57 67
-116.488 -131.045 -1592 60 60 70
-113.662 -131.443 -1597 59 60 70
-110.748 -131.76 -1601 59 60 70
-107.684 -131.913 -1603 57 58 68
-104.679 -132.148 -1606 58 57 65
-101.536 -132.219 -1607 55 54 63
-98.3286 -132.208 -1607 52 53 63
-95.2997 -132.444 -1610 52 53 63
-92.2595 -132.68 -1613 52 53 63
-89.2081 -132.917 -1616 57 59 67
-86.4115 -133.565 -1624 58 59 68
-83.8398 -134.625 -1637 60 61 71
-80.9707 -135.274 -1645 54 55 66
-77.9288 -135.676 -1650 47 48 60
-74.8676 -136.079 -1655 43 44 56
-71.5708 -136.071 -1655 47 48 60
-68.2334 -135.981 -1654 51 52 64
-401.547 -136.262 -1585 66 63 75
-395.929 -135.441 -1576 58 57 68
-393.342 -135.652 -1579 52 51 62
-390.004 -135.606 -1579 48 47 58
-386.67 -135.56 -1579 44 45 59
-383.825 -135.686 -1581 46 47 59
-380.493 -135.641 -1581 51 51 61
-376.688 -135.425 -1579 54 55 67
-371.711 -134.781 -1572 56 58 69
-367.94 -134.566 -1570 57 60 71
-363.25 -134.009 -1564 57 59 71
-359.971 -133.967 -1564 55 56 68
-356.694 -133.925 -1564 54 55 67
-353.646 -133.969 -1565 52 53 65
-350.149 -133.842 -1564 52 53 65
-346.66 -133.716 -1563 51 53 64
-343.177 -133.59 -1562 49 51 62
-339.485 -133.379 -1560 47 50 59
-336.234 -133.339 -1560 45 48 58
-333.2 -133.386 -1561 46 49 60
-329.742 -133.262 -1560 48 51 62
-326.5 -133.224 -1560 47 50 61
-323.053 -133.1 -1559 50 51 63
-319.408 -132.892 -1557 51 52 66
-315.572 -132.599 -1554 50 51 67
-312.152 -132.477 -1553 51 52 64
-308.341 -132.186 -1550 50 51 63
-304.939 -132.065 -1549 51 52 64
-301.739 -132.029 -1549 50 51 65
-298.348 -131.909 -1548 48 49 62
-294.774 -131.704 -1546 52 49 60
-291.398 -131.585 -1545 51 50 60
-288.216 -131.552 -1545 51 50 60
-284.852 -131.434 -1544 52 53 64
-281.859 -131.486 -1545 54 55 66
-278.684 -131.454 -1545 53 54 66
-275.511 -131.421 -1545 53 51 66
-271.988 -131.22 -1543 54 52 68
-268.65 -131.103 -1542 52 51 67
-265.146 -130.903 -1540 51 50 66
-261.822 -130.787 -1539 53 53 67
-258.337 -130.587 -1537 56 54 69
-255.194 -130.558 -1537 55 52 67
-251.889 -130.444 -1536 53 55 68
-248.591 -130.33 -1535 53 55 68
-245.458 -130.301 -1535 53 55 68
-242.959 -130.613 -1539 50 54 67
-239.822 -130.585 -1539 48 52 65
-236.995 -130.727 -1541 46 50 63
-233.859 -130.7 -1541 47 51 63
-230.724 -130.674 -1541 50 54 66
-227.295 -130.478 -1539 56 57 70
-224.023 -130.367 -1538 58 59 71
-221.187 -130.511 -1540 57 58 72
-218.203 -130.571 -1541 56 57 71
-215.636 -130.885 -1545 56 57 71
-212.642 -130.945 -1546 55 56 70
-209.645 -131.005 -1547 52 53 67
-206.379 -130.897 -1546 54 55 67
-203.382 -130.958 -1547 52 53 66
-200.123 -130.85 -1546 51 52 64
-197.125 -130.912 -1547 55 53 63
-194.25 -131.059 -1549 55 53 61
-191.368 -131.206 -1551 53 53 58
-188.238 -131.184 -1551 53 53 63
-185.108 -131.163 -1551 50 50 60
-182.215 -131.311 -1553 52 51 65
-179.2 -131.375 -1554 53 52 66
-175.956 -131.271 -1553 50 50 63
-172.829 -131.251 -1553 48 51 60
-170.14 -131.569 -1557 50 52 62
-167.115 -131.634 -1558 53 54 64
-163.981 -131.616 -1558 56 57 68
-161.262 -131.935 -1562 58 59 71
-158.427 -132.17 -1565 57 58 74
-155.284 -132.152 -1565 57 58 73
-152.434 -132.388 -1568 55 58 69
-149.572 -132.624 -1571 52 53 65
-146.607 -132.776 -1573 50 51 63
-143.635 -132.928 -1575 53 54 66
-140.834 -133.25 -1579 53 55 66
-137.67 -133.234 -1579 50 53 62
-134.507 -133.219 -1579 48 49 59
-131.511 -133.372 -1581 46 47 57
-128.427 -133.442 -1582 49 50 60
-125.261 -133.427 -1582 49 50 60
-122.328 -133.666 -1585 49 50 60
-119.458 -133.99 -1589 54 55 65
-116.501 -134.229 -1592 59 60 70
-113.675 -134.638 -1597 58 59 69
-110.76 -134.963 -1601 58 59 69
-107.898 -135.372 -1606 56 57 67
-104.886 -135.612 -1609 57 56 64
-101.674 -135.601 -1609 55 55 63
-98.5232 -135.674 -1610 52 53 63
-95.4287 -135.831 -1612 52 53 63
-92.3842 -136.073 -1615 52 53 63
-89.2733 -136.231 -1617 56 58 65
-86.4743 -136.895 -1625 56 58 66
-83.7979 -137.812 -1636 60 61 71
-80.8813 -138.393 -1643 53 54 65
-77.9375 -138.974 -1650 46 47 59
-74.9665 -139.554 -1657 45 46 58
-71.6653 -139.546 -1657 51 52 64
-68.1998 -139.201 -1653 54 55 67
-402.862 -139.936 -1590 68 66 75
-396.981 -139.008 -1580 63 62 72
-393.887 -139.048 -1581 52 52 63
-390.545 -139.001 -1581 49 49 61
-386.961 -138.866 -1580 46 47 59
-383.385 -138.732 -1579 45 45 58
-380.298 -138.774 -1580 48 49 60
-376.255 -138.465 -1577 52 54 65
-371.992 -138.069 -1573 55 57 68
-367.749 -137.673 -1569 55 58 69
-363.294 -137.19 -1564 54 56 68
-359.783 -137.059 -1563 53 54 66
-356.508 -137.016 -1563 53 54 66
-353.688 -137.149 -1565 51 52 64
-350.415 -137.107 -1565 53 54 66
-346.923 -136.978 -1564 53 54 66
-343.438 -136.849 -1563 52 53 65
-339.742 -136.633 -1561 50 52 63
-336.274 -136.505 -1560 48 50 61
-333.026 -136.465 -1560 47 50 61
-329.78 -136.425 -1560 48 51 62
-326.747 -136.473 -1561 48 51 62
-323.091 -136.26 -1559 52 53 65
-319.446 -136.047 -1557 52 53 66
-315.406 -135.66 -1553 51 52 65
-311.988 -135.535 -1552 53 54 66
-308.179 -135.236 -1549 50 51 63
-305.172 -135.287 -1550 51 52 65
-301.774 -135.164 -1549 51 52 66
-298.19 -134.953 -1547 50 51 65
-294.999 -134.918 -1547 48 48 60
-291.621 -134.796 -1546 46 47 58
-288.25 -134.675 -1545 47 48 59
-285.07 -134.641 -1545 51 52 65
-281.892 -134.607 -1545 53 54 67
-278.536 -134.487 -1544 52 53 66
-275.365 -134.454 -1544 52 52 67
-271.844 -134.248 -1542 50 50 65
-268.333 -134.041 -1540 50 51 65
-265.005 -133.923 -1539 49 49 64
-261.683 -133.805 -1538 50 51 65
-258.535 -133.774 -1538 51 52 66
-255.39 -133.744 -1538 54 54 68
-251.919 -133.54 -1536 54 55 67
-248.782 -133.51 -1536 53 54 68
-245.647 -133.481 -1536 54 55 69
-242.987 -133.713 -1539 53 55 69
-239.85 -133.685 -1539 52 53 67
-237.023 -133.83 -1541 49 51 65
-233.886 -133.803 -1541 48 50 64
-230.9 -133.862 -1542 50 51 66
-227.47 -133.662 -1540 52 53 67
-224.049 -133.461 -1538 55 56 69
-221.213 -133.609 -1540 56 57 71
-218.228 -133.67 -1541 55 56 70
-215.382 -133.818 -1543 55 56 70
-212.666 -134.053 -1546 54 55 69
-209.805 -134.201 -1548 52 53 67
-206.403 -134.004 -1546 52 53 67
-203.405 -134.066 -1547 51 52 65
-200.146 -133.956 -1546 46 47 61
-197.02 -133.933 -1546 49 49 61
-194.022 -133.997 -1547 51 52 62
-191.267 -134.234 -1550 51 52 61
-188.138 -134.212 -1550 51 52 63
-185.249 -134.363 -1552 50 51 63
-182.236 -134.428 -1553 50 51 63
-179.336 -134.58 -1555 51 51 63
-176.203 -134.559 -1555 50 51 62
-173.071 -134.539 -1555 47 49 60
-170.378 -134.865 -1559 49 51 62
-167.241 -134.845 -1559 51 52 64
-164.211 -134.912 -1560 55 56 67
-161.281 -135.066 -1562 58 59 71
-158.446 -135.307 -1565 57 58 71
-155.302 -135.289 -1565 56 57 70
-152.354 -135.444 -1567 57 58 70
-149.494 -135.686 -1570 53 54 65
-146.531 -135.841 -1572 53 54 65
-143.56 -135.997 -1574 54 55 67
-140.672 -136.24 -1577 51 52 64
-137.599 -136.31 -1578 50 52 62
-134.607 -136.467 -1580 46 47 57
-131.609 -136.624 -1582 42 43 53
-128.523 -136.695 -1583 47 48 58
-125.434 -136.767 -1584 49 51 60
-122.496 -137.011 -1587 49 51 60
-119.472 -137.17 -1589 50 52 61
-116.441 -137.329 -1591 58 59 69
-113.759 -137.92 -1598 59 60 71
-110.773 -138.166 -1601 58 59 70
-107.843 -138.498 -1605 56 57 67
-104.833 -138.745 -1608 57 57 65
-101.812 -138.992 -1611 52 52 60
-98.5957 -138.98 -1611 51 52 62
-95.4989 -139.141 -1613 51 52 62
-92.3948 -139.303 -1615 50 51 61
-89.3387 -139.551 -1618 56 58 66
-86.5375 -140.231 -1626 57 59 68
-83.8587 -141.17 -1637 59 60 71
-80.9891 -141.85 -1645 54 55 67
-78.1354 -142.617 -1654 44 45 57
-74.975 -142.867 -1657 46 46 59
-71.7168 -142.944 -1658 48 48 60
-68.2901 -142.678 -1655 54 54 64
-398.286 -142.683 -1585 65 64 74
-393.935 -142.274 -1581 52 52 62
-391.087 -142.405 -1583 51 52 63
-387.008 -142.087 -1580 47 48 60
-383.189 -141.86 -1578 43 44 56
-380.344 -141.993 -1580 45 46 58
-376.539 -141.767 -1578 50 53 64
-372.037 -141.271 -1573 56 59 70
-368.028 -140.956 -1570 54 57 68
-363.57 -140.463 -1565 52 54 66
-359.827 -140.239 -1563 52 53 65
-356.323 -140.105 -1562 51 52 64
-353.279 -140.151 -1563 49 50 62
-350.009 -140.108 -1563 52 53 65
-346.743 -140.065 -1563 53 54 66
-343.26 -139.934 -1562 51 52 64
-339.783 -139.802 -1561 51 52 64
-336.099 -139.582 -1559 50 52 63
-333.279 -139.72 -1561 48 51 62
-329.82 -139.59 -1560 47 50 61
-326.996 -139.729 -1562 48 50 61
-323.337 -139.51 -1560 51 52 64
-320.1 -139.471 -1560 52 53 65
-316.053 -139.074 -1556 50 51 63
-312.427 -138.857 -1554 51 52 64
-308.813 -138.641 -1552 50 51 63
-305.406 -138.514 -1551 50 51 65
-302.005 -138.388 -1550 51 52 66
-298.419 -138.173 -1548 50 51 65
-295.225 -138.137 -1548 49 50 63
-291.656 -137.923 -1546 44 45 58
-288.284 -137.798 -1545 46 47 59
-285.104 -137.764 -1545 51 52 66
-281.926 -137.729 -1545 52 53 67
-278.75 -137.695 -1545 52 53 67
-275.576 -137.662 -1545 52 53 67
-272.229 -137.54 -1544 48 49 63
-268.713 -137.329 -1542 47 48 62
-265.381 -137.207 -1541 47 48 62
-262.054 -137.086 -1540 48 49 63
-258.566 -136.877 -1538 49 50 64
-255.254 -136.757 -1537 53 54 68
-251.949 -136.637 -1536 52 53 65
-248.811 -136.607 -1536 53 54 67
-245.516 -136.488 -1535 53 54 68
-242.858 -136.726 -1538 53 54 68
-239.879 -136.785 -1539 54 55 69
-237.051 -136.934 -1541 51 52 66
-233.914 -136.906 -1541 48 49 64
-231.078 -137.056 -1543 50 51 66
-227.792 -136.939 -1542 51 52 66
-224.513 -136.823 -1541 51 52 66
-221.383 -136.797 -1541 52 53 67
-218.254 -136.77 -1541 54 55 69
-215.687 -137.099 -1545 56 57 71
-212.829 -137.251 -1547 54 55 70
-209.83 -137.314 -1548 53 54 68
-206.561 -137.201 -1547 52 53 67
-203.692 -137.353 -1549 50 51 65
-200.299 -137.152 -1547 49 50 64
-197.171 -137.128 -1547 50 51 64
-194.295 -137.282 -1549 51 52 63
-191.66 -137.613 -1553 50 51 61
-188.524 -137.59 -1553 50 51 62
-185.629 -137.745 -1555 50 51 63
-182.61 -137.812 -1556 50 51 63
-179.473 -137.79 -1556 50 51 63
-176.224 -137.68 -1555 50 51 62
-173.092 -137.659 -1555 46 47 59
-170.07 -137.727 -1556 50 51 63
-167.046 -137.796 -1557 54 55 67
-164.125 -137.953 -1559 56 57 69
-161.3 -138.199 -1562 57 58 70
-158.464 -138.445 -1565 57 58 70
-155.32 -138.427 -1565 56 57 69
-152.469 -138.674 -1568 55 56 68
-149.417 -138.744 -1569 52 53 63
-146.548 -138.992 -1572 53 54 64
-143.577 -139.151 -1574 53 54 66
-140.689 -139.4 -1577 51 52 64
-137.702 -139.56 -1579 49 50 62
-134.879 -139.897 -1583 45 46 57
-131.791 -139.97 -1584 38 39 49
-128.701 -140.042 -1585 42 43 53
-125.528 -140.027 -1585 46 48 58
-122.511 -140.189 -1587 48 51 60
-119.561 -140.44 -1590 50 52 62
-116.528 -140.603 -1592 55 56 67
-113.701 -141.03 -1597 61 62 74
-110.855 -141.458 -1602 61 62 73
-107.99 -141.887 -1607 57 58 68
-104.911 -142.051 -1609 55 57 64
-101.824 -142.215 -1611 52 54 62
-98.7297 -142.38 -1613 50 51 61
-95.5101 -142.368 -1613 50 51 61
-92.4629 -142.622 -1616 51 52 62
-89.4044 -142.876 -1619 55 56 66
-86.6008 -143.571 -1627 56 57 67
-83.8173 -144.356 -1636 57 58 70
-81.1463 -145.405 -1648 50 51 63
-78.239 -146.101 -1656 41 42 54
-75.0743 -146.357 -1659 45 44 58
-71.7685 -146.348 -1659 51 50 62
-68.3394 -146.075 -1656 57 56 64
-399.844 -146.471 -1591 65 64 74
-394.981 -145.869 -1585 50 50 60
-391.135 -145.635 -1583 50 51 61
-387.301 -145.402 -1581 46 47 59
-383.479 -145.169 -1579 42 43 55
-380.151 -145.121 -1579 43 44 56
-376.348 -144.89 -1577 45 48 59
-372.32 -144.567 -1574 50 53 64
-368.074 -144.153 -1570 53 56 67
-364.08 -143.832 -1567 52 54 66
-359.871 -143.419 -1563 51 52 64
-356.367 -143.283 -1562 49 50 62
-352.87 -143.146 -1561 50 51 63
-349.605 -143.102 -1561 51 52 64
-346.564 -143.15 -1562 52 53 65
-343.082 -143.016 -1561 51 52 64
-339.608 -142.881 -1560 51 52 64
-336.356 -142.839 -1560 49 51 63
-333.321 -142.888 -1561 47 50 61
-329.861 -142.756 -1560 45 48 59
-326.827 -142.806 -1561 45 48 59
-322.963 -142.491 -1558 48 49 61
-319.524 -142.359 -1557 50 51 63
-315.686 -142.046 -1554 50 51 63
-312.064 -141.824 -1552 50 51 63
-308.453 -141.602 -1550 50 51 64
-305.049 -141.473 -1549 51 52 66
-301.848 -141.435 -1549 52 53 67
-298.263 -141.215 -1547 50 51 65
-295.261 -141.27 -1548 52 53 67
-291.88 -141.142 -1547 48 49 62
-288.506 -141.015 -1546 49 50 62
-285.323 -140.979 -1546 52 53 66
-281.96 -140.853 -1545 53 54 68
-278.603 -140.727 -1544 53 54 68
-275.253 -140.601 -1543 51 52 66
-271.909 -140.476 -1542 47 48 62
-268.746 -140.443 -1542 46 47 61
-265.413 -140.319 -1541 47 48 62
-261.916 -140.104 -1539 49 50 64
-258.43 -139.89 -1537 48 49 63
-255.285 -139.858 -1537 50 51 65
-251.815 -139.645 -1535 52 53 65
-248.68 -139.614 -1535 53 54 67
-245.386 -139.493 -1534 54 55 69
-242.888 -139.826 -1538 53 54 68
-240.064 -139.978 -1540 53 54 68
-237.08 -140.04 -1541 51 52 66
-234.094 -140.102 -1542 48 49 63
-231.255 -140.255 -1544 49 50 64
-227.82 -140.045 -1542 51 52 66
-224.686 -140.017 -1542 51 52 66
-221.409 -139.899 -1541 51 52 66
-218.423 -139.962 -1542 54 55 69
-215.713 -140.208 -1545 58 59 73
-212.992 -140.454 -1548 56 57 73
-209.991 -140.519 -1549 54 55 71
-206.986 -140.584 -1550 51 52 66
-203.849 -140.559 -1550 50 51 65
-200.453 -140.353 -1548 52 53 67
-197.45 -140.419 -1549 51 52 66
-194.444 -140.485 -1550 50 51 63
-191.436 -140.552 -1551 51 52 62
-188.426 -140.62 -1552 51 52 64
-185.652 -140.869 -1555 52 53 65
-182.515 -140.846 -1555 53 54 66
-179.495 -140.915 -1556 51 52 64
-176.359 -140.893 -1556 49 50 62
-173.335 -140.962 -1557 45 46 58
-170.419 -141.122 -1559 49 50 62
-167.388 -141.192 -1560 54 55 67
-164.355 -141.262 -1561 54 55 67
-161.423 -141.423 -1563 54 55 67
-158.585 -141.675 -1566 56 57 69
-155.438 -141.656 -1566 56 57 69
-152.488 -141.818 -1568 56 57 69
-149.435 -141.89 -1569 53 54 65
-146.472 -142.053 -1571 54 55 65
-143.594 -142.307 -1574 54 55 67
-140.795 -142.651 -1578 51 52 64
-137.806 -142.815 -1580 50 51 63
-134.98 -143.16 -1584 48 49 61
-131.973 -143.324 -1586 40 41 53
-128.96 -143.489 -1588 42 43 55
-125.86 -143.564 -1589 46 48 58
-122.757 -143.639 -1590 49 52 61
-119.877 -143.986 -1594 52 53 63
-116.762 -144.062 -1595 54 55 65
-113.857 -144.409 -1599 61 62 74
-110.869 -144.666 -1602 61 62 73
-107.936 -145.014 -1606 57 58 68
-104.858 -145.182 -1608 52 53 62
-101.773 -145.35 -1610 51 52 61
-98.6191 -145.428 -1611 50 51 61
-95.4623 -145.506 -1612 50 51 61
-92.3595 -145.676 -1614 52 53 63
-89.3599 -146.026 -1618 57 58 68
-86.4516 -146.556 -1624 57 58 69
-83.9299 -147.809 -1638 58 59 71
-81.1067 -148.611 -1647 49 50 62
-78.2012 -149.324 -1655 42 43 55
-75.1285 -149.765 -1660 44 43 57
-71.7338 -149.576 -1658 53 52 63
-403.774 -149.961 -1593 109 108 118
-399.644 -149.627 -1590 99 99 109
-394.284 -148.823 -1582 61 62 72
-391.185 -148.866 -1583 52 53 63
-387.351 -148.628 -1581 47 48 59
-383.528 -148.39 -1579 42 43 55
-379.958 -148.247 -1578 42 43 55
-376.634 -148.198 -1578 41 44 55
-372.841 -147.962 -1576 45 48 59
-368.59 -147.539 -1572 51 54 65
-364.359 -147.117 -1568 52 54 65
-360.147 -146.695 -1564 51 52 64
-356.184 -146.368 -1561 50 51 63
-352.463 -146.135 -1559 53 54 66
-349.425 -146.183 -1560 52 53 65
-346.164 -146.139 -1560 51 52 64
-343.126 -146.188 -1561 52 53 65
-340.304 -146.332 -1563 51 52 64
-336.83 -146.195 -1562 49 51 62
-333.79 -146.246 -1563 49 52 63
-330.326 -146.109 -1562 48 51 62
-326.868 -145.974 -1561 47 50 61
-323.418 -145.839 -1560 47 48 60
-319.975 -145.705 -1559 49 50 62
-316.335 -145.477 -1557 50 51 63
-312.505 -145.157 -1554 50 51 63
-308.89 -144.93 -1552 52 53 65
-305.482 -144.798 -1551 53 54 68
-301.886 -144.573 -1549 53 54 68
-298.493 -144.441 -1548 50 51 65
-295.489 -144.497 -1549 51 52 66
-292.106 -144.366 -1548 51 52 65
-288.729 -144.236 -1547 50 51 63
-285.359 -144.106 -1546 48 49 63
-281.995 -143.977 -1545 49 50 64
-278.638 -143.849 -1544 53 54 68
-275.288 -143.72 -1543 52 53 67
-271.943 -143.593 -1542 49 50 64
-268.78 -143.558 -1542 49 50 64
-265.446 -143.431 -1541 48 49 63
-262.289 -143.398 -1541 49 50 64
-258.966 -143.272 -1540 46 47 61
-255.816 -143.24 -1540 45 46 60
-252.339 -143.021 -1538 52 53 65
-248.873 -142.804 -1536 53 54 67
-245.577 -142.68 -1535 55 56 70
-242.76 -142.835 -1537 53 54 68
-239.626 -142.805 -1537 50 51 65
-236.802 -142.96 -1539 48 49 63
-233.971 -143.116 -1541 48 49 63
-230.985 -143.18 -1542 48 49 63
-227.7 -143.058 -1541 49 50 64
-224.568 -143.03 -1541 51 52 66
-221.581 -143.095 -1542 52 53 67
-218.45 -143.067 -1542 55 56 70
-215.74 -143.318 -1545 60 61 75
-212.881 -143.477 -1547 61 62 78
-209.881 -143.543 -1548 57 58 73
-206.879 -143.61 -1549 52 53 66
-204.005 -143.769 -1551 51 52 65
-200.867 -143.744 -1551 53 54 67
-197.729 -143.719 -1551 50 51 65
-194.594 -143.694 -1551 49 50 62
-191.707 -143.855 -1553 53 54 65
-188.571 -143.832 -1553 54 55 67
-185.555 -143.901 -1554 53 54 66
-182.42 -143.878 -1554 53 54 66
-179.632 -144.133 -1557 52 53 65
-176.494 -144.111 -1557 49 50 62
-173.357 -144.089 -1557 45 46 58
-170.44 -144.252 -1559 48 49 61
-167.516 -144.416 -1561 51 52 64
-164.481 -144.488 -1562 50 51 63
-161.546 -144.653 -1564 49 50 62
-158.503 -144.725 -1565 53 54 66
-155.557 -144.891 -1567 55 56 68
-152.506 -144.964 -1568 55 56 68
-149.548 -145.13 -1570 57 58 70
-146.584 -145.296 -1572 57 58 69
-143.703 -145.556 -1575 55 56 68
-140.812 -145.815 -1578 55 56 68
-137.823 -145.983 -1580 53 54 66
-134.997 -146.335 -1584 52 53 65
-131.906 -146.411 -1585 46 47 59
-128.976 -146.672 -1588 48 49 61
-125.875 -146.748 -1589 46 48 59
-122.926 -147.01 -1592 47 50 59
-119.891 -147.179 -1594 51 52 62
-116.849 -147.349 -1596 54 55 65
-113.942 -147.704 -1600 61 62 74
-111.021 -148.06 -1604 61 62 72
-108.017 -148.323 -1607 57 58 68
-104.871 -148.402 -1608 50 51 61
-101.912 -148.758 -1612 47 48 58
-98.6925 -148.746 -1612 49 50 60
-95.6517 -149.01 -1615 50 51 61
-92.3708 -148.907 -1614 52 53 63
-89.4261 -149.357 -1619 54 55 65
-86.6218 -150.084 -1627 57 58 69
-83.9401 -151.088 -1638 60 61 73
-81.1167 -151.908 -1647 49 50 62
-78.1163 -152.451 -1653 43 44 56
-75.0473 -152.903 -1658 49 48 61
-71.656 -152.709 -1656 55 55 66
-394.92 -151.049 -1571 123 125 134
-392.092 -151.189 -1573 72 73 83
-390.001 -151.618 -1578 54 55 65
-386.666 -151.567 -1578 48 49 61
-382.607 -151.228 -1575 44 45 57
-379.526 -151.274 -1576 42 43 55
-376.206 -151.224 -1576 42 44 55
-372.416 -150.983 -1574 46 49 60
-368.637 -150.743 -1572 51 54 65
-364.871 -150.502 -1570 52 54 66
-360.425 -149.976 -1565 53 54 66
-356.231 -149.546 -1561 52 53 65
-352.509 -149.307 -1559 57 58 70
-349.246 -149.261 -1559 54 55 67
-345.987 -149.216 -1559 51 52 64
-343.17 -149.362 -1561 50 51 63
-340.13 -149.413 -1562 51 52 64
-337.089 -149.465 -1563 51 52 64
-334.047 -149.516 -1564 51 54 65
-330.791 -149.473 -1564 52 55 66
-327.329 -149.334 -1563 52 54 65
-323.46 -149.005 -1560 50 51 63
-320.221 -148.963 -1560 49 50 62
-316.376 -148.635 -1557 51 52 64
-312.545 -148.308 -1554 52 53 65
-308.929 -148.077 -1552 54 55 68
-305.718 -148.037 -1552 54 55 69
-301.924 -147.711 -1549 54 55 69
-298.917 -147.768 -1550 50 51 65
-295.718 -147.729 -1550 49 50 64
-292.521 -147.691 -1550 49 50 63
-289.139 -147.558 -1549 49 50 62
-285.765 -147.425 -1548 47 48 62
-282.214 -147.198 -1546 47 48 62
-278.674 -146.972 -1544 51 52 67
-275.323 -146.84 -1543 53 54 68
-271.802 -146.615 -1541 52 53 67
-268.64 -146.58 -1541 53 54 68
-265.308 -146.45 -1540 50 51 65
-262.153 -146.416 -1540 48 49 63
-258.831 -146.287 -1539 45 46 60
-255.848 -146.349 -1540 45 46 60
-252.371 -146.126 -1538 50 51 64
-249.066 -145.999 -1537 53 54 67
-245.768 -145.872 -1536 55 56 70
-242.633 -145.841 -1536 54 55 69
-239.657 -145.905 -1537 52 53 67
-236.832 -146.064 -1539 52 53 67
-233.849 -146.129 -1540 52 53 67
-231.014 -146.288 -1542 51 52 66
-227.729 -146.164 -1541 51 52 66
-224.596 -146.135 -1541 50 51 65
-221.465 -146.106 -1541 49 50 64
-218.478 -146.173 -1542 51 52 66
-215.488 -146.24 -1543 57 58 72
-212.633 -146.402 -1545 57 58 74
-209.637 -146.47 -1546 56 57 72
-206.771 -146.632 -1548 54 55 67
-203.9 -146.796 -1550 53 54 66
-200.762 -146.77 -1550 53 54 66
-197.754 -146.839 -1551 51 52 66
-194.493 -146.719 -1550 51 52 65
-191.484 -146.789 -1551 52 53 65
-188.352 -146.765 -1551 52 53 65
-185.459 -146.93 -1553 52 53 65
-182.443 -147.001 -1554 52 53 65
-179.54 -147.167 -1556 52 53 65
-176.516 -147.239 -1557 50 51 63
-173.49 -147.311 -1558 47 48 60
-170.571 -147.478 -1560 47 48 60
-167.538 -147.551 -1561 47 48 60
-164.607 -147.719 -1563 47 48 60
-161.67 -147.887 -1565 48 49 61
-158.523 -147.867 -1565 51 52 64
-155.676 -148.13 -1568 54 55 67
-152.623 -148.205 -1569 53 54 66
-149.567 -148.28 -1570 57 58 70
-146.695 -148.545 -1573 57 58 70
-143.721 -148.715 -1575 55 56 68
-140.83 -148.98 -1578 53 54 67
-137.753 -149.057 -1579 51 52 64
-135.014 -149.512 -1584 52 53 65
-132.006 -149.683 -1586 47 48 60
-129.073 -149.95 -1589 47 48 60
-125.97 -150.028 -1590 45 46 57
-123.019 -150.295 -1593 45 48 58
-119.906 -150.374 -1594 50 51 61
-116.864 -150.548 -1596 53 54 65
-113.886 -150.816 -1599 58 59 71
-110.896 -151.085 -1602 59 60 71
-108.03 -151.543 -1607 55 56 66
-104.884 -151.623 -1608 49 50 60
-101.924 -151.987 -1612 47 48 58
-98.7661 -152.069 -1613 47 48 58
-95.7229 -152.339 -1616 49 50 60
-92.4396 -152.233 -1615 49 50 60
-89.6031 -152.882 -1622 50 51 61
-86.686 -153.436 -1628 55 56 67
-83.9507 -154.367 -1638 59 60 72
-81.1761 -155.299 -1648 47 48 60
-78.2678 -156.043 -1656 44 45 57
-75.0567 -156.222 -1658 47 46 58
-71.6217 -155.93 -1655 60 61 71
-389.901 -153.52 -1564 92 95 104
-389.558 -154.645 -1576 52 55 66
-386.473 -154.691 -1577 46 48 60
-382.9 -154.541 -1576 47 48 60
-379.336 -154.392 -1575 46 47 59
-376.256 -154.439 -1576 44 45 57
-372.939 -154.389 -1576 47 48 60
-369.156 -154.143 -1574 51 54 65
-365.151 -153.8 -1571 54 56 67
-360.703 -153.262 -1566 56 57 69
-356.506 -152.822 -1562 55 56 68
-352.329 -152.384 -1558 58 59 71
-349.069 -152.337 -1558 55 56 68
-345.811 -152.29 -1558 51 52 64
-342.996 -152.44 -1560 50 51 63
-340.175 -152.589 -1562 49 50 62
-337.134 -152.642 -1563 50 51 63
-333.877 -152.597 -1563 50 52 63
-330.835 -152.65 -1564 52 53 65
-327.163 -152.411 -1562 53 54 66
-323.502 -152.173 -1560 50 51 63
-320.058 -152.033 -1559 50 51 63
-316.214 -151.698 -1556 51 52 64
-312.788 -151.558 -1555 52 53 65
-309.368 -151.42 -1554 56 57 69
-305.955 -151.281 -1553 55 56 70
-302.159 -150.949 -1550 55 56 70
-298.957 -150.909 -1550 51 52 66
-295.566 -150.772 -1549 52 53 67
-292.37 -150.733 -1549 50 51 64
-288.991 -150.597 -1548 49 50 62
-285.802 -150.559 -1548 48 49 63
-282.434 -150.424 -1547 46 47 61
-278.891 -150.193 -1545 50 51 67
-275.716 -150.156 -1545 55 56 71
-272.014 -149.829 -1542 55 56 70
-268.849 -149.793 -1542 56 57 71
-265.515 -149.66 -1541 52 53 67
-262.357 -149.625 -1541 47 48 62
-259.033 -149.494 -1540 44 45 59
-255.882 -149.46 -1540 46 47 61
-252.732 -149.427 -1540 50 51 65
-249.099 -149.102 -1537 52 53 67
-245.96 -149.07 -1537 53 54 68
-242.823 -149.038 -1537 54 55 69
-239.844 -149.103 -1538 56 57 71
-236.863 -149.169 -1539 57 58 72
-234.031 -149.331 -1541 57 58 73
-230.894 -149.301 -1541 55 56 72
-228.054 -149.465 -1543 51 52 66
-224.917 -149.435 -1543 48 49 63
-221.781 -149.406 -1543 46 47 61
-218.506 -149.28 -1542 47 48 62
-215.655 -149.445 -1544 52 53 67
-212.385 -149.32 -1543 54 55 71
-209.528 -149.486 -1545 54 55 70
-206.664 -149.652 -1547 56 57 69
-204.058 -150.012 -1551 55 56 68
-200.918 -149.986 -1551 52 53 65
-197.908 -150.057 -1552 53 54 68
-195.02 -150.224 -1554 54 55 68
-191.88 -150.199 -1554 51 52 64
-188.74 -150.174 -1554 51 52 64
-185.722 -150.246 -1555 51 52 64
-182.467 -150.126 -1554 50 51 63
-179.332 -150.102 -1554 49 50 62
-176.312 -150.175 -1555 49 50 62
-173.512 -150.442 -1558 48 49 61
-170.374 -150.42 -1558 46 47 59
-167.666 -150.784 -1562 45 46 58
-164.628 -150.859 -1563 47 48 60
-161.794 -151.127 -1566 49 50 62
-158.645 -151.106 -1566 50 51 63
-155.795 -151.375 -1569 52 53 65
-152.837 -151.548 -1571 54 55 67
-149.872 -151.721 -1573 59 60 72
-146.901 -151.895 -1575 60 61 73
-144.014 -152.165 -1578 59 60 73
-141.026 -152.34 -1580 56 57 70
-137.945 -152.418 -1581 52 53 67
-135.202 -152.882 -1586 52 53 66
-132.023 -152.865 -1586 48 49 61
-129.09 -153.137 -1589 47 48 60
-125.907 -153.12 -1589 44 46 58
-122.958 -153.394 -1592 47 50 61
-119.847 -153.474 -1593 51 52 64
-116.879 -153.748 -1596 54 55 66
-113.9 -154.022 -1599 59 60 72
-110.98 -154.392 -1603 60 61 72
-108.044 -154.763 -1607 54 55 65
-104.897 -154.846 -1608 51 52 62
-102.001 -155.314 -1613 50 51 61
-98.7787 -155.301 -1613 50 51 61
-95.7352 -155.577 -1616 50 51 61
-92.566 -155.661 -1617 51 52 62
-89.6698 -156.227 -1623 52 53 63
-86.6971 -156.697 -1628 57 58 69
-84.0127 -157.745 -1639 58 59 71
-81.0388 -158.311 -1645 45 46 58
-78.1361 -159.071 -1653 43 44 56
-74.9757 -159.35 -1656 46 46 58
-71.5876 -159.148 -1654 66 67 77
-68.1255 -158.754 -1650 107 109 116
-32.8262 -84.6598 -880 137 139 147
-387.139 -156.864 -1566 63 66 77
-385.055 -157.312 -1571 52 53 65
-382.224 -157.459 -1573 46 47 59
-378.906 -157.407 -1573 45 46 58
-376.068 -157.555 -1575 43 44 56
-372.989 -157.604 -1576 43 44 56
-369.44 -157.453 -1575 53 55 66
-365.433 -157.103 -1572 52 54 65
-361.212 -156.653 -1568 57 58 70
-357.011 -156.205 -1564 57 58 70
-352.829 -155.757 -1560 55 56 68
-349.564 -155.709 -1560 56 57 69
-346.301 -155.661 -1560 53 54 66
-343.482 -155.814 -1562 50 51 63
-340.439 -155.867 -1563 49 50 62
-337.395 -155.92 -1564 49 50 62
-334.136 -155.874 -1564 48 49 61
-331.091 -155.929 -1565 51 52 64
-327.207 -155.585 -1562 54 55 67
-323.546 -155.342 -1560 50 51 63
-320.101 -155.198 -1559 48 49 61
-316.257 -154.857 -1556 51 52 64
-312.83 -154.714 -1555 52 53 65
-309.41 -154.573 -1554 52 53 66
-305.996 -154.432 -1553 55 56 70
-302.394 -154.191 -1551 56 57 71
-299.189 -154.151 -1551 54 55 69
-295.605 -153.912 -1549 56 57 71
-292.409 -153.872 -1549 52 53 66
-289.216 -153.833 -1549 51 52 64
-285.84 -153.694 -1548 50 51 65
-282.471 -153.557 -1547 50 51 65
-279.109 -153.42 -1546 51 52 68
-275.574 -153.184 -1544 54 55 70
-271.874 -152.849 -1541 57 58 72
-268.711 -152.813 -1541 56 57 71
-265.378 -152.678 -1540 53 54 68
-262.222 -152.642 -1540 50 51 65
-259.068 -152.607 -1540 48 49 63
-255.916 -152.572 -1540 50 51 65
-252.602 -152.439 -1539 50 51 65
-249.294 -152.306 -1538 51 52 66
-245.993 -152.174 -1537 51 52 66
-243.013 -152.24 -1538 53 54 68
-239.876 -152.208 -1538 56 57 71
-236.894 -152.275 -1539 56 57 71
-234.062 -152.441 -1541 57 58 72
-231.075 -152.509 -1542 55 56 72
-228.085 -152.577 -1543 51 52 66
-225.092 -152.645 -1544 47 48 62
-221.954 -152.615 -1544 45 46 60
-218.535 -152.388 -1542 48 49 63
-215.544 -152.458 -1543 52 53 67
-212.413 -152.429 -1543 55 56 71
-209.42 -152.5 -1544 58 59 73
-206.558 -152.67 -1546 57 58 71
-203.821 -152.938 -1549 55 56 69
-200.944 -153.109 -1551 55 56 69
-197.934 -153.181 -1552 54 55 68
-194.795 -153.155 -1552 51 52 65
-191.905 -153.326 -1554 52 53 65
-188.644 -153.202 -1553 53 54 66
-185.508 -153.177 -1553 50 51 63
-182.373 -153.153 -1553 49 50 62
-179.24 -153.129 -1553 50 51 63
-176.335 -153.302 -1555 51 52 64
-173.424 -153.476 -1557 47 48 60
-170.506 -153.65 -1559 47 48 60
-167.689 -153.923 -1562 44 45 57
-164.861 -154.197 -1565 47 48 60
-161.815 -154.274 -1566 47 48 60
-158.767 -154.351 -1567 49 50 63
-155.915 -154.626 -1570 51 52 65
-152.857 -154.703 -1571 56 57 69
-149.987 -154.979 -1574 60 61 73
-146.92 -155.057 -1575 61 62 74
-144.032 -155.334 -1578 60 61 75
-140.956 -155.413 -1579 59 60 74
-137.876 -155.493 -1580 54 55 69
-135.134 -155.967 -1585 54 56 67
-131.957 -155.949 -1585 49 51 62
-129.025 -156.227 -1588 47 48 60
-126.003 -156.407 -1590 46 48 59
-123.051 -156.686 -1593 48 50 61
-119.862 -156.669 -1593 50 52 63
-116.894 -156.949 -1596 55 56 68
-113.844 -157.13 -1598 60 61 73
-110.925 -157.509 -1602 59 60 72
-107.856 -157.691 -1604 53 54 65
-104.911 -158.07 -1608 51 52 62
-101.888 -158.351 -1611 50 51 61
-98.7916 -158.534 -1613 49 50 60
-95.7478 -158.816 -1616 50 51 61
-92.6353 -159 -1618 53 54 64
-89.6263 -159.381 -1622 54 55 65
-86.815 -160.156 -1630 59 60 71
-84.1774 -161.324 -1642 59 60 72
-81.1478 -161.804 -1647 46 47 59
-78.1935 -162.481 -1654 41 42 54
-75.0308 -162.766 -1657 46 47 59
-71.8134 -162.952 -1659 73 74 84
-68.2996 -162.452 -1654 113 115 122
-382.742 -158.226 -1548 80 83 93
-382.902 -159.603 -1562 55 57 68
-381.548 -160.366 -1570 51 52 64
-378.958 -160.619 -1573 46 47 59
-376.12 -160.771 -1575 39 40 52
-372.804 -160.718 -1575 38 39 51
-369.257 -160.564 -1574 50 51 63
-365.484 -160.309 -1572 53 54 66
-361.032 -159.748 -1567 56 57 69
-356.832 -159.291 -1563 57 58 70
-352.878 -158.935 -1560 55 56 68
-350.06 -159.09 -1562 56 57 69
-346.571 -158.94 -1561 54 55 67
-343.969 -159.197 -1564 51 52 64
-340.486 -159.048 -1563 47 48 60
-337.441 -159.102 -1564 49 50 62
-334.182 -159.055 -1564 50 51 63
-330.925 -159.009 -1564 51 52 64
-327.462 -158.862 -1563 52 53 65
-323.798 -158.613 -1561 50 51 63
-320.35 -158.467 -1560 50 51 63
-316.707 -158.22 -1558 52 53 65
-313.074 -157.973 -1556 52 53 65
-309.452 -157.727 -1554 51 52 65
-306.038 -157.583 -1553 53 54 68
-302.241 -157.237 -1550 55 56 70
-299.038 -157.195 -1550 54 55 70
-295.455 -156.951 -1548 55 56 70
-292.449 -157.012 -1549 54 55 68
-289.256 -156.972 -1549 53 54 67
-286.064 -156.932 -1549 52 53 67
-282.51 -156.69 -1547 50 51 65
-279.147 -156.55 -1546 53 54 69
-275.612 -156.31 -1544 55 56 71
-271.911 -155.968 -1541 57 58 72
-268.747 -155.931 -1541 59 60 74
-265.586 -155.894 -1541 56 57 71
-262.257 -155.757 -1540 50 51 65
-259.271 -155.822 -1541 47 48 62
-256.117 -155.787 -1541 47 48 62
-252.636 -155.55 -1539 48 49 63
-249.328 -155.414 -1538 47 48 62
-246.346 -155.481 -1539 49 50 64
-243.204 -155.448 -1539 52 53 67
-240.064 -155.415 -1539 54 55 69
-236.926 -155.382 -1539 57 58 72
-234.094 -155.551 -1541 59 60 74
-231.106 -155.621 -1542 57 58 73
-228.116 -155.69 -1543 53 54 68
-225.123 -155.76 -1544 48 49 63
-221.984 -155.729 -1544 47 48 62
-218.706 -155.598 -1543 49 50 64
-215.294 -155.367 -1541 51 52 66
-212.304 -155.439 -1542 55 56 70
-209.313 -155.511 -1543 57 58 72
-206.452 -155.684 -1545 57 58 72
-203.717 -155.958 -1548 56 57 71
-200.972 -156.233 -1551 55 56 70
-198.088 -156.407 -1553 54 55 67
-195.072 -156.481 -1554 53 54 66
-192.178 -156.656 -1556 53 54 66
-189.034 -156.63 -1556 54 55 67
-185.891 -156.605 -1556 50 51 63
-182.633 -156.479 -1555 48 49 61
-179.495 -156.454 -1555 49 50 62
-176.359 -156.43 -1555 49 50 62
-173.447 -156.608 -1557 50 51 63
-170.419 -156.685 -1558 48 49 61
-167.604 -156.963 -1561 45 46 58
-164.672 -157.142 -1563 46 47 59
-161.63 -157.22 -1564 47 48 60
-158.484 -157.199 -1564 50 51 65
-155.737 -157.579 -1568 52 53 67
-152.78 -157.759 -1570 55 56 70
-149.817 -157.94 -1572 57 58 71
-146.94 -158.221 -1575 59 60 72
-144.052 -158.503 -1578 60 61 75
-140.974 -158.584 -1579 61 62 76
-137.982 -158.766 -1581 56 57 71
-135.152 -159.149 -1585 52 55 67
-131.975 -159.131 -1585 47 50 61
-128.961 -159.314 -1587 47 48 60
-125.861 -159.397 -1588 45 46 58
-122.99 -159.782 -1592 46 47 59
-119.803 -159.766 -1592 48 49 61
-116.91 -160.151 -1596 53 54 66
-113.93 -160.437 -1599 61 62 74
-111.009 -160.823 -1603 60 61 73
-107.938 -161.008 -1605 55 56 68
-104.99 -161.395 -1609 52 53 63
-101.901 -161.582 -1611 50 51 61
-98.8049 -161.769 -1613 49 50 60
-95.8198 -162.157 -1617 48 49 59
-92.7622 -162.445 -1620 52 53 63
-89.8593 -163.034 -1626 54 55 65
-86.933 -163.624 -1632 58 59 70
-84.2399 -164.715 -1643 57 58 70
-81.1587 -165.105 -1647 45 46 58
-78.2985 -165.997 -1656 40 41 53
-75.0861 -166.187 -1658 49 50 62
-71.9529 -166.578 -1662 82 83 93
-381.73 -162.275 -1557 59 60 72
-381.602 -163.575 -1570 52 53 65
-378.53 -163.625 -1571 47 48 60
-375.935 -163.883 -1574 40 41 53
-372.62 -163.83 -1574 40 41 53
-369.074 -163.673 -1573 46 47 59
-365.303 -163.412 -1571 51 52 64
-361.313 -163.049 -1568 53 54 66
-357.11 -162.582 -1564 56 57 69
-353.38 -162.323 -1562 55 56 68
-350.334 -162.377 -1563 55 56 68
-346.62 -162.12 -1561 54 55 67
-343.797 -162.278 -1563 52 53 65
-340.534 -162.23 -1563 49 50 62
-337.489 -162.285 -1564 49 50 62
-334.015 -162.134 -1563 50 51 63
-331.183 -162.294 -1565 50 51 63
-327.298 -161.937 -1562 50 51 63
-323.843 -161.787 -1561 50 51 63
-320.19 -161.534 -1559 50 51 63
-316.344 -161.178 -1556 51 52 64
-312.916 -161.03 -1555 50 51 64
-309.296 -160.779 -1553 50 51 64
-305.884 -160.632 -1552 52 53 67
-302.283 -160.382 -1550 54 55 70
-299.079 -160.34 -1550 55 56 71
-295.496 -160.091 -1548 56 57 72
-292.301 -160.05 -1548 55 56 71
-288.922 -159.906 -1547 55 56 69
-285.919 -159.968 -1548 53 54 68
-282.367 -159.722 -1546 51 52 67
-279.186 -159.682 -1546 52 53 68
-275.65 -159.437 -1544 54 55 70
-271.948 -159.088 -1541 56 57 71
-268.785 -159.051 -1541 59 60 74
-265.451 -158.91 -1540 57 58 72
-262.123 -158.77 -1539 53 54 68
-258.97 -158.733 -1539 51 52 66
-255.986 -158.8 -1540 49 50 64
-252.671 -158.662 -1539 46 47 61
-249.362 -158.523 -1538 45 46 60
-246.54 -158.695 -1540 47 48 62
-243.396 -158.66 -1540 49 50 64
-240.097 -158.524 -1539 51 52 66
-236.959 -158.49 -1539 56 57 73
-233.823 -158.457 -1539 59 60 75
-230.988 -158.631 -1541 58 59 73
-227.999 -158.702 -1542 56 57 71
-225.3 -158.979 -1545 52 53 67
-221.871 -158.742 -1543 49 50 64
-218.736 -158.711 -1543 49 50 64
-215.323 -158.475 -1541 49 50 64
-212.334 -158.548 -1542 53 54 68
-209.07 -158.416 -1541 55 56 70
-206.347 -158.696 -1544 56 57 71
-203.482 -158.873 -1546 57 58 73
-200.74 -159.153 -1549 57 58 74
-197.86 -159.331 -1551 57 58 70
-195.099 -159.612 -1554 54 55 67
-192.204 -159.79 -1556 53 54 66
-189.06 -159.764 -1556 54 55 67
-186.036 -159.84 -1557 52 53 65
-182.775 -159.712 -1556 53 54 66
-179.404 -159.481 -1554 54 55 67
-176.27 -159.457 -1554 53 54 66
-173.36 -159.638 -1556 54 55 67
-170.333 -159.717 -1557 53 54 66
-167.519 -160.001 -1560 50 51 63
-164.695 -160.286 -1563 48 49 61
-161.756 -160.468 -1565 47 48 61
-158.709 -160.549 -1566 50 51 65
-155.858 -160.834 -1569 51 52 66
-152.801 -160.915 -1570 50 51 65
-149.933 -161.202 -1573 52 53 66
-146.867 -161.284 -1574 59 60 72
-144.072 -161.674 -1578 63 64 78
-140.994 -161.756 -1579 64 65 79
-138 -161.942 -1581 59 60 74
-135.085 -162.23 -1584 53 55 68
-132.076 -162.417 -1586 48 51 63
-128.979 -162.501 -1587 47 48 62
-125.958 -162.688 -1589 46 47 60
-122.93 -162.876 -1591 46 47 59
-119.819 -162.961 -1592 48 49 61
-116.926 -163.355 -1596 53 54 66
-113.946 -163.646 -1599 59 60 72
-110.955 -163.937 -1602 63 64 76
-107.818 -164.025 -1603 59 60 72
-104.874 -164.419 -1607 53 54 66
-101.789 -164.61 -1609 51 52 63
-98.6958 -164.8 -1611 49 50 60
-95.7143 -165.196 -1615 48 49 59
-92.7176 -165.592 -1619 53 54 64
-89.761 -166.091 -1624 55 56 66
-86.9449 -166.897 -1632 56 57 67
-84.3027 -168.112 -1644 53 54 66
-81.4162 -168.919 -1652 43 44 56
-78.4038 -169.522 -1658 40 41 53
-75.3228 -170.022 -1663 53 54 66
-72.2657 -170.625 -1669 91 92 102
-381.171 -166.573 -1568 53 54 66
-378.825 -166.942 -1572 47 48 60
-376.228 -167.206 -1575 41 42 54
-372.674 -167.045 -1574 43 44 56
-369.362 -166.991 -1574 45 46 58
-365.356 -166.619 -1571 51 52 64
-361.365 -166.248 -1568 50 51 63
-357.619 -165.984 -1566 50 51 63
-353.657 -165.615 -1563 52 53 65
-350.384 -165.564 -1563 54 55 67
-346.892 -165.407 -1562 54 55 67
-344.067 -165.569 -1564 52 53 65
-340.582 -165.413 -1563 48 49 61
-337.537 -165.47 -1564 49 50 62
-334.063 -165.316 -1563 51 52 64
-330.807 -165.268 -1563 50 51 63
-327.345 -165.115 -1562 51 52 64
-323.682 -164.856 -1560 51 52 64
-320.236 -164.704 -1559 51 52 64
-316.593 -164.447 -1557 52 53 65
-313.162 -164.296 -1556 51 52 66
-309.34 -163.934 -1553 50 51 65
-305.73 -163.679 -1551 51 52 66
-302.131 -163.424 -1549 54 55 70
-298.736 -163.275 -1548 54 55 71
-295.347 -163.127 -1547 55 56 72
-292.343 -163.19 -1548 56 57 72
-288.963 -163.043 -1547 54 55 69
-285.96 -163.107 -1548 52 53 67
-282.407 -162.856 -1546 52 53 67
-279.225 -162.816 -1546 52 53 67
-275.689 -162.565 -1544 52 53 67
-271.987 -162.21 -1541 53 54 68
-268.997 -162.277 -1542 56 57 71
-265.661 -162.133 -1541 56 57 71
-262.16 -161.885 -1539 57 58 72
-258.839 -161.743 -1538 56 57 71
-255.856 -161.811 -1539 50 51 65
-252.707 -161.775 -1539 45 46 60
-249.398 -161.634 -1538 45 46 60
-246.575 -161.809 -1540 46 47 61
-243.43 -161.774 -1540 47 48 62
-240.131 -161.634 -1539 50 51 65
-236.838 -161.495 -1538 56 57 73
-233.704 -161.462 -1538 59 60 75
-231.021 -161.743 -1541 59 60 74
-227.736 -161.606 -1540 57 58 72
-225.186 -161.993 -1544 54 55 69
-222.046 -161.962 -1544 50 51 65
-219.051 -162.035 -1545 48 49 63
-215.773 -161.899 -1544 49 50 64
-212.501 -161.764 -1543 51 52 66
-209.1 -161.524 -1541 55 56 70
-206.376 -161.809 -1544 57 58 72
-203.511 -161.99 -1546 57 58 73
-200.768 -162.276 -1549 57 58 74
-197.888 -162.457 -1551 57 58 70
-195.252 -162.848 -1555 55 56 68
-192.231 -162.925 -1556 53 54 67
-189.208 -163.003 -1557 54 55 67
-186.062 -162.976 -1557 56 57 69
-182.801 -162.846 -1556 57 58 70
-179.429 -162.611 -1554 57 58 70
-176.295 -162.586 -1554 56 57 69
-173.384 -162.77 -1556 54 55 67
-170.357 -162.85 -1557 52 53 65
-167.65 -163.245 -1561 51 52 64
-164.823 -163.535 -1564 49 50 63
-162.088 -163.93 -1568 46 47 61
-158.934 -163.907 -1568 47 48 62
-156.078 -164.199 -1571 49 50 64
-152.823 -164.072 -1570 48 49 63
-149.953 -164.365 -1573 51 52 65
-146.887 -164.448 -1574 60 61 73
-144.092 -164.846 -1578 63 64 78
-141.103 -165.034 -1580 61 62 76
-138.194 -165.328 -1583 59 60 74
-135.19 -165.518 -1585 56 58 71
-132.095 -165.603 -1586 53 56 69
-128.916 -165.585 -1586 51 51 65
-125.975 -165.88 -1589 48 49 62
-123.024 -166.176 -1592 48 49 61
-119.911 -166.263 -1593 50 51 63
-117.089 -166.768 -1598 52 53 65
-114.176 -167.169 -1602 55 56 68
-111.04 -167.258 -1603 61 62 74
-107.9 -167.347 -1604 60 61 73
-104.889 -167.645 -1607 54 55 67
-101.74 -167.735 -1608 53 54 65
-98.587 -167.825 -1609 50 51 61
-95.6684 -168.333 -1614 48 49 59
