ply
format ascii 1.0
comment Created by Open3D
element vertex 1340
property double x
property double y
property double z
property uchar red
property uchar green
property uchar blue
end_header
-339.009 -450.935 -1472 186 210 251
-336.296 -451.403 -1474 190 214 255
-333.125 -451.259 -1474 194 218 255
-329.733 -450.811 -1473 191 216 255
-326.127 -450.058 -1471 186 213 253
-322.533 -449.307 -1469 182 209 250
-318.732 -448.252 -1466 179 206 247
-316.024 -448.727 -1468 174 201 241
-312.671 -448.287 -1467 174 202 242
-309.746 -448.459 -1468 172 200 241
-306.82 -448.633 -1469 163 194 237
-303.893 -448.808 -1470 159 190 233
-300.964 -448.984 -1471 157 189 232
-298.034 -449.161 -1472 147 182 226
-294.901 -449.034 -1472 151 187 231
-291.771 -448.909 -1472 151 189 232
-288.84 -449.09 -1473 154 190 236
-285.519 -448.663 -1472 142 180 225
-282.014 -447.932 -1470 141 183 227
-279.278 -448.422 -1472 157 199 243
-276.348 -448.609 -1473 151 193 237
-273.417 -448.796 -1474 152 195 239
-270.117 -448.376 -1473 143 184 231
-267.911 -449.784 -1478 133 174 221
-264.791 -449.671 -1478 127 168 217
-262.559 -451.08 -1483 128 168 217
-259.782 -451.577 -1485 127 167 216
-257.173 -452.379 -1488 131 172 221
-254.212 -452.575 -1489 126 166 215
-251.248 -452.772 -1490 127 167 216
-247.95 -452.362 -1489 131 171 221
-244.987 -452.562 -1490 137 177 228
-241.859 -452.459 -1490 140 181 235
-238.734 -452.357 -1490 154 191 243
-235.927 -452.864 -1492 166 203 254
-232.802 -452.765 -1492 176 213 255
-230.294 -453.881 -1496 183 218 255
-227.468 -454.391 -1498 186 220 255
-224.935 -455.508 -1502 177 211 251
-222.388 -456.627 -1506 160 193 238
-219.825 -457.746 -1510 153 185 229
-217.822 -460.079 -1518 153 185 227
-215.363 -461.503 -1523 145 177 219
-213.443 -464.139 -1532 142 174 216
-210.8 -465.262 -1536 149 177 219
-208.683 -467.596 -1544 147 174 216
-206.003 -468.72 -1548 150 174 215
-203.832 -471.056 -1556 148 168 203
-200.468 -470.669 -1555 143 160 194
-198.126 -472.703 -1562 145 165 198
-194.259 -471.108 -1557 158 179 215
-189.801 -468.002 -1547 169 190 231
-184.542 -462.781 -1530 171 187 216
-378.601 -453.749 -1464 192 210 236
-378.482 -457.302 -1476 182 203 237
-377.297 -459.615 -1484 187 209 244
-375.072 -460.69 -1488 185 211 245
-372.084 -460.836 -1489 184 210 246
-368.6 -460.366 -1488 183 210 246
-365.369 -460.206 -1488 186 209 248
-361.897 -459.738 -1487 188 212 252
-357.469 -458.036 -1482 189 213 254
-353.543 -456.955 -1479 190 214 254
-349.871 -456.184 -1477 189 213 254
-345.976 -455.107 -1474 185 209 250
-342.562 -454.648 -1473 184 208 249
-339.616 -454.809 -1474 186 210 251
-336.441 -454.663 -1474 189 213 254
-333.269 -454.518 -1474 187 211 252
-329.875 -454.066 -1473 181 206 247
-326.268 -453.307 -1471 178 205 245
-322.672 -452.551 -1469 175 202 242
-319.087 -451.796 -1467 172 199 239
-316.16 -451.967 -1468 172 196 237
-312.805 -451.523 -1467 172 200 240
-310.09 -452.004 -1469 173 201 241
-306.952 -451.871 -1469 167 199 241
-304.023 -452.048 -1470 163 195 237
-301.093 -452.225 -1471 159 191 233
-298.161 -452.403 -1472 148 183 227
-295.027 -452.275 -1472 154 191 234
-291.896 -452.149 -1472 158 196 239
-288.964 -452.332 -1473 164 202 247
-285.448 -451.594 -1471 151 190 235
-282.134 -451.165 -1470 143 185 229
-279.207 -451.352 -1471 156 200 244
-276.279 -451.54 -1472 148 192 236
-273.534 -452.035 -1474 142 186 230
-270.599 -452.225 -1475 134 176 222
-268.026 -453.03 -1478 127 168 215
-265.442 -453.835 -1481 124 165 214
-263.025 -454.947 -1485 121 162 211
-260.068 -455.142 -1486 116 156 205
-257.455 -455.95 -1489 120 161 210
-254.32 -455.841 -1489 122 162 211
-251.524 -456.345 -1491 123 163 212
-248.389 -456.238 -1491 127 167 218
-245.256 -456.133 -1491 132 172 223
-242.125 -456.029 -1491 132 173 225
-238.836 -455.621 -1490 144 184 234
-236.027 -456.131 -1492 155 194 244
-233.369 -456.948 -1495 165 202 250
-230.392 -457.155 -1496 175 211 255
-227.868 -458.279 -1500 180 215 255
-225.18 -459.1 -1503 184 219 254
-222.482 -459.921 -1506 178 212 248
-219.481 -460.132 -1507 158 190 230
-217.484 -462.482 -1515 144 176 220
-214.605 -463 -1517 140 171 216
-213.393 -467.182 -1531 138 169 216
-210.34 -467.397 -1532 141 170 209
-209.042 -471.579 -1546 140 167 205
-206.622 -473.321 -1552 141 163 196
-204.311 -475.369 -1559 143 162 194
-201.714 -476.807 -1564 146 163 194
-199.605 -479.465 -1573 141 157 187
-195.839 -478.162 -1569 145 161 192
-190.617 -473.205 -1553 152 168 200
-377.214 -455.135 -1458 196 214 240
-378.135 -459.963 -1474 186 207 240
-377.462 -462.916 -1484 189 211 246
-375.993 -464.934 -1491 184 211 245
-372.997 -465.081 -1492 185 211 246
-369.504 -464.607 -1491 186 211 247
-365.528 -463.511 -1488 188 210 247
-361.568 -462.417 -1485 189 212 251
-357.866 -461.636 -1483 190 214 255
-353.458 -459.924 -1478 191 215 255
-349.55 -458.837 -1475 189 213 254
-346.361 -458.685 -1475 183 207 248
-342.944 -458.224 -1474 178 202 243
-339.533 -457.764 -1473 178 202 243
-336.587 -457.927 -1474 180 204 245
-333.187 -457.47 -1473 177 201 242
-329.571 -456.704 -1471 172 196 237
-326.188 -456.251 -1470 169 196 236
-322.592 -455.489 -1468 166 193 233
-319.225 -455.039 -1467 165 192 232
-316.297 -455.211 -1468 171 195 236
-313.154 -455.074 -1468 172 200 240
-310.225 -455.249 -1469 172 203 242
-307.503 -455.734 -1471 168 200 242
-304.569 -455.911 -1472 166 197 239
-301.633 -456.089 -1473 161 192 235
-298.695 -456.269 -1474 151 186 230
-295.355 -455.83 -1473 152 189 233
-292.022 -455.394 -1472 153 193 236
-288.892 -455.268 -1472 158 196 240
-285.571 -454.834 -1471 146 185 229
-282.448 -454.712 -1471 138 180 224
-279.517 -454.899 -1472 150 194 239
-276.585 -455.088 -1473 140 184 229
-273.837 -455.587 -1475 132 176 221
-271.083 -456.087 -1477 125 167 213
-268.504 -456.897 -1480 125 166 213
-265.735 -457.399 -1482 124 165 213
-262.96 -457.902 -1484 123 163 212
-260.18 -458.407 -1486 121 161 210
-257.566 -459.221 -1489 121 162 211
-254.6 -459.419 -1490 119 159 209
-251.8 -459.926 -1492 118 158 208
-248.495 -459.51 -1491 124 164 215
-245.69 -460.02 -1493 127 167 217
-242.553 -459.916 -1493 123 164 213
-239.098 -459.196 -1491 132 172 220
-236.286 -459.71 -1493 140 180 228
-233.625 -460.533 -1496 147 186 234
-230.798 -461.049 -1498 160 197 245
-228.118 -461.874 -1501 171 207 254
-225.277 -462.392 -1503 180 214 253
-222.429 -462.911 -1505 189 222 255
-219.284 -462.817 -1505 188 220 254
-217.433 -465.49 -1514 170 203 245
-214.697 -466.32 -1517 153 185 228
-212.926 -469.303 -1527 146 177 225
-210.155 -470.134 -1530 140 169 210
-208.184 -472.81 -1539 124 152 190
-205.645 -474.257 -1544 109 131 159
-203.087 -475.706 -1549 107 127 154
-200.896 -478.076 -1557 111 129 156
-199.056 -481.368 -1568 116 130 153
-195.298 -480.056 -1564 109 121 146
-378.416 -459.643 -1462 195 213 239
-379.585 -464.819 -1479 189 210 242
-379.156 -468.107 -1490 190 212 247
-376.411 -468.568 -1492 187 213 247
-372.411 -467.46 -1489 188 213 248
-369.171 -467.296 -1489 186 211 247
-365.198 -466.192 -1486 186 208 245
-361.484 -465.404 -1484 187 210 249
-357.782 -464.618 -1482 187 211 252
-354.092 -463.834 -1480 188 212 253
-349.94 -462.426 -1476 186 210 251
-346.748 -462.272 -1476 183 207 248
-343.327 -461.807 -1475 179 203 244
-339.682 -461.031 -1473 178 202 243
-336.506 -460.882 -1473 177 201 242
-333.107 -460.422 -1472 176 200 241
-329.715 -459.964 -1471 177 202 242
-326.552 -459.82 -1471 178 205 245
-322.953 -459.052 -1469 173 200 240
-319.8 -458.911 -1469 171 198 238
-316.866 -459.084 -1470 174 198 239
-313.717 -458.946 -1470 171 199 239
-310.782 -459.121 -1471 170 199 239
-307.846 -459.298 -1472 168 200 241
-304.701 -459.164 -1472 165 196 238
-301.764 -459.343 -1473 160 190 233
-298.825 -459.524 -1474 151 188 231
-295.484 -459.082 -1473 152 190 233
-292.348 -458.954 -1473 154 194 237
-289.214 -458.827 -1473 155 193 236
-285.695 -458.079 -1471 137 177 220
-282.762 -458.266 -1472 128 170 214
-279.639 -458.144 -1472 135 179 225
-276.893 -458.645 -1474 118 163 209
-274.141 -459.148 -1476 113 157 203
-271.384 -459.651 -1478 113 155 202
-268.62 -460.156 -1480 121 162 209
-266.03 -460.972 -1483 125 166 213
-263.074 -461.168 -1484 125 166 214
-260.292 -461.676 -1486 131 171 221
-257.677 -462.495 -1489 134 175 225
-254.881 -463.005 -1491 121 162 212
-251.909 -463.206 -1492 117 158 209
-249.103 -463.718 -1494 123 164 215
-246.29 -464.232 -1496 117 158 208
-242.82 -463.505 -1494 112 153 200
-239.682 -463.401 -1494 117 158 205
-236.705 -463.608 -1495 125 165 212
-233.882 -464.126 -1497 128 168 215
-231.052 -464.646 -1499 138 176 224
-228.52 -465.786 -1503 150 188 237
-225.673 -466.308 -1505 166 200 245
-222.82 -466.831 -1507 177 210 253
-219.669 -466.735 -1507 189 221 255
-217.526 -468.809 -1514 187 221 255
-214.506 -469.025 -1515 178 212 250
-212.739 -472.029 -1525 167 198 245
-210.108 -473.176 -1529 157 188 233
-207.732 -474.942 -1535 149 179 223
-204.8 -475.472 -1537 115 138 168
-202.124 -476.622 -1541 109 129 159
-199.821 -478.7 -1548 109 126 157
-197.363 -480.47 -1554 84 96 119
-193.882 -479.768 -1552 47 57 78
-377.7 -465.587 -1471 186 206 236
-379.324 -471.43 -1490 188 210 244
-376.326 -471.578 -1491 186 211 245
-373.577 -472.043 -1493 188 213 248
-369.831 -471.245 -1491 188 213 249
-365.605 -469.817 -1487 187 210 247
-361.644 -468.708 -1484 188 212 250
-357.941 -467.916 -1482 188 212 253
-354.01 -466.811 -1479 189 213 254
-350.095 -465.708 -1476 188 212 253
-346.902 -465.553 -1476 186 210 251
-343.246 -464.769 -1474 185 209 250
-339.832 -464.302 -1473 182 206 247
-336.426 -463.837 -1472 180 204 245
-333.254 -463.689 -1472 180 204 245
-329.86 -463.227 -1471 179 204 245
-326.474 -462.767 -1470 177 204 244
-323.095 -462.309 -1469 174 201 241
-320.377 -462.796 -1471 173 199 239
-317.221 -462.655 -1471 174 198 239
-314.069 -462.516 -1471 170 197 237
-310.919 -462.378 -1471 166 194 234
-307.772 -462.242 -1471 163 195 236
-304.628 -462.107 -1471 164 195 237
-302.101 -462.915 -1474 160 190 233
-299.159 -463.097 -1475 149 187 230
-295.814 -462.652 -1474 150 189 232
-292.674 -462.523 -1474 147 187 230
-289.341 -462.081 -1473 138 178 221
-285.82 -461.328 -1471 125 166 209
-283.078 -461.83 -1473 126 168 212
-279.951 -461.706 -1473 145 189 235
-277.014 -461.898 -1474 125 170 216
-274.261 -462.404 -1476 125 169 215
-271.502 -462.91 -1478 129 171 218
-268.737 -463.418 -1480 133 174 221
-266.146 -464.241 -1483 135 176 223
-263.366 -464.751 -1485 136 176 225
-260.406 -464.949 -1486 141 181 232
-257.789 -465.774 -1489 138 179 230
-254.992 -466.288 -1491 126 167 218
-252.188 -466.803 -1493 123 164 215
-249.211 -467.006 -1494 127 168 219
-246.397 -467.523 -1496 118 159 210
-243.414 -467.728 -1497 112 153 200
-240.428 -467.935 -1498 110 150 197
-237.6 -468.456 -1500 111 151 198
-234.765 -468.977 -1502 113 153 200
-231.923 -469.5 -1504 119 158 203
-229.227 -470.336 -1507 129 167 211
-226.221 -470.549 -1508 144 178 222
-223.213 -470.763 -1509 158 191 235
-220.348 -471.291 -1511 171 203 245
-218.051 -473.067 -1517 174 208 249
-215.732 -474.843 -1523 180 213 254
-212.971 -475.686 -1526 183 215 253
-210.198 -476.529 -1529 180 212 252
-207.28 -477.062 -1531 176 207 247
-204.622 -478.219 -1535 161 185 213
-201.687 -478.754 -1537 106 127 153
-199.003 -479.913 -1541 64 82 107
-196.686 -482.007 -1548 32 44 63
-193.091 -480.988 -1545 27 37 56
-378.64 -469.829 -1474 187 205 235
-378.475 -473.483 -1486 187 208 241
-377 -475.543 -1493 185 210 244
-373.494 -475.056 -1492 187 212 247
-369.004 -473.298 -1487 188 213 249
-365.277 -472.497 -1485 188 213 249
-361.806 -472.015 -1484 189 214 252
-357.859 -470.9 -1481 189 213 254
-353.928 -469.787 -1478 190 214 254
-350.014 -468.676 -1475 191 215 254
-347.056 -468.838 -1476 191 215 255
-343.399 -468.049 -1474 191 215 255
-340.214 -467.896 -1474 186 210 251
-337.033 -467.744 -1474 181 205 246
-333.855 -467.595 -1474 180 204 245
-330.68 -467.447 -1474 178 202 243
-327.063 -466.666 -1472 175 202 242
-323.898 -466.521 -1472 173 200 240
-320.737 -466.377 -1472 172 199 239
-317.578 -466.235 -1472 171 198 238
-314.635 -466.412 -1473 169 196 236
-311.48 -466.272 -1473 164 192 232
-308.327 -466.135 -1473 160 190 232
-304.97 -465.682 -1472 163 194 236
-302.235 -466.18 -1474 158 190 232
-299.088 -466.047 -1474 150 188 229
-295.945 -465.915 -1474 146 185 227
-293.002 -466.101 -1475 141 181 224
-289.665 -465.656 -1474 136 176 219
-286.334 -465.212 -1473 132 172 216
-283.78 -466.034 -1476 131 173 217
-280.645 -465.909 -1476 153 197 241
-277.888 -466.417 -1478 136 180 225
-274.939 -466.61 -1479 136 180 226
-272.173 -467.12 -1481 142 185 231
-269.037 -467.001 -1481 145 188 234
-266.262 -467.513 -1483 149 190 238
-263.482 -468.027 -1485 150 190 240
-260.695 -468.542 -1487 152 193 244
-257.729 -468.743 -1488 146 189 239
-255.103 -469.575 -1491 137 179 229
-252.129 -469.778 -1492 133 174 225
-249.153 -469.983 -1493 135 176 227
-246.505 -470.818 -1496 126 167 218
-243.683 -471.34 -1498 121 164 211
-240.694 -471.548 -1499 118 159 208
-238.021 -472.386 -1502 113 153 202
-235.336 -473.226 -1505 112 152 197
-232.642 -474.066 -1508 111 150 193
-229.784 -474.594 -1510 113 151 191
-226.62 -474.494 -1510 114 148 190
-223.754 -475.023 -1512 122 156 197
-220.736 -475.24 -1513 134 166 207
-218.147 -476.4 -1517 148 182 224
-215.401 -477.248 -1520 164 198 240
-213.622 -480.293 -1530 178 210 250
-210.428 -480.201 -1530 187 219 255
-208.048 -481.992 -1536 188 220 255
-205.245 -482.843 -1539 199 225 251
-201.906 -482.44 -1538 145 167 192
-199.348 -483.921 -1543 50 67 90
-196.517 -484.776 -1546 41 53 73
-193.175 -484.377 -1545 40 51 70
-376.498 -470.238 -1465 188 206 236
-377.372 -475.202 -1481 185 207 241
-375.654 -476.956 -1487 182 208 244
-373.412 -478.07 -1491 184 209 245
-370.163 -477.901 -1491 186 208 245
-366.18 -476.774 -1488 188 211 250
-362.212 -475.648 -1485 187 212 250
-358.261 -474.525 -1482 186 212 251
-354.327 -473.404 -1479 186 213 251
-350.171 -471.965 -1475 186 212 251
-346.977 -471.808 -1475 186 210 253
-343.553 -471.332 -1474 183 207 248
-340.367 -471.178 -1474 179 203 244
-337.184 -471.026 -1474 177 201 242
-333.778 -470.556 -1473 179 203 245
-330.155 -469.768 -1471 179 203 245
-327.432 -470.259 -1473 174 200 242
-323.823 -469.474 -1471 173 199 240
-320.88 -469.649 -1472 173 200 240
-317.935 -469.824 -1473 172 199 238
-314.775 -469.683 -1473 169 198 237
-311.407 -469.224 -1472 166 195 235
-308.255 -469.085 -1472 159 189 231
-305.313 -469.266 -1473 160 190 233
-302.575 -469.768 -1475 156 187 230
-299.628 -469.952 -1476 151 189 230
-296.478 -469.819 -1476 145 184 225
-293.53 -470.005 -1477 140 179 221
-289.99 -469.239 -1475 135 175 217
-286.656 -468.792 -1474 136 177 219
-283.906 -469.301 -1476 129 172 216
-280.959 -469.493 -1477 151 194 238
-278.199 -470.004 -1479 134 178 222
-275.247 -470.199 -1480 132 177 223
-272.477 -470.712 -1482 145 189 235
-269.156 -470.274 -1481 148 191 237
-266.201 -470.473 -1482 155 196 245
-263.421 -470.99 -1484 159 199 249
-260.46 -471.191 -1485 159 199 250
-257.67 -471.711 -1487 156 197 247
-255.216 -472.866 -1491 144 186 236
-252.41 -473.388 -1493 138 178 229
-249.43 -473.594 -1494 138 179 230
-246.778 -474.435 -1497 134 175 225
-243.953 -474.96 -1499 133 175 224
-241.122 -475.486 -1501 134 176 226
-238.442 -476.33 -1504 130 170 222
-235.753 -477.175 -1507 128 167 214
-232.744 -477.388 -1508 123 162 205
-230.037 -478.236 -1511 120 158 197
-226.72 -477.818 -1510 118 152 194
-224.001 -478.668 -1513 117 151 191
-221.125 -479.203 -1515 121 153 191
-218.818 -481.003 -1521 130 163 204
-216.346 -482.489 -1526 140 173 215
-213.716 -483.658 -1530 152 183 230
-211.483 -485.777 -1537 164 196 240
-208.274 -485.685 -1537 180 211 252
-205.068 -485.594 -1537 201 229 254
-202.126 -486.136 -1539 189 211 234
-199.048 -486.364 -1540 83 99 123
-196.349 -487.54 -1544 44 56 78
-193.385 -488.086 -1546 44 56 78
-375.126 -471.581 -1459 195 211 241
-377.289 -478.195 -1480 187 207 241
-375.825 -480.285 -1487 183 208 243
-373.582 -481.406 -1491 184 209 244
-369.835 -480.591 -1489 186 209 246
-366.1 -479.778 -1487 189 214 252
-361.888 -478.322 -1483 186 212 250
-358.182 -477.513 -1481 185 212 250
-354.008 -476.062 -1477 186 213 251
-350.33 -475.257 -1475 186 213 251
-347.134 -475.099 -1475 184 208 251
-343.708 -474.62 -1474 181 205 245
-340.52 -474.465 -1474 179 203 243
-337.565 -474.633 -1475 180 204 244
-334.155 -474.16 -1474 182 206 247
-330.977 -474.009 -1474 182 206 248
-327.579 -473.539 -1473 178 204 247
-324.63 -473.713 -1474 175 202 244
-321.024 -472.924 -1472 175 202 242
-318.294 -473.422 -1474 172 199 237
-314.703 -472.637 -1472 170 198 237
-311.758 -472.817 -1473 167 198 237
-308.393 -472.356 -1472 162 192 234
-305.243 -472.218 -1472 162 192 234
-302.3 -472.402 -1473 163 193 236
-299.356 -472.587 -1474 148 186 228
-296.41 -472.774 -1475 143 183 224
-293.462 -472.962 -1476 139 177 218
-290.12 -472.51 -1475 134 174 216
-286.784 -472.06 -1474 141 183 225
-283.84 -472.252 -1475 120 164 208
-281.085 -472.766 -1477 136 180 224
-278.512 -473.601 -1480 134 178 222
-275.556 -473.796 -1481 140 185 231
-272.783 -474.313 -1483 146 189 236
-269.64 -474.192 -1483 151 192 239
-266.319 -473.752 -1482 157 198 247
-263.183 -473.634 -1482 157 198 247
-260.576 -474.475 -1485 159 199 250
-257.611 -474.679 -1486 165 203 253
-255.158 -475.842 -1490 162 199 249
-252.522 -476.687 -1493 150 190 239
-249.541 -476.894 -1494 146 184 235
-246.723 -477.422 -1496 143 180 232
-244.224 -478.588 -1500 142 182 231
-241.229 -478.799 -1501 144 184 235
-238.865 -480.287 -1506 142 181 235
-236.014 -480.819 -1508 140 178 229
-233.156 -481.352 -1510 135 173 222
-230.139 -481.568 -1511 133 171 216
-226.97 -481.466 -1511 128 164 207
-224.248 -482.322 -1514 125 160 203
-221.369 -482.86 -1516 129 162 206
-218.915 -484.355 -1521 130 162 204
-216.158 -485.213 -1524 132 164 205
-214.369 -488.301 -1534 138 170 213
-211.576 -489.161 -1537 146 177 220
-208.638 -489.705 -1539 162 191 236
-205.559 -489.931 -1540 180 210 246
-202.478 -490.159 -1541 187 212 244
-198.877 -489.116 -1538 102 118 148
-196.181 -490.3 -1542 43 54 74
-193.094 -490.532 -1543 41 52 71
-373.636 -476.634 -1465 192 210 242
-373.974 -481.016 -1479 187 211 245
-373.001 -483.771 -1488 189 214 248
-370.004 -483.926 -1489 190 215 251
-366.267 -483.107 -1487 192 218 254
-362.542 -482.29 -1485 190 217 253
-358.345 -480.826 -1481 189 215 253
-354.169 -479.365 -1477 187 214 252
-350.489 -478.555 -1475 185 212 250
-347.527 -478.719 -1476 186 210 251
-343.864 -477.913 -1474 185 209 248
-340.906 -478.081 -1475 184 208 247
-337.49 -477.602 -1474 188 212 251
-334.534 -477.772 -1475 186 210 250
-331.127 -477.297 -1474 182 206 247
-327.951 -477.147 -1474 179 205 248
-324.777 -476.998 -1474 176 202 245
-321.388 -476.528 -1473 175 201 244
-318.222 -476.382 -1473 174 198 237
-314.632 -475.592 -1471 172 198 237
-311.688 -475.773 -1472 166 197 236
-308.533 -475.632 -1472 162 192 233
-306.003 -476.461 -1475 161 191 233
-303.052 -476.646 -1476 163 193 236
-300.1 -476.833 -1477 150 187 229
-296.946 -476.697 -1477 142 180 223
-293.794 -476.563 -1477 138 176 217
-290.054 -475.464 -1474 135 176 217
-286.719 -475.011 -1473 145 187 229
-283.776 -475.204 -1474 115 159 203
-281.021 -475.721 -1476 141 185 229
-278.449 -476.561 -1479 146 190 234
-275.866 -477.403 -1482 143 187 233
-273.089 -477.923 -1484 143 186 233
-269.761 -477.479 -1483 149 190 237
-266.439 -477.036 -1482 158 199 248
-263.124 -476.595 -1481 163 204 253
-260.342 -477.12 -1483 164 204 254
-257.727 -477.969 -1486 167 207 255
-255.101 -478.818 -1489 171 210 255
-252.466 -479.669 -1492 165 205 253
-249.486 -479.877 -1493 164 203 252
-246.833 -480.73 -1496 159 197 249
-244.171 -481.584 -1499 150 190 239
-241.497 -482.438 -1502 151 191 241
-238.972 -483.615 -1506 151 191 243
-236.432 -484.793 -1510 150 187 239
-233.415 -485.008 -1511 149 187 237
-230.242 -484.905 -1511 150 188 234
-227.222 -485.123 -1512 147 182 227
-224.496 -485.984 -1515 141 175 221
-221.905 -487.167 -1519 137 171 216
-219.156 -488.031 -1522 137 169 212
-216.822 -489.857 -1528 135 167 208
-214.604 -492.004 -1535 130 162 204
-211.671 -492.55 -1537 135 165 209
-208.731 -493.097 -1539 144 173 218
-205.784 -493.645 -1541 159 191 231
-202.699 -493.874 -1542 179 206 243
-199.224 -493.144 -1540 109 128 158
-196.777 -494.977 -1546 43 54 74
-193.681 -495.21 -1547 42 52 71
-371.257 -476.648 -1455 195 211 242
-372.881 -482.699 -1474 189 212 246
-372.42 -486.128 -1485 190 215 249
-369.925 -486.938 -1488 192 217 253
-366.435 -486.441 -1487 195 221 255
-362.464 -485.291 -1484 196 223 255
-358.51 -484.144 -1481 195 219 255
-353.852 -482.019 -1475 192 218 255
-350.412 -481.53 -1474 189 216 254
-347.451 -481.696 -1475 191 215 254
-343.555 -480.557 -1472 189 213 253
-340.6 -480.726 -1473 187 211 250
-337.644 -480.897 -1474 190 214 253
-334.233 -480.416 -1473 186 210 250
-331.054 -480.263 -1473 182 206 247
-327.878 -480.112 -1473 177 203 246
-324.484 -479.637 -1472 175 201 244
-321.098 -479.163 -1471 173 199 242
-318.151 -479.342 -1472 171 197 235
-314.989 -479.197 -1472 170 198 236
-312.042 -479.379 -1473 168 199 238
-308.673 -478.912 -1472 167 198 239
-306.142 -479.747 -1475 166 196 239
-302.78 -479.283 -1474 165 196 239
-299.83 -479.47 -1475 152 189 231
-296.879 -479.659 -1476 146 184 227
-293.927 -479.849 -1477 144 182 223
-290.186 -478.742 -1474 138 178 220
-287.238 -478.935 -1475 134 176 218
-284.29 -479.129 -1476 109 153 197
-281.339 -479.325 -1477 134 178 222
-278.763 -480.171 -1480 125 169 213
-276.364 -481.343 -1484 124 168 214
-273.581 -481.866 -1486 137 180 227
-270.429 -481.743 -1486 147 188 235
-266.739 -480.648 -1483 154 195 243
-263.598 -480.528 -1483 164 204 253
-260.635 -480.733 -1484 161 201 251
-258.017 -481.587 -1487 165 205 254
-255.388 -482.442 -1490 174 214 255
-252.918 -483.622 -1494 170 210 255
-249.765 -483.508 -1494 168 208 255
-246.779 -483.719 -1495 165 205 255
-244.118 -484.579 -1498 160 200 249
-241.284 -485.116 -1500 161 201 251
-238.762 -486.301 -1504 159 199 250
-236.069 -487.164 -1507 156 193 245
-233.365 -488.027 -1510 154 192 242
-230.346 -488.246 -1511 153 191 238
-227.474 -488.789 -1513 152 187 233
-224.745 -489.656 -1516 148 183 229
-222.005 -490.524 -1519 147 181 227
-219.543 -492.039 -1524 146 179 222
-216.919 -493.232 -1528 144 176 218
-214.421 -494.748 -1533 135 167 209
-211.49 -495.298 -1535 136 167 210
-208.824 -496.494 -1539 140 170 215
-206.01 -497.368 -1542 154 186 227
-203.053 -497.921 -1544 176 204 241
-199.831 -497.831 -1544 117 137 168
-197.12 -499.031 -1548 41 53 73
-193.642 -498.298 -1546 42 52 71
-371.03 -483.374 -1466 190 210 242
-371.088 -487.487 -1479 190 214 248
-369.351 -489.291 -1485 191 216 252
-366.852 -490.109 -1488 193 219 254
-363.365 -489.61 -1487 196 221 255
-358.918 -487.796 -1482 198 222 255
-354.256 -485.655 -1476 197 223 255
-350.574 -484.834 -1474 196 223 255
-347.376 -484.672 -1474 193 217 255
-343.714 -483.854 -1472 188 212 252
-340.526 -483.696 -1472 186 210 249
-337.8 -484.196 -1474 186 210 250
-334.614 -484.04 -1474 182 206 247
-330.982 -483.229 -1472 180 204 245
-328.029 -483.405 -1473 177 204 245
-325.075 -483.583 -1474 173 200 241
-321.464 -482.777 -1472 170 197 238
-318.514 -482.958 -1473 168 195 234
-315.134 -482.484 -1472 168 196 235
-312.185 -482.667 -1473 169 201 240
-309.025 -482.524 -1473 173 203 244
-306.283 -483.037 -1475 172 202 244
-303.124 -482.897 -1475 168 200 242
-300.374 -483.413 -1477 155 191 233
-297.217 -483.275 -1477 147 185 227
-294.062 -483.14 -1477 146 184 225
-290.515 -482.351 -1475 148 188 230
-287.37 -482.219 -1475 141 183 225
-284.227 -482.088 -1475 116 160 204
-281.467 -482.611 -1477 137 181 225
-279.456 -484.443 -1483 141 185 229
-276.676 -484.969 -1485 141 185 231
-273.89 -485.496 -1487 144 187 233
-270.552 -485.045 -1486 143 184 231
-267.041 -484.269 -1484 148 188 237
-263.718 -483.822 -1483 158 198 247
-260.753 -484.028 -1484 158 199 248
-258.308 -485.214 -1488 159 200 249
-255.847 -486.401 -1492 168 208 254
-253.372 -487.588 -1496 169 209 255
-250.046 -487.148 -1495 168 208 255
-247.057 -487.36 -1496 168 208 255
-244.228 -487.9 -1498 167 207 255
-241.394 -488.44 -1500 169 209 255
-238.712 -489.308 -1503 167 207 255
-236.176 -490.502 -1507 164 201 253
-233.471 -491.371 -1510 160 197 248
-230.603 -491.917 -1512 153 191 238
-227.878 -492.788 -1515 150 186 232
-224.995 -493.336 -1517 148 183 229
-222.691 -495.185 -1523 154 188 234
-219.93 -496.06 -1526 154 188 232
-217.301 -497.261 -1530 148 182 224
-214.658 -498.463 -1534 141 173 215
-211.723 -499.016 -1536 142 174 216
-208.783 -499.571 -1538 148 179 222
-205.835 -500.126 -1540 161 193 235
-202.75 -500.358 -1541 176 205 244
-199.792 -500.916 -1543 128 149 181
-197.336 -502.774 -1549 47 59 80
-194.356 -503.335 -1551 46 56 75
-191.739 -504.87 -1556 0 0 0
-369.937 -485.014 -1461 188 206 236
-371.261 -490.814 -1479 189 211 246
-369.275 -492.3 -1484 192 217 252
-367.023 -493.454 -1488 190 215 251
-363.779 -493.283 -1488 190 215 251
-359.085 -491.125 -1482 194 218 254
-354.901 -489.632 -1478 196 221 255
-350.976 -488.474 -1475 194 221 254
-347.302 -487.648 -1473 191 215 252
-343.874 -487.156 -1472 184 208 246
-340.453 -486.665 -1471 182 206 245
-337.498 -486.838 -1472 181 205 246
-334.769 -487.343 -1474 179 203 244
-331.135 -486.526 -1472 180 204 245
-328.181 -486.703 -1473 176 203 243
-325.226 -486.882 -1474 172 199 239
-321.832 -486.401 -1473 170 197 237
-318.661 -486.252 -1473 169 197 237
-315.28 -485.775 -1472 167 195 235
-312.329 -485.959 -1473 170 202 241
-309.378 -486.145 -1474 173 204 245
-306.424 -486.332 -1475 170 200 242
-303.264 -486.19 -1475 167 199 241
-300.513 -486.71 -1477 155 190 231
-297.354 -486.571 -1477 148 186 227
-294.396 -486.764 -1478 145 183 224
-291.043 -486.299 -1477 151 190 233
-288.087 -486.494 -1478 146 188 232
-285.129 -486.691 -1479 124 168 212
-282.36 -487.218 -1481 134 178 222
-279.584 -487.746 -1483 138 182 226
-276.99 -488.604 -1486 129 173 219
-274.016 -488.806 -1487 132 176 222
-270.676 -488.352 -1486 135 176 223
-267.703 -488.556 -1487 142 182 231
-264.373 -488.105 -1486 149 189 238
-261.225 -487.984 -1486 150 191 240
-258.947 -489.507 -1491 150 191 239
-256.136 -490.045 -1493 160 201 248
-253.319 -490.584 -1495 165 205 254
-250.16 -490.468 -1495 165 205 254
-247.335 -491.01 -1497 168 208 255
-244.014 -490.569 -1496 165 205 255
-241.182 -491.114 -1498 167 208 255
-238.662 -492.315 -1502 166 206 255
-235.97 -493.189 -1505 168 206 255
-233.113 -493.737 -1507 167 204 254
-230.403 -494.614 -1510 162 200 246
-227.982 -496.147 -1515 158 195 240
-225.395 -497.353 -1519 153 190 236
-222.792 -498.56 -1523 161 195 241
-219.886 -499.113 -1525 160 194 239
-217.258 -500.322 -1529 152 186 229
-214.895 -502.187 -1535 147 179 222
-211.682 -502.089 -1535 149 181 224
-208.878 -502.974 -1538 152 184 226
-206.196 -504.187 -1542 163 194 237
-203.369 -505.075 -1545 174 202 243
-199.753 -504.002 -1542 137 159 193
-197.298 -505.873 -1548 52 65 88
-193.943 -505.457 -1547 47 58 78
-190.347 -504.389 -1544 52 62 81
-367.325 -484.631 -1450 183 198 224
-369.678 -491.808 -1472 182 203 236
-368.701 -494.64 -1481 187 212 246
-366.702 -496.136 -1486 185 210 245
-363.95 -496.631 -1488 181 206 242
-359.739 -495.126 -1484 175 200 236
-355.068 -492.956 -1478 176 201 237
-351.14 -491.789 -1475 176 201 237
-347.465 -490.958 -1473 177 202 238
-344.035 -490.462 -1472 177 202 239
-340.612 -489.968 -1471 182 206 245
-337.886 -490.475 -1473 186 210 251
-334.699 -490.317 -1473 183 207 248
-331.515 -490.161 -1473 181 205 246
-328.557 -490.339 -1474 178 205 245
-325.377 -490.185 -1474 174 201 241
-322.2 -490.034 -1474 173 200 240
-318.81 -489.551 -1473 171 198 238
-315.641 -489.403 -1473 165 193 233
-312.687 -489.588 -1474 173 205 244
-309.732 -489.775 -1475 174 205 245
-306.775 -489.963 -1476 168 198 240
-303.816 -490.152 -1477 166 198 240
-300.653 -490.011 -1477 154 189 231
-297.492 -489.872 -1477 146 184 225
-294.334 -489.734 -1477 146 184 225
-291.178 -489.597 -1477 150 190 232
-288.22 -489.794 -1478 145 187 231
-285.647 -490.654 -1481 123 167 213
-282.49 -490.522 -1481 125 169 214
-279.902 -491.385 -1484 130 174 218
-277.304 -492.249 -1487 118 162 208
-274.143 -492.121 -1487 116 160 206
-270.802 -491.663 -1486 118 159 206
-268.007 -492.2 -1488 127 167 216
-264.673 -491.746 -1487 130 170 219
-262.049 -492.616 -1490 128 171 219
-259.24 -493.156 -1492 135 177 225
-256.597 -494.028 -1495 154 195 242
-253.775 -494.571 -1497 161 202 251
-250.443 -494.124 -1496 159 199 248
-247.614 -494.669 -1498 161 201 250
-244.453 -494.555 -1498 163 204 255
-241.454 -494.773 -1499 165 206 255
-238.613 -495.322 -1501 167 207 255
-236.079 -496.532 -1505 168 206 255
-233.375 -497.414 -1508 169 206 254
-230.661 -498.296 -1511 165 203 248
-228.238 -499.839 -1516 164 202 247
-225.646 -501.053 -1520 162 200 245
-222.894 -501.939 -1523 172 207 253
-220.276 -503.155 -1527 171 205 250
-217.784 -504.701 -1532 161 195 239
-215.134 -505.919 -1536 153 186 230
-211.917 -505.821 -1536 151 183 227
-208.973 -506.383 -1538 151 183 226
-206.023 -506.946 -1540 158 189 232
-203.198 -507.839 -1543 170 199 240
-200.103 -508.076 -1544 144 168 202
-197.389 -509.301 -1548 56 71 96
-194.032 -508.882 -1547 45 57 78
-190.557 -508.136 -1545 52 62 80
-367.246 -487.567 -1449 181 192 216
-369.602 -494.793 -1471 178 198 231
-368.627 -497.644 -1480 181 206 240
-366.629 -499.15 -1485 182 207 242
-364.123 -499.985 -1488 178 203 239
-359.909 -498.469 -1484 173 198 234
-355.716 -496.956 -1480 168 193 229
-351.782 -495.781 -1477 166 191 225
-348.101 -494.944 -1475 169 194 230
-344.197 -493.773 -1472 174 198 234
-340.773 -493.276 -1471 183 205 243
-337.356 -492.78 -1470 185 208 248
-334.402 -492.956 -1471 184 208 248
-331.221 -492.799 -1471 184 208 248
-328.489 -493.313 -1473 181 207 247
-325.53 -493.494 -1474 179 206 246
-322.352 -493.341 -1474 179 206 246
-318.96 -492.855 -1473 178 206 246
-316.004 -493.04 -1474 170 198 238
-312.621 -492.558 -1473 172 204 243
-309.667 -492.745 -1474 171 202 243
-306.71 -492.935 -1475 166 198 239
-303.547 -492.791 -1475 166 199 241
-300.59 -492.983 -1476 155 190 232
-297.631 -493.177 -1477 148 185 227
-294.671 -493.372 -1478 148 186 228
-291.512 -493.234 -1478 148 187 229
-288.745 -493.765 -1480 141 183 227
-286.166 -494.631 -1483 124 167 213
-282.813 -494.165 -1482 125 169 214
-280.41 -495.366 -1486 135 179 223
-276.874 -494.569 -1484 126 170 216
-274.086 -495.107 -1486 128 172 218
-271.11 -495.312 -1487 127 168 215
-268.492 -496.186 -1490 130 170 218
-265.33 -496.061 -1490 128 168 217
-262.523 -496.603 -1492 122 166 214
-259.882 -497.48 -1495 123 166 213
-256.888 -497.692 -1496 135 177 223
-254.232 -498.571 -1499 146 188 236
-250.894 -498.121 -1498 148 190 239
-247.729 -498.004 -1498 151 192 241
-244.566 -497.89 -1498 156 197 248
-241.566 -498.109 -1499 162 203 254
-238.564 -498.33 -1500 167 207 255
-235.874 -499.216 -1503 168 208 255
-233.174 -500.103 -1506 169 208 255
-230.768 -501.656 -1511 166 204 249
-228.343 -503.209 -1516 165 203 248
-225.899 -504.763 -1521 166 204 249
-223.29 -505.986 -1525 177 212 255
-220.955 -507.873 -1531 179 214 255
-217.885 -508.103 -1532 172 207 250
-215.374 -509.661 -1537 159 193 237
-212.429 -510.225 -1539 149 182 226
-210.021 -512.116 -1545 148 180 223
-206.788 -512.02 -1545 153 185 227
-203.819 -512.587 -1547 162 193 234
-200.455 -512.163 -1546 150 177 211
-197.735 -513.396 -1550 65 82 107
-193.87 -511.649 -1545 47 61 82
-190.028 -509.905 -1540 49 59 77
-367.168 -490.503 -1448 167 175 195
-369.527 -497.778 -1470 177 195 227
-369.551 -502.002 -1483 177 202 235
-367.545 -503.518 -1488 181 206 240
-364.541 -503.681 -1489 180 205 240
-360.081 -501.817 -1484 176 199 236
-355.886 -500.293 -1480 173 196 232
-351.95 -499.11 -1477 170 195 229
-348.03 -497.93 -1474 171 196 231
-344.595 -497.427 -1473 173 198 233
-341.167 -496.925 -1472 177 199 236
-337.976 -496.764 -1472 177 200 239
-335.243 -497.278 -1474 176 200 239
-332.054 -497.119 -1474 178 202 241
-329.314 -497.636 -1476 178 204 243
-326.126 -497.481 -1476 175 202 241
-322.723 -496.99 -1475 174 201 241
-319.327 -496.5 -1474 174 202 242
-316.153 -496.35 -1474 170 198 238
-312.982 -496.2 -1474 172 204 243
-310.023 -496.389 -1475 175 207 247
-307.271 -496.916 -1477 171 203 244
-304.308 -497.107 -1478 164 198 240
-301.139 -496.964 -1478 153 187 230
-298.175 -497.159 -1479 150 185 229
-295.009 -497.018 -1479 147 185 228
-291.649 -496.544 -1478 145 184 227
-288.881 -497.079 -1480 142 184 228
-285.721 -496.943 -1480 131 173 217
-282.755 -497.145 -1481 129 172 216
-280.165 -498.019 -1484 141 185 229
-277.004 -497.888 -1484 140 184 229
-274.399 -498.764 -1487 146 190 236
-271.055 -498.3 -1486 138 179 226
-268.258 -498.844 -1488 135 176 224
-265.098 -498.718 -1488 134 174 223
-262.293 -499.265 -1490 127 171 217
-259.656 -500.147 -1493 124 168 214
-256.837 -500.696 -1495 126 169 215
-254.011 -501.245 -1497 130 174 222
-250.844 -501.127 -1497 133 177 225
-247.845 -501.345 -1498 140 184 232
-244.844 -501.564 -1499 153 194 244
-241.84 -501.784 -1500 158 198 249
-238.835 -502.006 -1501 163 203 253
-236.298 -503.232 -1505 167 207 255
-233.282 -503.457 -1506 169 209 255
-230.876 -505.02 -1511 165 204 251
-228.148 -505.915 -1514 164 202 249
-225.856 -507.813 -1520 164 202 249
-223.248 -509.045 -1524 174 209 255
-220.913 -510.945 -1530 177 212 255
-218.271 -512.178 -1534 174 209 253
-216.034 -514.413 -1541 163 197 241
-212.804 -514.313 -1541 150 184 228
-209.983 -515.216 -1544 145 178 223
-207.018 -515.786 -1546 152 184 228
-203.914 -516.024 -1547 158 189 232
-200.678 -515.93 -1547 159 187 220
-197.827 -516.837 -1550 77 95 120
-194.462 -516.412 -1549 45 58 79
-190.857 -515.323 -1546 45 55 73
-365.822 -491.735 -1442 142 148 165
-369.705 -501.104 -1470 178 195 227
-370.476 -506.379 -1486 178 202 234
-367.721 -506.882 -1488 185 210 242
-365.451 -508.068 -1492 185 210 244
-361.224 -506.531 -1488 184 207 243
-357.5 -505.677 -1486 181 203 240
-352.357 -502.785 -1478 174 199 233
-348.669 -501.936 -1476 172 197 231
-344.525 -500.409 -1472 174 199 233
-341.33 -500.245 -1472 178 200 237
-337.678 -499.402 -1470 176 199 238
-335.175 -500.26 -1473 172 196 235
-331.761 -499.76 -1472 172 196 235
-329.024 -500.281 -1474 171 197 235
-325.84 -500.124 -1474 168 195 233
-322.877 -500.308 -1475 167 194 234
-319.263 -499.477 -1473 167 196 236
-316.089 -499.325 -1473 167 197 236
-312.918 -499.175 -1473 169 201 241
-309.96 -499.365 -1474 169 201 242
-307.209 -499.895 -1476 164 196 238
-304.04 -499.749 -1476 158 194 235
-301.282 -500.282 -1478 155 190 233
-298.114 -500.139 -1478 151 186 230
-295.149 -500.336 -1479 145 183 226
-291.787 -499.858 -1478 146 185 228
-289.018 -500.397 -1480 149 191 235
-286.05 -500.598 -1481 140 182 226
-282.698 -500.125 -1480 134 176 220
-279.919 -500.667 -1482 142 186 230
-276.948 -500.872 -1483 134 178 224
-274.16 -501.417 -1485 143 187 233
-270.818 -500.95 -1484 141 182 229
-268.204 -501.835 -1487 141 181 229
-265.402 -502.384 -1489 143 183 232
-262.593 -502.933 -1491 133 178 224
-259.605 -503.147 -1492 125 169 215
-256.786 -503.699 -1494 125 169 215
-253.961 -504.253 -1496 129 173 221
-250.627 -503.796 -1495 131 175 223
-247.962 -504.689 -1498 137 181 228
-244.959 -504.91 -1499 147 188 238
-241.793 -504.795 -1499 150 190 241
-238.947 -505.355 -1501 155 195 246
-236.252 -506.253 -1504 163 203 253
-233.547 -507.152 -1507 168 208 255
-230.678 -507.716 -1509 166 206 253
-228.406 -509.626 -1515 167 206 253
-226.259 -511.873 -1522 167 205 252
-223.499 -512.776 -1525 171 207 255
-221.017 -514.353 -1530 175 210 255
-218.231 -515.258 -1533 175 211 255
-215.715 -516.836 -1538 171 205 249
-212.903 -517.743 -1541 161 195 240
-210.49 -519.66 -1547 152 186 232
-207.516 -520.233 -1549 153 185 230
-204.537 -520.808 -1551 158 190 233
-201.161 -520.377 -1550 163 193 226
-198.174 -520.955 -1552 92 111 136
-193.925 -518.178 -1544 45 57 78
-189.835 -515.739 -1537 48 58 76
-366.613 -499.974 -1457 167 184 215
-370.157 -509.059 -1484 177 200 232
-367.899 -510.251 -1488 188 213 245
-366.118 -512.13 -1494 188 213 247
-361.642 -510.24 -1489 186 209 245
-357.913 -509.38 -1487 184 206 243
-352.765 -506.468 -1479 176 201 235
-349.074 -505.614 -1477 174 199 233
-345.16 -504.419 -1474 172 197 231
-341.726 -503.911 -1473 175 197 234
-338.3 -503.404 -1472 175 198 238
-335.337 -503.584 -1473 173 197 237
-332.146 -503.422 -1473 171 195 234
-329.183 -503.605 -1474 169 194 233
-325.775 -503.105 -1473 168 195 233
-322.813 -503.29 -1474 168 195 235
-319.416 -502.794 -1473 166 195 235
-316.67 -503.324 -1475 165 197 236
-313.281 -502.831 -1474 164 198 239
-310.319 -503.022 -1475 165 198 240
-307.564 -503.556 -1477 163 195 237
-304.392 -503.409 -1477 157 192 235
-301.222 -503.264 -1477 157 192 235
-298.257 -503.461 -1478 151 187 229
-295.09 -503.318 -1478 145 183 226
-291.531 -502.497 -1476 148 186 230
-288.57 -502.698 -1477 149 191 236
-285.606 -502.901 -1478 139 181 226
-282.642 -503.105 -1479 132 174 219
-279.864 -503.651 -1481 140 184 228
-276.893 -503.858 -1482 126 170 215
-274.106 -504.406 -1484 132 176 222
-271.129 -504.616 -1485 136 177 224
-268.512 -505.506 -1488 138 179 227
-265.528 -505.719 -1489 141 181 230
-262.894 -506.611 -1492 135 180 226
-259.728 -506.487 -1492 127 171 217
-256.908 -507.042 -1494 126 170 216
-253.912 -507.26 -1495 129 173 221
-250.746 -507.14 -1495 130 175 222
-247.748 -507.361 -1496 133 177 223
-245.075 -508.261 -1499 142 183 233
-242.069 -508.484 -1500 147 187 238
-239.06 -508.709 -1501 153 193 244
-236.678 -510.29 -1506 158 198 248
-233.657 -510.517 -1507 159 199 248
-231.093 -511.762 -1511 160 200 246
-228.816 -513.685 -1517 167 206 252
-226.366 -515.27 -1522 171 209 255
-223.751 -516.517 -1526 174 211 255
-221.121 -517.766 -1530 176 213 255
-218.334 -518.677 -1533 175 213 255
-215.536 -519.589 -1536 175 209 254
-213.004 -521.179 -1541 167 201 245
-210.589 -523.107 -1547 154 189 233
-207.748 -524.023 -1550 151 184 228
-204.897 -524.939 -1553 158 190 233
-201.905 -525.519 -1555 163 194 229
-199.29 -527.114 -1560 105 126 153
-195.399 -525.331 -1555 42 56 77
-191.777 -524.227 -1552 54 64 82
-371.834 -514.497 -1490 181 202 232
-370.057 -516.387 -1496 186 211 244
-368.012 -517.932 -1501 188 214 249
-363.276 -515.683 -1495 188 211 248
-359.05 -514.127 -1491 183 205 242
-353.891 -511.195 -1483 177 202 238
-349.48 -509.301 -1478 174 198 233
-345.327 -507.753 -1474 172 196 230
-342.124 -507.586 -1474 170 192 228
-338.694 -507.076 -1473 171 194 232
-335.727 -507.256 -1474 172 196 235
-332.307 -506.75 -1473 171 196 236
-329.118 -506.589 -1473 170 196 235
-325.933 -506.43 -1473 167 194 233
-322.75 -506.273 -1473 164 191 231
-319.57 -506.117 -1473 163 192 232
-316.608 -506.306 -1474 159 192 231
-313.219 -505.81 -1473 158 192 232
-309.837 -505.316 -1472 160 193 234
-307.296 -506.197 -1475 157 190 231
-304.332 -506.392 -1476 152 187 229
-301.163 -506.246 -1476 153 188 231
-298.198 -506.444 -1477 149 186 227
-294.833 -505.958 -1476 144 182 225
-291.474 -505.473 -1475 149 187 231
-288.513 -505.676 -1476 152 192 239
-285.55 -505.88 -1477 141 181 228
-282.777 -506.428 -1479 138 178 225
-280.187 -507.32 -1482 145 189 233
-277.026 -507.186 -1482 140 183 228
-274.422 -508.08 -1485 147 191 237
-271.442 -508.29 -1486 149 190 237
-268.46 -508.503 -1487 146 186 234
-265.655 -509.058 -1489 146 186 235
-263.02 -509.957 -1492 136 181 227
-260.2 -510.515 -1494 130 175 221
-257.203 -510.732 -1495 129 173 219
-254.543 -511.634 -1498 127 172 220
-251.201 -511.172 -1497 128 173 221
-248.032 -511.052 -1497 133 177 223
-245.355 -511.958 -1500 139 180 230
-242.507 -512.524 -1502 140 181 232
-239.334 -512.408 -1502 146 187 238
-236.634 -513.318 -1505 154 194 244
-233.924 -514.228 -1508 157 197 246
-231.203 -515.14 -1511 160 198 244
-228.774 -516.735 -1516 167 205 250
-226.176 -517.989 -1520 172 210 255
-223.711 -519.586 -1525 174 211 255
-221.082 -520.842 -1529 174 211 255
-218.438 -522.1 -1533 175 213 255
-215.779 -523.359 -1537 177 212 255
-213.243 -524.959 -1542 169 204 249
-210.961 -527.241 -1549 158 192 234
-208.517 -529.183 -1555 151 183 227
-205.654 -530.105 -1558 151 183 227
-203.04 -531.709 -1563 160 192 228
-200.023 -532.293 -1565 119 142 169
-195.868 -529.818 -1558 51 66 86
-192.981 -530.746 -1561 55 65 83
-370.02 -515.101 -1482 177 195 221
-369.496 -518.741 -1493 188 212 245
-367.947 -520.992 -1500 186 213 249
-363.697 -519.423 -1496 187 212 248
-359.467 -517.856 -1492 187 209 246
-354.303 -514.905 -1484 183 208 246
-349.887 -512.997 -1479 180 203 240
-345.965 -511.786 -1476 177 199 234
-342.756 -511.617 -1476 171 193 228
-339.089 -510.757 -1474 169 192 228
-335.891 -510.592 -1474 170 195 231
-332.695 -510.428 -1474 170 197 236
-329.279 -509.92 -1473 170 197 236
-326.313 -510.106 -1474 164 191 231
-323.345 -510.293 -1475 157 184 224
-320.16 -510.136 -1475 156 185 225
-316.977 -509.981 -1475 154 189 227
-313.797 -509.827 -1475 154 189 227
-310.83 -510.02 -1476 156 191 229
-307.862 -510.215 -1477 153 189 229
-304.686 -510.066 -1477 148 185 225
-301.513 -509.918 -1477 149 187 227
-298.141 -509.427 -1476 144 185 225
-294.976 -509.283 -1476 141 181 223
-291.615 -508.795 -1475 144 184 227
-288.653 -508.999 -1476 150 190 235
-286.075 -509.894 -1479 142 182 227
-283.296 -510.445 -1481 142 182 227
-280.701 -511.343 -1484 149 191 235
-277.534 -511.207 -1484 145 187 232
-274.554 -511.418 -1485 150 192 239
-271.39 -511.286 -1485 150 190 237
-268.59 -511.844 -1487 146 186 234
-265.962 -512.747 -1490 146 186 235
-263.147 -513.307 -1492 143 184 231
-260.326 -513.869 -1494 137 179 226
-257.326 -514.087 -1495 131 176 222
-254.495 -514.652 -1497 127 171 218
-251.322 -514.529 -1497 127 172 218
-248.151 -514.409 -1497 130 175 221
-245.31 -514.977 -1499 132 176 224
-242.3 -515.203 -1500 132 175 224
-239.449 -515.774 -1502 141 182 230
-236.748 -516.689 -1505 146 188 236
-234.036 -517.606 -1508 158 200 249
-231.314 -518.523 -1511 167 206 253
-228.883 -520.128 -1516 170 209 253
-226.285 -521.391 -1520 176 214 255
-223.524 -522.312 -1523 178 214 255
-221.043 -523.92 -1528 176 212 255
-218.4 -525.186 -1532 177 214 255
-215.461 -525.767 -1534 179 213 255
-213.207 -528.063 -1541 174 208 250
-211.062 -530.702 -1549 163 196 236
-208.617 -532.657 -1555 153 186 229
-206.281 -534.955 -1562 150 183 227
-203.527 -536.227 -1566 160 192 229
-200.502 -536.815 -1568 132 156 184
-196.339 -534.324 -1561 54 70 90
-193.444 -535.257 -1564 54 64 82
-369.184 -521.437 -1491 187 210 240
-368.129 -524.401 -1500 187 212 248
-364.606 -523.87 -1499 189 214 250
-360.127 -521.944 -1494 189 214 250
-355.911 -520.37 -1490 185 212 248
-351.243 -518.1 -1484 183 208 244
-347.542 -517.229 -1482 181 203 238
-342.924 -514.965 -1476 178 199 234
-339.486 -514.448 -1475 173 196 231
-335.6 -513.235 -1472 170 195 231
-332.407 -513.071 -1472 170 197 235
-328.993 -512.559 -1471 171 198 237
-326.03 -512.746 -1472 168 195 235
-323.065 -512.935 -1473 162 189 229
-320.534 -513.821 -1476 161 189 228
-317.132 -513.316 -1475 160 192 231
-313.95 -513.161 -1475 159 194 232
-310.35 -512.312 -1473 157 193 231
-307.596 -512.856 -1475 154 190 230
-304.01 -512.011 -1473 146 184 224
-301.252 -512.558 -1475 147 185 225
-298.084 -512.411 -1475 147 185 226
-295.119 -512.613 -1476 140 179 221
-291.955 -512.469 -1476 139 179 222
-288.989 -512.675 -1477 146 186 229
-286.215 -513.228 -1479 144 184 228
-283.626 -514.13 -1482 144 184 229
-280.648 -514.339 -1483 151 193 237
-277.482 -514.203 -1483 136 177 222
-274.318 -514.068 -1483 135 176 223
-271.339 -514.282 -1484 140 180 227
-268.72 -515.189 -1487 143 183 230
-265.912 -515.752 -1489 147 187 236
-263.274 -516.662 -1492 145 185 233
-260.626 -517.573 -1495 134 175 222
-257.623 -517.794 -1496 132 177 223
-254.448 -517.669 -1496 133 177 223
-251.276 -517.546 -1496 128 172 218
-248.271 -517.771 -1497 126 171 217
-245.265 -517.997 -1498 128 172 219
-242.579 -518.916 -1501 127 171 219
-239.724 -519.49 -1503 139 181 227
-237.019 -520.411 -1506 146 189 236
-234.304 -521.333 -1509 153 196 244
-231.579 -522.257 -1512 162 202 250
-228.994 -523.527 -1516 169 209 254
-226.394 -524.798 -1520 176 214 255
-223.632 -525.724 -1523 178 215 255
-221.005 -526.997 -1527 179 215 255
-218.362 -528.272 -1531 180 216 255
-215.846 -529.892 -1536 182 215 253
-213.448 -531.858 -1542 179 211 250
-211.164 -534.169 -1549 170 202 239
-208.986 -536.826 -1557 157 191 232
-206.38 -538.45 -1562 148 182 226
-203.365 -539.04 -1564 159 191 226
-200.855 -541.01 -1570 140 165 192
-196.811 -538.847 -1564 54 70 90
-192.918 -537.031 -1559 50 60 79
-369.12 -524.481 -1490 184 201 229
-367.33 -526.409 -1496 188 213 249
-364.787 -527.282 -1499 190 215 251
-360.064 -524.991 -1493 189 214 250
-356.088 -523.758 -1490 187 213 249
-351.891 -522.176 -1486 185 209 245
-347.715 -520.596 -1482 182 204 239
-343.327 -518.668 -1477 183 204 239
-339.884 -518.148 -1476 183 205 240
-336.222 -517.278 -1474 178 203 239
-332.571 -516.41 -1472 173 200 237
-329.379 -516.246 -1472 173 200 238
-326.412 -516.434 -1473 175 202 241
-323.225 -516.273 -1473 170 197 237
-320.474 -516.815 -1475 166 193 233
-317.288 -516.657 -1475 164 196 235
-314.318 -516.851 -1476 163 196 235
-311.135 -516.696 -1476 161 194 233
-308.164 -516.893 -1477 156 192 231
-304.572 -516.042 -1475 147 185 224
-301.604 -516.242 -1476 147 185 225
-298.433 -516.095 -1476 146 184 225
-295.464 -516.298 -1477 139 178 220
-292.296 -516.153 -1477 136 176 219
-289.326 -516.359 -1478 146 186 229
-286.355 -516.567 -1479 147 187 231
-283.765 -517.474 -1482 143 183 228
-280.975 -518.034 -1484 144 186 230
-277.618 -517.547 -1483 131 172 217
-274.637 -517.761 -1484 134 175 222
-271.838 -518.324 -1486 142 183 230
-268.851 -518.54 -1487 146 186 234
-266.221 -519.455 -1490 151 190 239
-263.756 -520.719 -1494 145 185 233
-261.102 -521.636 -1497 134 175 222
-257.921 -521.509 -1497 134 179 225
-254.913 -521.732 -1498 138 182 228
-251.734 -521.608 -1498 132 176 222
-248.558 -521.485 -1498 128 173 219
-245.712 -522.061 -1500 128 172 219
-242.859 -522.637 -1502 125 169 217
-240 -523.215 -1504 134 178 224
-237.135 -523.794 -1506 144 187 234
-234.574 -525.07 -1510 150 192 241
-231.692 -525.652 -1512 159 199 248
-228.954 -526.583 -1515 169 209 255
-226.206 -527.514 -1518 176 214 255
-223.447 -528.447 -1521 180 216 255
-221.112 -530.423 -1527 182 218 255
-218.326 -531.358 -1530 183 219 255
-216.091 -533.683 -1537 184 217 255
-213.413 -534.967 -1541 184 216 255
-211.266 -537.641 -1549 175 207 244
-208.818 -539.621 -1555 165 198 239
-206.348 -541.602 -1561 152 186 230
-203.723 -543.237 -1566 160 191 226
-201.336 -545.567 -1573 147 172 200
-197.914 -545.123 -1572 59 75 95
-194.869 -545.721 -1574 51 61 80
-366.531 -528.403 -1492 184 208 242
-364.97 -530.698 -1499 189 213 248
-360.727 -529.1 -1495 190 214 250
-356.744 -527.858 -1492 188 212 248
-352.066 -525.559 -1486 185 210 245
-347.888 -523.969 -1482 182 204 239
-343.265 -521.675 -1476 183 205 240
-339.823 -521.15 -1475 184 207 242
-336.161 -520.275 -1473 180 205 241
-332.963 -520.108 -1473 175 201 239
-329.767 -519.942 -1473 173 200 238
-327.018 -520.484 -1475 177 204 242
-323.605 -519.969 -1474 173 200 239
-320.851 -520.514 -1476 167 194 233
-317.446 -520.002 -1475 164 195 234
-314.261 -519.845 -1475 163 194 233
-310.868 -519.337 -1474 161 193 231
-307.691 -519.183 -1474 156 191 229
-304.516 -519.031 -1474 148 184 223
-301.754 -519.585 -1476 144 182 222
-298.581 -519.436 -1476 142 180 221
-296.011 -520.344 -1479 139 178 220
-292.837 -520.197 -1479 137 177 220
-289.861 -520.405 -1480 146 186 229
-287.077 -520.965 -1482 142 182 225
-284.096 -521.175 -1483 136 176 221
-280.924 -521.035 -1483 138 180 224
-277.754 -520.897 -1483 135 176 221
-274.587 -520.76 -1483 142 183 230
-271.422 -520.625 -1483 153 193 240
-268.803 -521.545 -1486 156 195 243
-266.173 -522.465 -1489 158 195 245
-263.709 -523.738 -1493 146 185 233
-261.231 -525.011 -1497 134 174 221
-258.048 -524.883 -1497 132 177 223
-254.868 -524.757 -1497 134 178 224
-251.858 -524.983 -1498 130 174 220
-248.68 -524.859 -1498 130 175 221
-245.832 -525.438 -1500 130 175 221
-243.14 -526.369 -1503 124 169 215
-240.437 -527.3 -1506 129 173 219
-237.409 -527.533 -1507 137 181 228
-234.689 -528.467 -1510 147 190 238
-231.652 -528.702 -1511 158 199 247
-229.066 -529.988 -1515 166 206 254
-226.316 -530.926 -1518 175 213 255
-223.409 -531.515 -1520 179 215 255
