ply
format ascii 1.0
comment Created by Open3D
element vertex 1504
property double x
property double y
property double z
property uchar red
property uchar green
property uchar blue
end_header
-169.218 150.081 -1347 43 37 42
-166.987 150.502 -1351 55 43 41
-164.377 150.588 -1352 68 50 44
-162.72 151.566 -1361 78 57 50
-160.441 151.987 -1365 87 63 53
-158.609 152.853 -1373 90 65 55
-155.497 152.496 -1370 91 65 57
-153.402 153.14 -1376 94 69 59
-150.299 152.784 -1373 92 67 58
-147.962 153.206 -1377 92 66 57
-145.925 153.963 -1384 91 64 55
-144.51 158.48 -1425 87 60 49
-144.923 162.128 -1458 83 56 44
-144.328 164.774 -1482 65 48 40
-143.923 167.755 -1509 48 34 29
-142.198 169.289 -1523 34 23 19
-139.32 169.49 -1525 33 22 26
-135.99 169.136 -1522 38 27 30
-132.847 169.005 -1521 37 28 30
-129.88 169.097 -1522 41 30 31
-126.66 168.855 -1520 40 28 29
-123.449 168.614 -1518 32 26 27
-119.771 167.707 -1510 33 27 28
-113.807 163.47 -1472 29 23 24
-107.619 158.678 -1429 38 34 39
-104.684 158.551 -1428 63 60 66
-102.537 159.646 -1438 60 58 68
-101.391 162.406 -1463 66 65 75
-100.416 165.61 -1492 67 68 78
-98.6712 167.704 -1511 66 67 81
-96.4086 169.021 -1523 66 67 81
-93.6085 169.451 -1527 65 68 82
-90.793 169.881 -1531 59 61 75
-349.31 191.378 -1735 61 60 72
-338.142 187.135 -1697 65 64 76
-330.288 184.659 -1675 69 68 82
-322.529 182.185 -1653 66 65 79
-316.601 180.704 -1640 61 59 74
-309.583 178.564 -1621 69 67 84
-302.08 176.095 -1599 75 74 89
-293.736 173.077 -1572 69 68 82
-287.538 171.272 -1556 68 67 81
-282.14 169.908 -1544 69 68 82
-277.516 168.986 -1536 71 70 84
-272.391 167.735 -1525 66 64 77
-268.551 167.254 -1521 58 55 69
-264.379 166.555 -1515 48 48 60
-261.097 166.406 -1514 42 41 53
-257.821 166.257 -1513 38 37 48
-254.72 166.218 -1513 36 36 45
-251.954 166.4 -1515 40 40 48
-248.688 166.253 -1514 45 44 54
-245.429 166.106 -1513 56 55 66
-241.535 165.521 -1508 60 59 71
-236.873 164.388 -1498 54 56 65
-231.942 163.036 -1486 50 52 61
-227.678 162.124 -1478 49 50 62
-223.296 161.104 -1469 53 54 66
-218.953 160.084 -1460 55 56 68
-213.909 158.517 -1446 51 52 64
-208.486 156.622 -1429 46 47 59
-203.853 155.276 -1417 51 52 65
-198.135 153.055 -1397 61 62 75
-192.641 150.944 -1378 55 56 70
-187.363 148.945 -1360 45 46 59
-183.246 147.822 -1350 38 39 52
-179.839 147.248 -1345 39 41 52
-177.113 147.221 -1345 57 52 60
-174.647 147.414 -1347 63 55 62
-172.557 147.935 -1352 38 35 43
-170.198 148.238 -1355 40 35 42
-167.828 148.541 -1358 47 38 42
-165.69 149.063 -1363 58 43 43
-163.652 149.695 -1369 68 51 48
-161.827 150.546 -1377 74 55 49
-159.971 151.396 -1385 75 55 50
-157.403 151.592 -1387 79 58 54
-155.163 152.115 -1392 77 60 52
-152.904 152.638 -1397 77 60 52
-150.411 152.944 -1400 82 62 55
-147.328 158.667 -1453 70 50 42
-146.889 161.375 -1478 61 42 34
-145.961 163.646 -1499 43 31 28
-144.474 165.371 -1515 33 23 21
-142.176 166.223 -1523 30 21 20
-139.117 166.202 -1523 35 23 28
-136.059 166.182 -1523 35 24 27
-133.089 166.271 -1524 34 25 26
-129.861 166.034 -1522 41 30 31
-126.724 165.906 -1521 38 26 27
-123.512 165.669 -1519 30 24 25
-119.991 164.997 -1513 33 27 28
-115.722 163.235 -1497 31 23 24
-108.055 156.458 -1435 41 36 40
-104.961 156.115 -1432 65 62 67
-102.094 156.1 -1432 59 56 65
-101.584 159.791 -1466 65 64 73
-100.333 162.501 -1491 68 69 79
-98.7872 164.884 -1513 65 66 80
-96.3944 165.96 -1523 63 65 79
-93.5946 166.382 -1527 65 68 81
-90.7795 166.804 -1531 65 68 81
-348.051 187.199 -1729 60 59 71
-337.693 183.467 -1695 67 66 79
-328.859 180.496 -1668 70 69 83
-322.286 178.717 -1652 63 62 76
-314.817 176.398 -1631 63 62 76
-307.819 174.298 -1612 74 73 87
-298.635 170.901 -1581 74 73 87
-291.824 168.804 -1562 67 66 80
-286.572 167.573 -1551 66 65 79
-281.55 166.451 -1541 71 70 84
-276.933 165.546 -1533 73 72 86
-272.887 164.966 -1528 67 64 79
-268.511 164.17 -1521 57 53 68
-264.514 163.591 -1516 48 47 59
-260.886 163.229 -1513 43 42 53
-257.783 163.191 -1513 39 38 48
-254.514 163.045 -1512 33 35 42
-251.584 163.116 -1513 36 38 45
-248.487 163.079 -1513 41 40 50
-245.23 162.936 -1512 54 53 64
-241.499 162.469 -1508 63 62 74
-237.313 161.68 -1501 57 59 68
-232.376 160.353 -1489 48 51 61
-228.106 159.458 -1481 47 49 60
-224.175 158.779 -1475 50 51 63
-219.82 157.778 -1466 55 56 68
-215.504 156.777 -1457 54 55 67
-208.893 154.056 -1432 50 51 63
-204.542 152.951 -1422 49 50 62
-199.241 151.093 -1405 57 58 71
-194.43 149.559 -1391 56 57 71
-188.162 146.843 -1366 47 46 61
-184.169 145.849 -1357 40 40 55
-180.615 145.177 -1351 38 41 54
-177.613 144.936 -1349 51 47 56
-175.01 145.018 -1350 63 55 62
-172.915 145.53 -1355 40 36 45
-170.675 145.934 -1359 39 34 42
-168.791 146.661 -1366 44 36 44
-167.732 148.14 -1380 52 40 42
-165.78 148.867 -1387 60 46 46
-163.801 149.594 -1394 64 49 47
-162.257 150.751 -1405 64 49 47
-159.99 151.264 -1410 69 54 51
-158.149 152.206 -1419 69 55 51
-156.055 152.934 -1426 65 51 47
-152.734 155.356 -1449 68 52 48
-151.471 157.049 -1465 64 47 42
-150.145 158.742 -1481 54 41 36
-148.954 160.65 -1499 45 31 28
-147.108 161.914 -1511 30 21 24
-144.834 162.75 -1519 30 22 24
-142.342 163.372 -1525 33 25 27
-139.553 163.673 -1528 37 25 28
-136.128 163.225 -1524 32 21 23
-133.157 163.312 -1525 33 25 25
-130.268 163.508 -1527 41 30 31
-127.122 163.382 -1526 36 24 25
-123.982 163.257 -1525 30 24 25
-120.608 162.811 -1521 35 28 29
-116.71 161.616 -1510 34 26 26
-109.997 156.356 -1461 43 39 42
-105.386 153.879 -1438 67 64 69
-102.008 153.115 -1431 58 55 63
-101.5 156.738 -1465 64 62 71
-100.722 160.147 -1497 68 69 79
-98.8381 161.951 -1514 66 67 80
-96.6967 163.434 -1528 62 63 77
-93.8874 163.848 -1532 64 67 80
-91.0035 164.156 -1535 63 66 79
-88.1656 164.571 -1539 51 54 67
-349.006 184.214 -1734 61 60 72
-336.249 179.278 -1688 71 70 83
-328.811 177.106 -1668 71 70 84
-321.654 175.042 -1649 61 60 74
-314.578 172.979 -1630 66 65 79
-307.392 170.812 -1610 74 73 87
-298.214 167.48 -1579 73 72 86
-290.847 165.104 -1557 67 66 80
-285.791 164.002 -1547 66 65 79
-280.961 163.007 -1538 73 72 86
-276.351 162.119 -1530 73 72 86
-271.954 161.338 -1523 65 61 76
-267.766 160.663 -1517 55 51 66
-264.127 160.307 -1514 49 48 60
-260.676 160.058 -1512 45 44 55
-257.405 159.915 -1511 43 42 52
-254.309 159.878 -1511 36 38 45
-251.381 159.947 -1512 36 37 44
-248.287 159.911 -1512 44 43 52
-245.195 159.876 -1512 54 53 63
-241.625 159.524 -1509 63 62 74
-237.594 158.855 -1503 59 61 71
-232.498 157.447 -1490 49 51 61
-227.919 156.358 -1480 45 48 59
-224.295 155.903 -1476 48 50 62
-220.238 155.132 -1469 55 56 68
-216.213 154.361 -1462 55 56 68
-211.05 152.747 -1447 53 54 66
-205.375 150.712 -1428 49 50 62
-200.063 148.889 -1411 56 57 71
-194.681 146.961 -1393 58 59 73
-188.824 144.613 -1371 48 45 64
-184.957 143.743 -1363 41 40 58
-181.257 142.978 -1356 38 41 56
-177.983 142.531 -1352 47 42 53
-175.633 142.822 -1355 62 54 63
-173.4 143.218 -1359 45 39 48
-171.781 144.142 -1368 37 31 41
-170.497 145.382 -1380 41 35 45
-169.773 147.149 -1397 49 39 45
-168.385 148.388 -1409 53 41 45
-166.832 149.523 -1420 54 42 44
-165.236 150.657 -1431 54 43 44
-163.484 151.687 -1441 60 50 50
-161.358 152.4 -1448 64 54 52
-159.206 153.114 -1455 55 45 43
-157.241 154.039 -1464 53 42 41
-155.874 155.595 -1479 54 43 41
-154.24 156.94 -1492 52 40 37
-152.759 158.496 -1507 43 34 33
-151.019 159.841 -1520 35 25 25
-148.548 160.451 -1526 30 20 24
-145.671 160.641 -1528 29 21 23
-142.789 160.83 -1530 28 20 22
-139.625 160.705 -1529 32 20 22
-136.377 160.475 -1527 33 23 24
-133.313 160.456 -1527 37 30 29
-130.335 160.543 -1528 42 31 32
-127.271 160.524 -1528 37 25 26
-124.208 160.506 -1528 34 26 28
-120.511 159.649 -1520 36 28 30
-117.003 159.002 -1514 35 27 27
-109.906 153.315 -1460 48 43 47
-104.931 150.36 -1432 72 68 73
-102.706 151.29 -1441 58 55 63
-101.07 153.165 -1459 63 61 70
-100.304 156.51 -1491 68 69 79
-98.8892 159.015 -1515 66 67 80
-96.3666 159.841 -1523 63 65 79
-93.874 160.772 -1532 64 67 80
-90.9905 161.074 -1535 65 68 81
-88.0958 161.376 -1538 59 62 75
-346.943 179.648 -1724 62 61 74
-336.201 175.849 -1688 72 71 84
-327.581 173.093 -1662 71 70 84
-320.242 170.964 -1642 63 62 76
-312.217 168.421 -1618 72 71 85
-305.439 166.504 -1600 75 74 88
-295.149 162.611 -1563 71 70 84
-289.872 161.425 -1552 66 65 79
-285.011 160.449 -1543 67 66 80
-280.372 159.577 -1535 73 72 86
-276.131 158.914 -1529 69 68 82
-271.915 158.251 -1523 58 55 69
-267.904 157.694 -1518 51 48 62
-264.438 157.448 -1516 48 48 59
-260.811 157.1 -1513 43 42 53
-257.709 157.063 -1513 42 41 52
-254.441 156.923 -1512 38 39 47
-251.345 156.887 -1512 39 40 47
-248.087 156.748 -1511 46 45 53
-245.16 156.817 -1512 55 54 64
-241.59 156.472 -1509 63 63 75
-237.403 155.712 -1502 61 64 73
-232.933 154.746 -1493 50 53 62
-228.503 153.781 -1484 46 49 60
-224.567 153.128 -1478 49 51 62
-220.807 152.578 -1473 54 55 66
-216.921 151.926 -1467 55 56 68
-212.187 150.653 -1455 56 57 69
-207.072 149.071 -1440 51 52 64
-201.027 146.765 -1418 54 55 68
-195.492 144.771 -1399 55 56 70
-190.312 142.985 -1382 47 42 65
-185.744 141.613 -1369 41 38 60
-181.9 140.76 -1361 39 41 59
-178.616 140.321 -1357 44 40 53
-176.127 140.503 -1359 60 53 64
-174.269 141.202 -1366 49 42 51
-173.012 142.418 -1378 36 30 40
-172.696 144.461 -1398 40 35 47
-173.152 147.227 -1425 48 39 47
-172.066 148.752 -1440 49 39 46
-170.685 150.071 -1453 48 38 42
-168.677 150.873 -1461 47 37 41
-166.977 151.986 -1472 48 40 43
-165.012 152.892 -1481 51 42 44
-162.575 153.385 -1486 49 40 41
-160.655 154.395 -1496 47 38 41
-158.802 155.508 -1507 44 35 36
-156.493 156.208 -1514 40 30 30
-154.46 157.218 -1524 33 26 29
-152.091 157.919 -1531 30 22 25
-149.111 158.001 -1532 32 20 24
-146.128 158.083 -1533 31 22 25
-143.235 158.269 -1535 28 20 23
-139.879 157.94 -1532 31 22 23
-136.715 157.818 -1531 33 25 26
-133.643 157.799 -1531 34 28 27
-130.658 157.884 -1532 38 28 28
-127.669 157.969 -1533 37 25 25
-124.515 157.848 -1532 35 27 29
-121.129 157.419 -1528 36 28 29
-117.295 156.373 -1518 37 29 29
-111.095 152.03 -1476 50 45 49
-104.843 147.381 -1431 72 68 73
-102.977 148.808 -1445 59 56 64
-101.125 150.338 -1460 61 59 68
-100.627 154.031 -1496 67 68 78
-98.8754 155.973 -1515 68 69 83
-96.7959 157.504 -1530 66 67 81
-93.9221 157.8 -1533 64 66 79
-91.1556 158.302 -1538 65 68 81
-88.3698 158.804 -1543 70 73 86
-347.498 176.452 -1727 64 63 77
-336.95 172.829 -1692 70 69 83
-328.323 170.127 -1666 67 66 80
-319.612 167.325 -1639 64 63 77
-312.366 165.24 -1619 74 73 87
-303.105 162.033 -1588 75 74 89
-296.052 159.951 -1568 72 70 85
-289.831 158.278 -1552 67 66 80
-285.156 157.423 -1544 67 66 80
-279.968 156.262 -1533 69 68 82
-275.369 155.408 -1525 63 62 76
-271.52 154.963 -1521 50 48 60
-267.69 154.518 -1517 44 43 54
-264.401 154.379 -1516 43 44 54
-261.119 154.241 -1515 39 39 50
-257.843 154.103 -1514 42 41 53
-254.573 153.966 -1513 40 39 48
-251.476 153.931 -1513 41 40 48
-248.053 153.693 -1511 48 47 55
-245.126 153.76 -1512 55 55 65
-241.717 153.523 -1510 61 62 74
-237.686 152.88 -1504 63 66 75
-232.745 151.628 -1492 52 55 64
-228.317 150.682 -1483 46 49 60
-224.535 150.143 -1478 46 48 59
-220.776 149.604 -1473 51 52 62
-217.187 149.168 -1469 55 56 68
-213.178 148.427 -1462 58 59 71
-207.762 146.672 -1445 49 50 62
-201.849 144.513 -1424 49 50 63
-196.024 142.354 -1403 55 56 70
-190.698 140.502 -1385 49 45 63
-186.261 139.259 -1373 41 38 55
-182.275 138.32 -1364 40 41 56
-178.854 137.789 -1359 43 41 52
-176.102 137.764 -1359 51 48 59
-174.372 138.551 -1367 54 49 59
-173.867 140.351 -1385 37 31 42
-174.525 143.165 -1413 35 30 42
-175.558 146.383 -1445 42 35 43
-175.387 148.688 -1468 43 35 43
-174.068 150.082 -1482 42 34 40
-171.77 150.666 -1488 41 35 40
-169.45 151.25 -1494 39 35 40
-167.329 152.037 -1502 45 37 43
-164.74 152.419 -1506 42 34 40
-162.244 152.903 -1511 39 31 37
-160.15 153.792 -1520 37 29 33
-157.608 154.276 -1525 33 25 28
-155.25 154.962 -1532 29 22 27
-152.666 155.447 -1537 29 20 25
-149.674 155.528 -1538 36 19 22
-146.393 155.305 -1536 32 21 24
-143.402 155.386 -1537 28 20 24
-140.225 155.266 -1536 28 23 25
-137.053 155.146 -1535 29 24 26
-133.887 155.026 -1534 29 25 24
-130.981 155.21 -1536 34 24 23
-127.902 155.193 -1536 37 25 24
-124.661 154.974 -1534 36 28 30
-121.271 154.553 -1530 36 28 29
-117.511 153.627 -1521 37 29 29
-112.886 151.491 -1500 49 44 48
-106.514 146.83 -1454 72 67 73
-103.462 146.614 -1452 59 56 64
-101.319 147.711 -1463 60 58 67
-100.007 150.12 -1487 66 67 77
-98.7966 152.832 -1514 72 73 87
-96.4664 153.929 -1525 70 71 85
-93.7867 154.522 -1531 63 64 78
-91.0838 155.115 -1537 64 66 79
-88.4149 155.809 -1544 69 72 85
-85.5531 156.201 -1548 72 75 88
-345.237 171.844 -1716 66 65 79
-336.704 169.294 -1691 69 68 82
-325.519 165.345 -1652 67 66 80
-316.838 162.599 -1625 68 67 81
-308.657 160.055 -1600 77 75 90
-301.537 158.013 -1580 75 73 89
-294.123 155.772 -1558 71 70 84
-288.671 154.533 -1546 69 68 82
-283.639 153.494 -1536 69 68 82
-279.564 152.957 -1531 68 67 81
-275.151 152.22 -1524 59 58 71
-271.305 151.783 -1520 49 48 59
-267.477 151.347 -1516 44 44 54
-264.365 151.311 -1516 39 40 50
-260.911 151.075 -1514 40 39 50
-257.978 151.14 -1515 43 41 52
-254.37 150.806 -1512 43 42 50
-251.276 150.772 -1512 43 42 50
-247.69 150.439 -1509 49 47 55
-244.768 150.505 -1510 55 55 64
-241.203 150.173 -1507 61 62 73
-237.495 149.742 -1503 63 65 75
-233.025 148.814 -1494 51 53 63
-228.594 147.886 -1485 47 47 59
-224.657 147.258 -1479 46 46 59
-221.046 146.83 -1475 47 48 61
-217.453 146.402 -1471 51 52 64
-213.295 145.577 -1463 59 60 72
-208.021 143.956 -1447 52 53 65
-203.381 142.735 -1435 49 51 63
-197.534 140.619 -1414 57 60 73
-192.324 138.903 -1397 59 55 68
-187.186 137.187 -1380 49 47 59
-182.919 136.069 -1369 40 41 53
-179.356 135.448 -1363 40 40 50
-176.467 135.325 -1362 42 41 51
-174.859 136.195 -1371 58 52 63
-173.843 137.562 -1385 41 35 46
-177.218 142.504 -1435 32 27 38
-178.206 145.658 -1467 36 29 37
-177.633 147.62 -1487 38 30 38
-175.806 148.589 -1497 37 29 34
-173.247 148.962 -1501 40 32 37
-170.674 149.336 -1505 40 33 38
-168.532 150.107 -1513 41 33 40
-165.921 150.481 -1517 36 28 34
-163.403 150.955 -1522 33 25 30
-160.76 151.33 -1526 31 23 27
-158.31 151.904 -1532 33 25 28
-155.634 152.28 -1536 31 23 28
-152.546 152.259 -1536 31 22 26
-149.654 152.437 -1538 35 21 25
-146.564 152.417 -1538 31 21 26
-143.662 152.596 -1540 28 20 25
-140.48 152.478 -1539 29 23 24
-137.302 152.36 -1538 30 24 24
-134.305 152.441 -1539 31 24 23
-131.304 152.522 -1540 34 24 24
-128.134 152.406 -1539 34 23 22
-124.969 152.29 -1538 35 27 29
-121.492 151.778 -1533 36 28 30
-117.882 151.069 -1526 41 33 34
-113.472 149.272 -1508 46 40 45
-105.913 143.121 -1446 71 64 70
-103.733 144.096 -1456 61 57 66
-101.305 144.775 -1463 62 61 70
-100.801 148.324 -1499 68 69 80
-98.718 149.696 -1513 72 73 85
-96.5166 150.969 -1526 72 73 87
-93.8353 151.55 -1532 64 66 81
-91.19 152.23 -1539 61 64 78
-88.2885 152.515 -1542 66 70 84
-85.5415 153.097 -1548 73 76 89
-344.184 167.87 -1711 66 65 79
-336.858 165.96 -1692 68 67 81
-325.081 161.797 -1650 68 67 81
-315.821 158.813 -1620 73 72 86
-307.459 156.223 -1594 78 77 91
-299.397 153.732 -1569 74 73 87
-293.706 152.419 -1556 70 69 83
-288.632 151.401 -1546 70 69 83
-283.601 150.383 -1536 70 69 83
-278.979 149.563 -1528 66 65 78
-274.753 148.938 -1522 56 55 67
-271.09 148.609 -1519 46 47 57
-267.441 148.279 -1516 43 44 54
-264.504 148.342 -1517 39 40 50
-261.221 148.209 -1516 40 39 49
-258.284 148.272 -1517 43 41 51
-254.673 147.945 -1514 43 42 50
-251.408 147.813 -1513 44 43 51
-247.985 147.585 -1511 52 49 57
-244.897 147.552 -1511 56 56 65
-241.011 147.032 -1506 63 64 74
-237.463 146.707 -1503 66 67 79
-232.838 145.7 -1493 58 59 71
-228.563 144.889 -1485 53 53 65
-224.627 144.273 -1479 49 49 62
-221.466 144.146 -1478 45 46 60
-217.719 143.63 -1473 47 48 60
-214.141 143.211 -1469 57 58 70
-209.287 141.916 -1456 57 58 70
-203.92 140.232 -1439 52 53 67
-198.904 138.744 -1424 56 57 71
-193.538 136.964 -1406 59 57 69
-188.246 135.186 -1388 48 47 59
-183.295 133.603 -1372 38 39 51
-179.99 133.189 -1368 39 38 49
-176.962 132.971 -1366 36 35 45
-174.835 133.435 -1371 56 49 60
-173.946 134.871 -1386 44 37 48
-176.824 139.324 -1432 32 26 37
-179.276 143.581 -1476 35 28 36
-178.445 145.309 -1494 35 28 36
-176.604 146.258 -1504 35 28 32
-174.148 146.721 -1509 36 29 33
-171.445 146.99 -1512 35 27 31
-169.066 147.551 -1518 34 26 34
-166.118 147.626 -1519 34 26 34
-163.703 148.187 -1525 36 28 32
-161.16 148.652 -1530 36 28 31
-158.289 148.825 -1532 36 28 30
-155.512 149.096 -1535 36 25 30
-152.625 149.27 -1537 35 24 30
-149.537 149.25 -1537 31 23 29
-146.64 149.425 -1539 30 23 29
-143.55 149.406 -1539 29 22 28
-140.552 149.484 -1540 30 22 22
-137.463 149.466 -1540 31 22 22
-134.723 149.837 -1544 35 25 25
-131.543 149.722 -1543 34 24 26
-128.367 149.608 -1542 32 22 24
-125.196 149.495 -1541 38 30 32
-121.634 148.896 -1535 39 32 33
-117.866 148.008 -1526 41 35 36
-113.683 146.538 -1511 45 39 44
-107.95 142.935 -1474 67 60 66
-103.505 140.885 -1453 62 57 66
-101.292 141.841 -1463 64 61 72
-99.9809 144.155 -1487 70 71 83
-98.5745 146.468 -1511 73 74 86
-96.4406 147.813 -1525 71 73 85
-93.7005 148.285 -1530 63 68 83
-91.178 149.145 -1539 61 66 81
-88.3342 149.521 -1543 64 69 84
-85.696 150.285 -1551 74 77 90
-342.932 163.822 -1705 71 70 84
-332.036 160.223 -1668 70 69 83
-322.674 157.299 -1638 72 71 85
-313.83 154.568 -1610 75 74 88
-305.489 152.032 -1584 75 74 88
-298.213 149.977 -1563 73 72 86
-291.78 148.307 -1546 69 68 82
-287.474 147.694 -1540 70 69 83
-282.825 146.89 -1532 71 70 84
-278.759 146.374 -1527 65 64 78
-274.897 145.954 -1523 55 54 66
-271.232 145.631 -1520 45 46 56
-267.758 145.404 -1518 42 43 53
-264.643 145.37 -1518 38 39 49
-261.358 145.24 -1517 39 39 49
-258.25 145.206 -1517 43 41 51
-254.639 144.885 -1514 44 43 51
-251.375 144.757 -1513 46 44 52
-247.953 144.533 -1511 53 50 58
-244.541 144.31 -1509 58 57 66
-240.979 143.991 -1506 64 65 75
-237.432 143.673 -1503 66 67 79
-233.119 142.878 -1495 57 58 70
-229.149 142.275 -1489 51 52 64
-224.901 141.481 -1481 47 49 61
-221.437 141.166 -1478 46 49 62
-217.839 140.755 -1474 48 49 61
-214.55 140.536 -1472 54 55 67
-209.978 139.459 -1461 60 61 73
-205.877 138.668 -1453 54 55 69
-200.414 136.924 -1435 55 56 70
-195.439 135.467 -1420 59 58 70
-190.119 133.725 -1402 46 46 58
-184.607 131.794 -1382 39 40 52
-180.624 130.912 -1373 40 39 50
-177.457 130.603 -1370 39 38 48
-175.195 130.961 -1374 51 44 55
-173.421 131.701 -1382 50 43 54
-176.801 136.443 -1432 37 30 41
-179.86 141.089 -1481 37 30 37
-179.019 142.78 -1499 36 29 35
-176.934 143.519 -1507 35 28 34
-174.586 144.068 -1513 36 28 34
-171.763 144.236 -1515 36 28 34
-169.49 144.88 -1522 34 26 34
-166.643 145.049 -1524 35 27 34
-163.896 145.313 -1527 37 29 33
-161.139 145.578 -1530 39 31 34
-158.475 145.938 -1534 40 32 34
-155.087 145.632 -1531 38 27 32
-152.407 145.993 -1535 36 25 31
-149.42 146.069 -1536 35 25 32
-146.43 146.145 -1537 32 24 29
-143.531 146.317 -1539 31 23 27
-140.534 146.393 -1540 33 23 23
-137.713 146.661 -1543 33 24 24
-134.793 146.833 -1545 37 27 27
-131.781 146.911 -1546 39 27 29
-128.517 146.705 -1544 36 24 27
-125.261 146.498 -1542 39 31 33
-121.856 146.102 -1538 41 34 35
-118.16 145.327 -1530 40 34 35
-113.894 143.793 -1514 43 36 41
-107.35 139.22 -1466 54 47 53
-102.21 136.263 -1435 63 58 66
-100.587 137.959 -1453 64 61 71
-100.506 141.934 -1495 68 69 81
-98.3661 143.155 -1508 70 71 83
-96.7443 145.231 -1530 69 70 83
-93.8109 145.409 -1532 64 69 84
-91.344 146.346 -1542 62 66 81
-88.4372 146.619 -1545 66 70 85
-85.8507 147.462 -1554 73 76 90
-351.297 162.666 -1729 67 66 78
-341.279 159.611 -1697 73 72 86
-331.794 156.746 -1667 69 68 82
-322.436 153.884 -1637 71 70 84
-311.45 150.178 -1598 74 73 87
-304.293 148.259 -1578 74 73 87
-297.793 146.623 -1561 74 73 87
-291.742 145.177 -1546 71 70 84
-286.877 144.295 -1537 72 71 85
-282.789 143.789 -1532 72 71 85
-278.358 143.096 -1525 64 63 76
-274.501 142.686 -1521 53 52 64
-271.019 142.463 -1519 45 46 56
-267.547 142.241 -1517 41 42 52
-264.261 142.114 -1516 38 39 49
-261.325 142.174 -1517 39 39 49
-258.046 142.047 -1516 41 40 50
-254.774 141.921 -1515 45 44 53
-251.509 141.795 -1514 49 48 57
-248.249 141.669 -1513 55 53 61
-244.996 141.544 -1512 59 58 68
-241.268 141.139 -1508 64 65 75
-237.717 140.828 -1505 65 66 78
-233.245 139.956 -1496 54 55 67
-229.427 139.459 -1491 47 48 60
-225.176 138.682 -1483 42 44 57
-221.708 138.373 -1480 44 47 60
-218.254 138.064 -1477 46 47 59
-214.814 137.757 -1474 53 54 66
-210.813 137.075 -1467 60 61 73
-206.56 136.208 -1458 54 55 68
-201.087 134.501 -1440 55 56 69
-196.653 133.448 -1429 60 60 72
-190.502 131.183 -1405 46 47 59
-185.518 129.665 -1389 40 41 53
-181.127 128.522 -1377 39 39 49
-177.693 128.033 -1372 42 41 51
-175.3 128.29 -1375 49 42 53
-174.026 129.388 -1387 55 48 59
-174.063 131.511 -1410 43 36 47
-178.865 137.365 -1473 40 33 39
-178.758 139.58 -1497 39 32 38
-177.029 140.583 -1508 37 30 36
-174.68 141.12 -1514 37 30 36
-171.854 141.285 -1516 40 32 38
-169.357 141.729 -1521 37 29 37
-166.512 141.894 -1523 36 28 35
-163.768 142.153 -1526 34 26 30
-161.014 142.412 -1529 36 28 31
-158.352 142.765 -1533 37 29 31
-155.371 142.838 -1534 38 27 32
-152.387 142.912 -1535 39 28 33
-149.498 143.079 -1537 40 29 36
-146.507 143.153 -1538 37 28 33
-143.606 143.321 -1540 34 26 30
-140.79 143.583 -1543 35 25 25
-137.517 143.379 -1541 35 25 25
-134.689 143.641 -1544 38 27 27
-131.85 143.903 -1547 40 29 31
-128.667 143.794 -1546 38 26 29
-125.327 143.499 -1543 39 31 33
-121.92 143.112 -1539 42 35 36
-118.067 142.167 -1529 41 34 35
-113.88 140.758 -1514 41 33 38
-107.922 137.025 -1474 49 41 47
-104.547 136.454 -1468 61 56 64
-100.989 135.605 -1459 66 63 73
-99.7536 137.916 -1484 66 67 79
-98.3537 140.134 -1508 68 69 82
-96.5424 141.887 -1527 70 72 84
-93.8602 142.432 -1533 65 70 85
-91.4509 143.443 -1544 62 66 81
-88.655 143.896 -1549 65 67 83
-85.7846 144.257 -1553 68 71 84
-82.7925 144.432 -1555 76 79 92
-351.456 159.251 -1730 67 66 78
-341.637 156.354 -1699 71 70 84
-330.757 152.908 -1662 68 67 81
-321.213 150.015 -1631 70 69 83
-311.216 146.848 -1597 73 72 86
-303.097 144.511 -1572 74 73 87
-296.038 142.636 -1552 73 72 86
-290.385 141.404 -1539 72 71 85
-286.094 140.817 -1533 75 74 88
-282.014 140.322 -1528 72 71 85
-278.141 139.92 -1524 61 60 73
-274.466 139.61 -1521 50 49 61
-270.985 139.392 -1519 44 44 55
-267.69 139.267 -1518 40 41 51
-264.227 139.05 -1516 39 40 50
-261.12 139.017 -1516 40 40 50
-258.014 138.985 -1516 42 41 51
-254.742 138.861 -1515 47 46 56
-251.477 138.738 -1514 53 52 62
-248.382 138.707 -1514 56 55 65
-244.965 138.493 -1512 60 60 70
-241.558 138.28 -1510 65 66 76
-238.003 137.975 -1507 65 66 78
-233.528 137.122 -1498 55 56 68
-229.706 136.636 -1493 48 49 61
-225.603 135.967 -1486 44 46 59
-222.129 135.665 -1483 40 43 56
-218.522 135.271 -1479 41 42 54
-215.079 134.97 -1476 53 54 66
-211.505 134.578 -1472 58 59 71
-207.1 133.638 -1462 52 53 65
-202.598 132.607 -1451 53 54 66
-197.041 130.846 -1432 60 60 72
-191.292 128.903 -1411 48 48 60
-185.896 127.145 -1392 39 40 52
-182.025 126.391 -1384 38 37 47
-178.448 125.821 -1378 38 37 47
-175.661 125.799 -1378 45 39 50
-173.754 126.416 -1385 53 48 59
-172.56 127.581 -1398 46 40 52
-178.843 134.404 -1473 41 34 41
-178.735 136.571 -1497 39 32 38
-176.772 137.37 -1506 37 30 36
-174.773 138.17 -1515 37 30 36
-172.173 138.513 -1519 39 32 38
-169.67 138.948 -1524 40 32 40
-166.929 139.201 -1527 40 32 39
-164.284 139.545 -1531 39 31 35
-161.415 139.707 -1533 40 32 34
-158.642 139.961 -1536 39 31 33
-155.554 139.941 -1536 40 29 34
-152.666 140.105 -1538 38 27 33
-149.577 140.086 -1538 42 31 38
-146.679 140.25 -1540 43 34 39
-143.868 140.505 -1543 41 33 37
-140.955 140.67 -1545 38 28 28
-137.678 140.471 -1543 36 26 25
-134.759 140.636 -1545 40 29 28
-131.748 140.711 -1546 43 31 33
-128.734 140.786 -1547 41 29 32
-125.473 140.588 -1545 39 31 33
-122.143 140.3 -1542 40 32 34
-118.362 139.466 -1533 38 30 32
-114.693 138.724 -1525 40 32 38
-108.128 134.345 -1477 47 39 45
-102.398 130.784 -1438 57 51 59
-99.5233 130.772 -1438 66 63 73
-99.0019 133.943 -1473 66 67 79
-98.0807 136.749 -1504 68 69 82
-96.4041 138.647 -1525 71 73 87
-93.971 139.544 -1535 68 73 88
-91.4395 140.351 -1544 63 67 82
-88.644 140.795 -1549 63 65 81
-85.774 141.147 -1553 68 71 84
-82.729 141.228 -1554 74 77 90
-350.803 155.474 -1727 65 64 77
-339.585 152.011 -1689 70 69 83
-330.118 149.27 -1659 70 69 83
-318.81 145.632 -1619 71 70 84
-309.813 142.985 -1590 71 70 84
-302.481 141.059 -1569 71 70 84
-295.238 139.135 -1548 70 69 83
-290.16 138.2 -1538 70 69 83
-286.058 137.716 -1533 74 73 87
-281.795 137.142 -1527 68 67 80
-278.106 136.838 -1524 57 56 69
-274.613 136.625 -1522 47 46 58
-270.951 136.323 -1519 43 44 55
-267.657 136.2 -1518 40 41 52
-264.369 136.078 -1517 39 40 50
-261.26 136.046 -1517 42 42 52
-258.152 136.014 -1517 46 45 55
-254.879 135.893 -1516 50 49 59
-251.778 135.862 -1516 53 52 62
-248.679 135.832 -1516 54 53 63
-245.421 135.712 -1515 57 58 68
-241.848 135.414 -1512 63 64 74
-238.132 135.026 -1508 67 68 80
-233.811 134.281 -1500 59 60 72
-229.678 133.627 -1493 52 53 65
-225.727 133.062 -1487 46 47 60
-222.102 132.677 -1483 42 43 55
-218.643 132.382 -1480 42 43 55
-215.198 132.087 -1477 47 48 60
-211.479 131.614 -1472 53 54 66
-207.358 130.874 -1464 53 54 66
-202.713 129.776 -1452 53 54 66
-197.017 127.965 -1432 59 58 70
-191.539 126.243 -1413 52 51 63
-186.808 124.97 -1399 41 42 54
-182.529 123.965 -1388 39 38 48
-179.074 123.497 -1383 37 36 46
-176.022 123.297 -1381 43 38 49
-173.983 123.811 -1387 52 47 59
-172.786 124.951 -1400 48 43 56
-175.907 129.302 -1449 41 35 43
-178.594 133.475 -1496 38 31 38
-177.22 134.702 -1510 38 31 37
-174.867 135.216 -1516 39 32 38
-172.152 135.463 -1519 42 34 40
-169.649 135.888 -1524 45 37 45
-166.908 136.135 -1527 44 36 43
-164.372 136.561 -1532 42 34 38
-161.606 136.809 -1535 43 35 38
-158.726 136.968 -1537 41 33 35
-155.738 137.038 -1538 44 33 38
-152.747 137.109 -1539 40 29 34
-150.045 137.447 -1543 41 30 36
-146.852 137.34 -1542 45 35 39
-144.131 137.679 -1546 45 37 40
-140.938 137.572 -1545 45 34 34
-138.018 137.734 -1547 41 31 29
-134.917 137.717 -1547 44 33 31
-131.903 137.79 -1548 44 32 34
-128.802 137.775 -1548 45 33 36
-125.621 137.67 -1547 44 35 36
-122.207 137.3 -1543 42 33 34
-118.656 136.751 -1537 40 31 33
-114.604 135.581 -1524 42 34 40
-109.36 132.898 -1494 40 32 38
-103.525 129.328 -1454 50 43 51
-101.241 130.116 -1463 64 60 70
-99.5276 131.705 -1481 64 65 77
-98.1339 133.827 -1505 67 68 82
-96.3292 135.505 -1524 69 70 84
-93.8984 136.383 -1534 67 72 87
-91.31 137.083 -1542 64 67 83
-88.5761 137.605 -1548 62 64 80
-85.7636 138.039 -1553 67 70 83
-82.719 138.118 -1554 74 78 91
-351.369 152.238 -1730 67 66 78
-338.739 148.237 -1685 72 71 84
-327.094 144.591 -1644 72 71 85
-318.181 142.09 -1616 71 70 84
-309.776 139.766 -1590 68 67 81
-301.674 137.532 -1565 67 66 80
-294.821 135.827 -1546 68 67 81
-289.37 134.738 -1534 70 69 83
-285.277 134.265 -1529 72 71 84
-281.577 133.967 -1526 63 62 74
-277.89 133.67 -1523 54 53 64
-274.399 133.462 -1521 46 45 57
-271.097 133.342 -1520 43 43 55
-267.801 133.222 -1519 41 42 54
-264.337 133.015 -1517 40 41 51
-261.056 132.896 -1516 43 43 53
-257.951 132.865 -1516 47 46 56
-254.68 132.747 -1515 49 48 58
-251.582 132.716 -1515 52 51 61
-248.486 132.687 -1515 52 51 61
-245.391 132.657 -1515 55 56 66
-241.819 132.366 -1512 62 63 73
-238.103 131.987 -1508 67 68 80
-234.094 131.434 -1502 61 62 74
-229.804 130.706 -1494 51 52 64
-225.852 130.154 -1488 45 46 58
-222.075 129.691 -1483 44 45 57
-218.765 129.49 -1481 45 46 57
-215.464 129.289 -1479 43 44 56
-211.885 128.914 -1475 48 49 61
-207.9 128.277 -1468 54 55 67
-203.945 127.641 -1461 54 55 67
-197.956 125.696 -1439 59 58 70
-192.872 124.275 -1423 56 56 68
-187.053 122.332 -1401 44 45 57
-183.165 121.611 -1393 40 40 50
-179.44 120.979 -1386 38 37 47
-176.001 120.521 -1381 44 39 50
-174.213 121.199 -1389 51 46 58
-172.765 122.138 -1400 48 43 56
-176.615 126.915 -1455 41 34 43
-177.976 130.034 -1491 38 31 39
-177.081 131.583 -1509 39 32 38
-174.731 132.086 -1515 43 35 41
-172.358 132.588 -1521 44 36 42
-169.74 132.917 -1525 42 35 43
-167.107 133.245 -1529 43 36 43
-164.567 133.662 -1534 43 35 39
-161.797 133.904 -1537 42 34 37
-158.707 133.885 -1537 39 31 33
-155.719 133.954 -1538 44 33 38
-152.828 134.11 -1540 44 33 38
-150.124 134.44 -1544 43 32 37
-147.12 134.51 -1545 42 32 35
-144.3 134.754 -1548 47 37 39
-141.104 134.65 -1547 51 40 38
-138.002 134.634 -1547 47 36 34
-134.901 134.618 -1547 45 34 32
-131.972 134.776 -1549 44 32 34
-128.786 134.674 -1548 46 34 37
-125.687 134.659 -1548 45 35 35
-122.509 134.557 -1547 45 35 36
-118.874 133.934 -1540 47 37 39
-115.192 133.225 -1532 46 38 43
-110.664 131.472 -1512 37 29 35
-102.658 125.374 -1442 48 40 48
-101.022 126.927 -1460 63 59 69
-99.1798 128.306 -1476 66 67 79
-97.8616 130.467 -1501 68 69 83
-96.065 132.107 -1520 66 68 82
-93.7649 133.139 -1532 64 69 84
-91.0032 133.563 -1537 64 68 83
-88.394 134.248 -1545 62 64 80
-85.6982 134.845 -1552 65 68 81
-82.8156 135.183 -1556 71 74 87
-348.688 147.616 -1717 68 67 79
-336.89 144.051 -1676 70 69 81
-325.862 140.747 -1638 73 72 85
-316.765 138.217 -1609 69 68 82
-308.765 136.119 -1585 68 67 81
-300.674 133.937 -1560 69 68 82
-294.596 132.615 -1545 69 68 82
-289.902 131.894 -1537 72 71 84
-285.617 131.345 -1531 68 67 80
-281.728 130.969 -1527 59 58 70
-278.04 130.679 -1524 53 52 63
-274.547 130.475 -1522 48 47 58
-271.065 130.272 -1520 40 41 53
-267.593 130.069 -1518 40 41 53
-264.48 130.038 -1518 40 41 51
-261.025 129.836 -1516 44 44 54
-257.921 129.806 -1516 48 47 57
-254.818 129.776 -1516 50 49 59
-251.718 129.747 -1516 55 54 64
-248.62 129.718 -1516 56 55 65
-245.686 129.775 -1517 59 60 70
-242.271 129.575 -1515 65 66 76
-238.549 129.205 -1511 67 68 80
-234.379 128.579 -1504 60 61 73
-230.085 127.868 -1496 51 52 64
-225.977 127.244 -1489 47 48 60
-222.199 126.791 -1484 44 45 57
-219.034 126.68 -1483 43 44 54
-215.73 126.484 -1481 42 43 54
-212.148 126.117 -1477 47 48 60
-208.159 125.495 -1470 53 54 66
-203.642 124.532 -1459 54 55 67
-197.933 122.802 -1439 61 60 72
-192.985 121.5 -1424 60 60 72
-188.099 120.198 -1409 46 47 59
-183.538 119.068 -1396 42 41 51
-179.937 118.535 -1390 40 38 48
-176.745 118.259 -1387 45 40 51
-173.942 118.238 -1387 51 46 57
-172.622 119.241 -1399 51 46 59
-173.074 121.523 -1426 44 37 46
-177.359 126.615 -1486 40 33 41
-176.708 128.299 -1506 39 32 38
-174.711 129.045 -1515 43 36 42
-172.338 129.536 -1521 45 37 43
-169.832 129.942 -1526 44 37 45
-167.197 130.263 -1530 43 36 43
-164.762 130.755 -1536 42 34 38
-161.778 130.822 -1537 42 34 38
-158.792 130.888 -1538 38 30 33
-155.903 131.04 -1540 41 30 35
-153.009 131.193 -1542 45 34 39
-150.204 131.431 -1545 47 35 40
-147.198 131.499 -1546 45 34 37
-144.376 131.737 -1549 47 37 39
-141.179 131.636 -1548 50 39 36
-138.164 131.705 -1549 47 36 33
-134.973 131.604 -1548 48 34 33
-131.957 131.674 -1549 47 34 36
-128.772 131.574 -1548 49 35 38
-125.672 131.559 -1548 46 35 35
-122.495 131.46 -1547 47 36 37
-119.014 131.021 -1542 48 38 40
-115.404 130.413 -1535 46 37 41
-110.725 128.531 -1513 39 31 35
-103.928 124.017 -1460 49 41 49
-100.111 122.901 -1447 65 60 70
-98.4293 124.418 -1465 69 70 82
-97.5242 127.04 -1496 69 70 84
-95.9906 128.982 -1519 67 68 82
-93.6317 129.905 -1530 64 69 82
-90.9927 130.488 -1537 64 68 83
-88.2693 130.988 -1543 62 64 80
-85.4122 131.317 -1547 63 66 79
-82.7529 131.987 -1555 72 75 88
-80.0109 132.572 -1562 76 80 93
-348.85 144.223 -1718 72 71 83
-336.248 140.406 -1673 69 68 80
-325.227 137.18 -1635 73 72 85
-315.744 134.542 -1604 70 69 82
-307.755 132.494 -1580 69 68 82
-300.832 130.866 -1561 69 68 82
-294.562 129.491 -1545 69 68 82
-289.869 128.787 -1537 68 67 80
-285.397 128.168 -1530 65 64 76
-281.511 127.8 -1526 56 55 66
-278.008 127.601 -1524 50 49 60
-274.696 127.486 -1523 48 47 57
-271.212 127.287 -1521 41 42 54
-267.915 127.173 -1520 40 41 52
-264.798 127.143 -1520 40 42 51
-261.512 127.029 -1519 43 43 53
-258.231 126.916 -1518 45 45 55
-254.789 126.72 -1516 50 49 59
-251.856 126.774 -1517 53 52 62
-248.428 126.579 -1515 54 54 65
-245.172 126.467 -1514 57 58 68
-241.923 126.356 -1513 62 63 73
-238.364 126.078 -1510 67 68 80
-234.352 125.551 -1504 61 62 74
-230.058 124.857 -1496 52 53 65
-226.103 124.33 -1490 46 47 58
-222.323 123.888 -1485 43 44 55
-219.157 123.779 -1484 43 44 54
-215.851 123.588 -1482 44 45 55
-212.267 123.23 -1478 47 48 60
-208.56 122.79 -1473 52 53 64
-204.456 122.099 -1465 55 56 67
-199.423 120.827 -1450 59 59 71
-194.453 119.555 -1435 62 63 75
-189.012 117.95 -1416 50 51 63
-184.174 116.68 -1401 44 43 54
-180.435 116.076 -1394 41 40 50
-177.107 115.723 -1390 44 39 50
-174.173 115.62 -1389 48 43 54
-172.602 116.433 -1399 55 50 61
-170.628 116.996 -1406 47 40 49
-176.145 122.801 -1476 42 35 43
-176.454 125.11 -1504 40 33 39
-174.345 125.756 -1512 42 34 40
-172.318 126.485 -1521 44 36 42
-169.701 126.799 -1525 44 37 45
-167.287 127.278 -1531 43 36 43
-164.743 127.675 -1536 43 35 39
-161.97 127.907 -1539 44 36 40
-158.98 127.972 -1540 40 32 36
-155.886 127.954 -1540 42 31 36
-152.892 128.02 -1541 45 34 39
-150.09 128.252 -1544 49 37 42
-147.182 128.401 -1546 48 37 39
-144.267 128.551 -1548 48 37 39
-141.254 128.618 -1549 50 38 34
-138.149 128.603 -1549 49 36 33
-135.045 128.587 -1549 51 37 35
-132.027 128.655 -1550 53 39 41
-128.923 128.641 -1550 53 39 42
-125.821 128.627 -1550 47 35 36
-122.56 128.447 -1548 49 38 39
-119.232 128.184 -1545 52 41 43
-115.767 127.756 -1540 51 42 46
-110.346 125.089 -1508 44 35 39
-102.635 119.603 -1442 46 38 45
-100.099 120.006 -1447 63 59 68
-98.2838 121.322 -1463 69 70 82
-97.6436 124.213 -1498 67 68 82
-95.6639 125.529 -1514 66 67 81
-93.3763 126.514 -1526 63 67 80
-90.9232 127.332 -1536 64 67 82
-88.0306 127.571 -1539 62 64 80
-85.4026 128.224 -1547 63 66 79
-82.7436 128.878 -1555 71 74 87
-80.1043 129.615 -1564 76 79 92
-347.593 140.253 -1712 71 70 82
-336.612 137.184 -1675 69 68 80
-325.19 133.872 -1635 72 71 83
-315.708 131.298 -1604 70 69 81
-307.721 129.299 -1580 71 70 84
-301.184 127.874 -1563 71 70 84
-295.291 126.695 -1549 68 67 81
-290.213 125.845 -1539 66 65 77
-285.925 125.322 -1533 63 62 74
-281.848 124.882 -1528 55 54 64
-277.976 124.524 -1524 49 48 58
-274.485 124.33 -1522 48 47 57
-271.181 124.218 -1521 44 45 57
-267.885 124.106 -1520 41 42 54
-264.768 124.077 -1520 39 42 51
-261.31 123.884 -1518 40 42 51
-258.202 123.856 -1518 43 43 53
-254.761 123.664 -1516 49 48 58
-251.661 123.636 -1516 50 50 60
-248.4 123.527 -1515 52 53 65
-245.307 123.499 -1515 54 55 66
-242.056 123.391 -1514 59 60 70
-238.337 123.038 -1510 65 66 78
-234.481 122.605 -1505 62 63 75
-230.033 121.846 -1496 54 55 67
-226.229 121.414 -1491 46 47 57
-222.448 120.982 -1486 42 43 53
-219.28 120.876 -1485 44 45 55
-215.972 120.689 -1483 48 49 60
-212.53 120.421 -1480 50 51 63
-208.253 119.666 -1471 53 54 64
-204.573 119.237 -1466 55 55 65
-199.814 118.157 -1453 57 59 70
-194.296 116.59 -1434 63 64 76
-188.99 115.106 -1416 52 53 65
-185.074 114.435 -1408 45 45 55
-180.932 113.602 -1398 43 42 52
-177.342 113.095 -1392 45 40 51
-174.405 112.995 -1391 46 41 52
-172.583 113.625 -1399 57 52 63
-170.245 113.931 -1403 51 44 52
-173.262 117.891 -1452 43 36 43
-174.557 120.795 -1488 44 37 43
-173.98 122.48 -1509 41 34 40
-172.073 123.273 -1519 42 35 41
-169.571 123.66 -1524 47 40 48
-167.05 124.047 -1529 45 37 44
-164.403 124.354 -1533 45 37 41
-161.742 124.66 -1537 46 38 42
-158.859 124.805 -1539 43 35 39
-155.97 124.95 -1541 45 34 39
-152.974 125.014 -1542 48 36 41
-150.17 125.241 -1545 50 38 43
-147.261 125.386 -1547 51 39 41
-144.344 125.533 -1549 51 39 40
-141.329 125.598 -1550 52 38 35
-138.312 125.664 -1551 52 38 35
-135.117 125.568 -1550 55 41 38
-132.013 125.553 -1550 57 43 45
-128.909 125.539 -1550 57 43 46
-125.807 125.525 -1550 52 40 41
-122.626 125.43 -1549 53 41 42
-119.142 125.012 -1544 54 42 44
-115.603 124.514 -1538 55 44 48
-109.822 121.506 -1501 46 35 40
-102.41 116.476 -1439 45 37 43
-99.8116 116.789 -1443 63 59 67
-97.9371 117.992 -1458 70 71 83
-97.1766 120.652 -1491 67 68 82
-95.7165 122.583 -1515 66 67 81
-93.366 123.463 -1526 65 69 82
-90.7948 124.1 -1534 66 68 83
-88.0208 124.495 -1539 65 67 83
-85.3933 125.133 -1547 65 68 81
-82.6812 125.69 -1554 69 72 85
-80.0443 126.409 -1563 73 76 89
-346.945 136.549 -1709 71 70 82
-335.369 133.316 -1669 71 70 82
-324.16 130.165 -1630 72 71 83
-314.886 127.735 -1600 69 68 80
-307.882 126.185 -1581 70 69 83
-301.343 124.795 -1564 71 70 84
-295.068 123.486 -1548 69 68 82
-290.558 122.896 -1541 66 65 78
-285.707 122.147 -1532 62 61 73
-281.633 121.717 -1527 56 55 65
-277.764 121.368 -1523 50 49 59
-274.815 121.418 -1524 47 46 56
-271.33 121.229 -1522 43 44 56
-268.208 121.2 -1522 40 41 53
-265.088 121.171 -1522 39 42 51
-261.626 120.983 -1520 40 42 51
-258.344 120.876 -1519 43 44 54
-255.237 120.848 -1519 50 49 59
-251.966 120.741 -1518 51 51 61
-248.701 120.634 -1517 53 54 66
-245.442 120.528 -1516 56 57 68
-241.71 120.184 -1512 59 60 70
-238.153 119.92 -1509 65 66 78
-234.767 119.735 -1507 63 64 76
-230.007 118.836 -1496 56 57 70
-226.356 118.494 -1492 49 50 61
-222.723 118.152 -1488 46 47 57
-219.552 118.049 -1487 45 46 56
-216.24 117.867 -1485 48 49 60
-212.651 117.526 -1481 51 52 64
-208.938 117.107 -1476 54 54 65
-204.55 116.291 -1466 54 54 64
-199.792 115.238 -1453 56 59 70
-195.359 114.345 -1442 62 64 75
-190.571 113.214 -1428 54 55 67
-185.579 111.926 -1412 44 44 54
-181.301 111.034 -1401 40 39 49
-178.087 110.777 -1398 41 37 48
-174.762 110.441 -1394 45 40 51
-172.071 110.502 -1395 60 55 67
-170.954 111.592 -1409 53 47 55
-172.288 114.346 -1444 42 35 43
-174.069 117.494 -1484 45 38 44
-173.73 119.297 -1507 45 38 45
-171.828 120.07 -1517 44 37 44
-169.441 120.526 -1523 46 39 47
-166.814 120.825 -1527 43 36 43
-164.278 121.203 -1532 44 36 40
-161.724 121.581 -1537 46 38 42
-158.739 121.643 -1538 46 37 41
-155.852 121.784 -1540 46 35 40
-152.859 121.847 -1541 49 38 42
-150.057 122.068 -1544 51 39 43
-147.15 122.21 -1546 51 39 41
-144.235 122.353 -1548 53 41 42
-141.223 122.417 -1549 56 41 38
-138.208 122.481 -1550 56 41 38
-135.102 122.466 -1550 58 44 41
-131.998 122.452 -1550 58 44 46
-128.812 122.359 -1549 56 42 45
-125.793 122.425 -1550 53 40 41
-122.613 122.332 -1549 55 42 43
-119.052 121.846 -1543 55 42 43
-115.591 121.438 -1538 54 43 47
-110.468 119.216 -1510 47 36 41
-102.399 113.599 -1439 45 37 43
-99.4551 113.509 -1438 63 59 67
-98.1281 115.314 -1461 69 70 82
-96.7751 117.198 -1485 67 69 82
-95.264 119.003 -1508 65 67 80
-93.1113 120.098 -1522 68 71 84
-90.7851 121.035 -1534 68 71 85
-87.7826 121.104 -1535 67 69 85
-85.3289 121.963 -1546 65 66 80
-82.8851 122.901 -1558 66 68 82
-80.0358 123.287 -1563 70 73 86
-346.299 132.858 -1706 69 68 80
-335.735 130.096 -1671 71 70 82
-324.125 126.87 -1630 73 72 84
-315.049 124.579 -1601 69 68 80
-307.459 122.834 -1579 70 69 83
-301.503 121.713 -1565 70 69 83
-295.799 120.67 -1552 69 68 82
-290.339 119.706 -1540 66 65 77
-285.863 119.132 -1533 60 59 71
-281.787 118.713 -1528 56 55 65
-277.916 118.373 -1524 53 52 62
-275.146 118.499 -1526 48 47 57
-271.657 118.315 -1524 41 42 54
-268.531 118.286 -1524 40 41 53
-265.408 118.258 -1524 39 42 51
-262.114 118.153 -1523 41 43 53
-258.487 117.893 -1520 45 46 56
-255.378 117.866 -1520 51 50 60
-252.271 117.839 -1520 52 51 62
-249.002 117.735 -1519 55 56 68
-245.416 117.477 -1516 57 58 69
-242.003 117.296 -1514 60 61 71
-238.128 116.883 -1509 66 67 79
-234.275 116.471 -1504 64 65 78
-229.829 115.75 -1495 57 58 72
-226.332 115.494 -1492 51 52 63
-222.7 115.161 -1488 50 50 60
-219.676 115.137 -1488 46 46 56
-216.217 114.883 -1485 46 46 57
-212.772 114.628 -1482 48 49 61
-208.916 114.142 -1476 53 53 63
-204.529 113.347 -1466 51 51 61
-200.046 112.475 -1455 50 52 63
-195.88 111.759 -1446 56 58 69
-191.085 110.657 -1432 58 59 71
-186.348 109.555 -1418 49 48 58
-182.317 108.841 -1409 39 38 48
-178.833 108.436 -1404 39 35 46
-175.621 108.186 -1401 45 41 53
-172.669 108.09 -1400 62 58 70
-171.057 108.844 -1410 57 51 60
-169.884 109.907 -1424 46 40 47
-172.643 113.594 -1472 45 38 44
-173.136 115.89 -1502 45 38 45
-171.47 116.798 -1514 45 38 45
-169.312 117.398 -1522 42 35 43
-166.796 117.766 -1527 43 35 42
-164.047 117.98 -1530 44 36 40
-161.497 118.349 -1535 46 36 41
-158.722 118.563 -1538 46 35 40
-155.936 118.778 -1541 45 34 39
-152.942 118.839 -1542 50 38 43
-150.138 119.054 -1545 53 41 44
-147.229 119.193 -1547 52 40 42
-144.313 119.332 -1549 53 41 42
-141.299 119.394 -1550 58 42 38
-138.371 119.534 -1552 58 42 39
-135.175 119.443 -1551 59 45 42
-132.07 119.429 -1551 61 47 49
-128.882 119.338 -1550 61 47 50
-125.78 119.325 -1550 60 46 47
-122.521 119.158 -1548 61 47 48
-119.117 118.838 -1544 60 46 47
-115.353 118.133 -1535 58 46 51
-109.433 115.12 -1496 53 42 47
-101.89 110.184 -1432 54 43 50
-100.413 111.713 -1452 66 61 71
-98.7894 113.164 -1471 69 70 82
-97.2211 114.769 -1492 68 71 84
-95.1277 115.836 -1506 66 69 82
-92.7957 116.673 -1517 65 68 81
-90.598 117.74 -1531 67 69 84
-87.7735 118.038 -1535 66 68 84
-85.3199 118.875 -1546 65 66 80
-82.6104 119.405 -1553 64 65 79
-79.8738 119.935 -1560 68 71 84
-346.06 129.332 -1705 67 66 78
-334.896 126.414 -1667 70 69 81
-323.892 123.499 -1629 71 70 82
-315.016 121.344 -1601 70 69 81
-307.427 119.644 -1579 71 70 84
-301.279 118.476 -1564 71 70 83
-295.196 117.309 -1549 69 68 81
-290.308 116.598 -1540 65 64 76
-285.273 115.811 -1530 58 57 69
-281.757 115.631 -1528 55 54 64
-278.07 115.375 -1525 54 53 63
-275.118 115.422 -1526 46 45 55
-271.986 115.394 -1526 40 41 53
-268.856 115.366 -1526 41 42 54
-265.554 115.263 -1525 39 42 51
-262.259 115.16 -1524 43 44 54
-258.8 114.982 -1522 47 48 58
-255.519 114.88 -1521 51 50 60
-252.244 114.779 -1520 53 52 63
-248.976 114.678 -1519 55 56 68
-245.39 114.426 -1516 57 58 68
-241.978 114.25 -1514 58 59 69
-238.103 113.848 -1509 62 63 75
-233.939 113.296 -1502 61 62 75
-229.806 112.744 -1495 55 57 71
-226.461 112.57 -1493 51 51 62
-222.677 112.17 -1488 52 51 61
-219.506 112.072 -1487 47 46 56
-216.195 111.899 -1485 44 44 55
-212.894 111.727 -1483 46 47 59
-208.753 111.102 -1475 51 52 62
-204.647 110.479 -1467 47 48 58
-200.437 109.78 -1458 50 51 62
-195.995 108.932 -1447 55 56 68
-192.133 108.385 -1440 61 61 73
-188.037 107.689 -1431 51 50 61
-183.462 106.692 -1418 37 37 47
-179.323 105.921 -1408 37 35 45
-176.355 105.828 -1407 42 39 50
-173.021 105.509 -1403 57 53 66
-170.676 105.792 -1407 63 58 67
-168.435 106.151 -1412 48 42 50
-168.873 108.239 -1440 45 38 44
-172.311 112.355 -1495 43 36 42
-171.112 113.54 -1511 43 36 42
-168.961 114.124 -1519 43 36 44
-166.451 114.482 -1524 44 36 43
-163.815 114.766 -1528 45 37 41
-161.27 115.125 -1533 47 37 42
-158.499 115.334 -1536 48 37 42
-155.617 115.469 -1538 46 35 40
-152.728 115.603 -1540 51 39 44
-150.123 115.963 -1545 53 41 44
-147.119 116.023 -1546 54 41 42
-144.205 116.158 -1548 54 41 41
-141.194 116.219 -1549 59 43 39
-138.268 116.355 -1551 60 44 40
-134.987 116.191 -1549 61 46 43
-131.971 116.253 -1550 62 48 50
-128.785 116.164 -1549 64 50 53
-125.767 116.226 -1550 63 49 50
-122.508 116.064 -1548 63 49 50
-119.104 115.752 -1544 61 47 48
-115.642 115.365 -1539 59 47 52
-108.69 111.381 -1486 52 41 46
-102.235 107.698 -1437 56 46 53
-100.333 108.737 -1451 68 63 72
-98.4435 109.851 -1466 67 68 80
-97.0809 111.639 -1490 67 70 83
-94.9917 112.679 -1504 67 70 83
-92.6027 113.418 -1514 64 67 80
-90.2929 114.308 -1526 65 68 82
-87.936 115.198 -1538 65 67 83
-85.3664 115.863 -1547 66 67 81
-82.602 116.304 -1553 63 65 79
-79.8656 116.82 -1560 67 70 83
-76.7575 116.812 -1560 72 75 88
-345.618 125.737 -1703 66 65 77
-335.063 123.119 -1668 66 65 77
-324.456 120.429 -1632 68 67 79
-315.181 118.183 -1602 70 69 81
-307.396 116.455 -1579 70 69 83
-300.671 115.097 -1561 69 68 81
-294.785 114.035 -1547 69 68 80
-289.902 113.343 -1538 64 63 75
-285.244 112.724 -1530 56 55 67
-281.729 112.549 -1528 54 53 63
-278.406 112.447 -1527 53 52 62
-275.27 112.419 -1527 46 45 54
-272.136 112.392 -1527 39 40 51
-269.181 112.438 -1528 41 43 54
-265.876 112.338 -1527 40 42 51
-262.404 112.164 -1525 43 45 54
-258.944 111.991 -1523 46 47 57
-255.661 111.892 -1522 49 48 58
-252.385 111.793 -1521 54 54 65
-249.115 111.695 -1520 54 55 67
-245.527 111.45 -1517 54 55 66
-242.114 111.278 -1515 53 54 65
-238.079 110.814 -1509 59 60 72
-234.539 110.57 -1506 60 62 74
-229.936 109.813 -1496 54 57 69
-226.741 109.717 -1495 50 50 60
-222.954 109.327 -1490 49 49 58
-219.631 109.159 -1488 44 44 54
-216.464 109.064 -1487 45 46 56
-212.872 108.749 -1483 43 44 56
-209.015 108.288 -1477 50 50 60
-204.626 107.534 -1467 52 52 62
-200.555 106.928 -1459 48 49 60
-196.111 106.102 -1448 56 56 67
-192.514 105.716 -1443 64 63 75
-188.15 104.892 -1432 55 56 67
-183.703 103.995 -1420 39 39 51
-180.197 103.61 -1415 38 37 49
-176.838 103.3 -1411 42 39 51
-173.251 102.843 -1405 54 49 60
-170.78 103.046 -1408 68 61 70
-167.941 103.029 -1408 50 44 52
-169.559 105.793 -1446 42 37 42
-172.063 109.214 -1493 43 36 42
-170.756 110.295 -1508 42 34 40
-168.722 110.936 -1517 44 38 46
-166.325 111.358 -1523 44 37 44
-163.584 111.561 -1526 45 37 41
-161.254 112.057 -1533 48 38 42
-158.277 112.114 -1534 49 38 42
-155.5 112.318 -1537 49 37 41
-152.712 112.522 -1540 51 40 43
-150.011 112.799 -1544 52 40 44
-147.009 112.858 -1545 54 41 42
-144.098 112.99 -1547 56 42 42
-141.088 113.048 -1548 59 44 40
-138.165 113.181 -1550 60 44 41
-134.974 113.094 -1549 63 47 44
-131.958 113.154 -1550 61 47 49
-128.772 113.068 -1549 63 49 52
-125.836 113.202 -1551 62 48 49
-122.496 112.971 -1548 63 49 50
-118.938 112.521 -1542 63 49 50
-115.105 111.78 -1532 61 50 55
-108.899 108.632 -1489 47 38 43
-103.363 105.995 -1453 53 46 55
-101.015 106.568 -1461 67 64 74
-98.8366 107.361 -1472 66 67 80
-97.397 109.029 -1495 65 69 83
-95.1717 109.894 -1507 65 69 83
-92.6547 110.469 -1515 66 69 82
-90.4615 111.48 -1529 65 67 82
-87.813 111.982 -1536 65 66 81
-85.3579 112.775 -1547 66 67 81
-82.4874 113.059 -1551 64 66 79
-79.8065 113.634 -1559 67 70 83
-76.7499 113.699 -1560 71 74 87
-355.672 124.628 -1735 73 72 84
-343.555 121.577 -1693 66 65 78
-333.824 119.318 -1662 64 63 75
-323.43 116.773 -1627 67 66 78
-314.756 114.804 -1600 68 67 79
-306.781 113.052 -1576 68 67 81
-299.871 111.66 -1557 68 67 80
-294.946 110.985 -1548 67 66 78
-289.308 110.025 -1535 62 61 73
-285.776 109.854 -1533 54 53 65
-281.885 109.539 -1529 52 51 63
-278.561 109.44 -1528 49 48 58
-275.243 109.342 -1527 45 44 52
-272.288 109.387 -1528 38 39 49
-269.154 109.36 -1528 42 43 53
-266.023 109.334 -1528 41 42 52
-262.378 109.094 -1525 46 46 56
-259.088 108.997 -1524 48 47 57
-255.804 108.901 -1523 48 47 57
-252.36 108.733 -1521 54 53 64
-248.927 108.566 -1519 55 56 68
-245.341 108.327 -1516 55 56 68
-241.93 108.161 -1514 53 54 66
-237.898 107.709 -1508 59 60 72
-234.36 107.472 -1505 62 64 75
-230.221 106.949 -1498 54 57 68
-226.719 106.713 -1495 49 51 59
-223.081 106.406 -1491 48 50 57
-219.905 106.313 -1490 43 44 54
-216.588 106.149 -1488 44 45 56
-212.995 105.843 -1484 42 43 55
-209.136 105.395 -1478 50 49 59
-204.467 104.519 -1466 52 51 61
-200.673 104.072 -1460 49 50 60
-196.363 103.34 -1450 56 56 67
-192.628 102.894 -1444 64 63 75
-188.788 102.377 -1437 59 60 72
-184.72 101.718 -1428 44 44 56
-180.943 101.202 -1421 42 41 53
-177.322 100.757 -1415 45 42 53
-173.727 100.313 -1409 53 48 59
-170.521 100.083 -1406 69 63 72
-167.567 99.9953 -1405 55 49 58
-165.791 100.62 -1414 41 37 42
-169.396 104.588 -1470 43 36 42
-170.173 106.92 -1503 44 36 42
-168.483 107.757 -1515 42 37 45
-166.309 108.31 -1523 42 36 43
-163.676 108.579 -1527 44 37 41
-161.028 108.847 -1531 48 39 42
-158.262 109.045 -1534 51 40 43
-155.384 109.172 -1536 52 40 41
-152.499 109.3 -1538 52 40 42
-149.899 109.641 -1543 52 40 45
-146.9 109.698 -1544 54 41 44
-143.991 109.826 -1546 56 44 46
-140.983 109.883 -1547 58 44 40
-138.063 110.012 -1549 59 44 40
-134.961 109.999 -1549 62 46 43
-131.945 110.057 -1550 61 48 48
-128.76 109.973 -1549 61 49 50
