ply
format ascii 1.0
comment Created by Open3D
element vertex 1427
property double x
property double y
property double z
property uchar red
property uchar green
property uchar blue
end_header
-96.4052 -978.254 -2326 32 33 45
-91.3189 -976.096 -2321 30 31 43
-86.4034 -975.623 -2320 27 28 40
-81.5632 -975.993 -2321 29 30 42
-76.7525 -976.787 -2323 29 31 42
-71.9342 -977.584 -2325 29 30 42
-67.1369 -978.804 -2328 30 31 43
-62.3007 -979.606 -2330 29 29 41
-57.4569 -980.412 -2332 27 28 42
-52.6051 -981.22 -2334 28 29 43
-47.7249 -981.61 -2335 32 31 45
-42.841 -982.004 -2336 39 39 53
-37.8883 -980.719 -2333 42 43 57
-32.9768 -980.277 -2332 51 50 62
-251.21 -977.327 -2303 53 55 61
-247.708 -982.693 -2316 41 42 52
-243.103 -983.818 -2319 33 34 47
-238.386 -984.522 -2321 31 32 46
-233.26 -983.531 -2319 29 30 44
-228.144 -982.544 -2317 29 31 43
-222.943 -981.137 -2314 29 32 43
-217.945 -980.58 -2313 30 31 45
-212.769 -979.179 -2310 27 31 44
-207.968 -979.476 -2311 27 32 45
-202.988 -978.929 -2310 27 32 47
-198.1 -978.808 -2310 29 33 47
-193.465 -979.962 -2313 28 31 44
-189.145 -982.813 -2320 28 31 44
-184.559 -984.394 -2324 30 33 46
-180.112 -986.826 -2330 29 32 45
-175.717 -989.684 -2337 29 32 45
-171.001 -990.85 -2340 30 32 47
-166.204 -991.596 -2342 29 30 46
-161.468 -992.768 -2345 29 30 44
-156.721 -993.943 -2348 27 28 40
-151.898 -994.697 -2350 27 28 38
-147.006 -995.03 -2351 34 35 45
-141.989 -994.521 -2350 56 57 67
-137.212 -995.706 -2353 42 43 53
-132.198 -995.202 -2352 30 31 41
-127.136 -994.279 -2350 30 31 42
-122.187 -994.204 -2350 32 33 45
-116.99 -992.017 -2345 32 33 45
-111.958 -991.102 -2343 30 31 43
-106.753 -988.499 -2337 32 33 45
-101.792 -988.013 -2336 32 33 45
-96.5872 -984.994 -2329 32 33 45
-91.6095 -984.091 -2327 31 32 44
-86.5294 -981.924 -2322 32 33 45
-81.647 -981.873 -2322 33 34 46
-76.7321 -981.403 -2321 31 32 44
-71.8841 -981.782 -2322 30 31 43
-67.0325 -982.163 -2323 32 33 45
-62.2309 -983.392 -2326 32 33 45
-57.4665 -985.471 -2331 32 33 47
-52.5914 -985.861 -2332 35 36 50
-47.7534 -987.099 -2335 41 40 54
-42.9398 -989.185 -2340 43 43 56
-37.9759 -987.893 -2337 42 43 56
-32.9964 -985.758 -2332 52 51 63
-246.894 -984.331 -2307 42 44 51
-242.726 -987.169 -2314 33 34 47
-238.325 -989.156 -2319 32 33 47
-233.3 -988.587 -2318 31 32 48
-228.282 -988.021 -2317 31 32 46
-223.367 -987.884 -2317 32 33 46
-218.454 -987.75 -2317 33 34 48
-213.082 -985.489 -2312 30 33 47
-208.183 -985.361 -2312 27 32 45
-203.11 -984.384 -2310 28 33 46
-198.134 -983.837 -2309 30 34 47
-193.414 -984.571 -2311 29 32 45
-189.259 -988.289 -2320 27 30 43
-184.511 -989.028 -2322 27 29 42
-180.298 -992.751 -2331 25 26 40
-175.898 -995.625 -2338 25 26 40
-171.177 -996.797 -2341 27 28 42
-166.446 -997.973 -2344 29 30 46
-161.841 -1000 -2349 29 30 44
-156.949 -1000.33 -2350 28 29 42
-152.248 -1001.94 -2354 27 28 38
-146.969 -999.723 -2349 31 32 42
-141.954 -999.21 -2348 52 53 63
-137.119 -999.977 -2350 38 39 49
-132.109 -999.47 -2349 30 31 41
-126.887 -997.265 -2344 31 32 42
-122 -997.615 -2345 32 33 45
-116.96 -996.693 -2343 32 33 45
-111.929 -995.773 -2341 30 31 43
-106.817 -994.006 -2337 31 32 44
-101.94 -994.368 -2338 34 35 47
-96.811 -992.182 -2333 31 32 44
-91.9009 -992.125 -2333 30 31 43
-86.8796 -990.795 -2330 30 31 43
-81.9071 -989.894 -2328 30 31 43
-76.9105 -988.571 -2325 33 34 46
-71.9892 -988.101 -2324 34 35 47
-67.1016 -988.059 -2324 36 37 49
-62.295 -989.296 -2327 40 41 53
-57.427 -989.685 -2328 42 43 57
-52.6003 -990.927 -2331 45 46 60
-47.7001 -990.897 -2331 49 48 62
-42.8554 -992.145 -2334 46 46 59
-37.901 -990.845 -2331 45 45 57
-32.9171 -988.274 -2325 55 54 65
-246.937 -989.368 -2306 43 45 52
-242.768 -992.222 -2313 35 36 47
-238.058 -992.934 -2315 32 33 46
-233.241 -993.219 -2316 34 35 50
-228.322 -993.078 -2316 34 34 48
-223.406 -992.94 -2316 34 34 48
-218.681 -993.663 -2318 32 33 47
-213.395 -991.817 -2314 29 33 46
-208.67 -992.546 -2316 27 33 46
-203.409 -990.706 -2312 29 34 47
-198.425 -990.156 -2311 32 36 49
-193.783 -991.322 -2314 31 34 47
-189.292 -993.347 -2319 29 32 45
-184.782 -995.375 -2324 30 32 46
-180.562 -999.119 -2333 31 32 46
-176.08 -1001.58 -2339 30 31 45
-171.427 -1003.19 -2343 28 29 44
-166.617 -1003.94 -2345 28 29 45
-161.87 -1005.12 -2348 28 29 43
-156.977 -1005.46 -2349 29 30 43
-152.275 -1007.07 -2353 28 29 39
-146.87 -1003.99 -2346 34 35 45
-141.858 -1003.47 -2345 51 52 63
-136.793 -1002.53 -2343 37 38 50
-131.907 -1002.88 -2344 28 29 40
-126.639 -1000.23 -2338 28 29 40
-121.814 -1001.01 -2340 29 30 42
-116.831 -1000.51 -2339 30 31 43
-111.854 -1000.02 -2338 30 31 43
-106.744 -998.239 -2334 32 33 45
-101.958 -999.459 -2337 34 35 47
-96.8696 -997.688 -2333 32 33 45
-92.0352 -998.486 -2335 30 31 43
-87.044 -997.577 -2333 30 31 43
-82.1325 -997.526 -2333 34 35 47
-77.0231 -994.912 -2327 40 41 53
-72.0327 -993.584 -2324 45 46 58
-67.0843 -992.687 -2322 46 47 59
-62.1718 -992.22 -2321 47 48 60
-57.3628 -993.467 -2324 49 50 64
-52.5643 -995.143 -2328 49 50 64
-47.688 -995.541 -2329 49 48 62
-42.8997 -998.078 -2335 45 45 58
-38.0377 -999.336 -2338 45 46 58
-246.552 -992.685 -2301 51 53 60
-242.182 -994.692 -2306 42 43 53
-237.998 -997.564 -2313 34 35 47
-233.484 -999.144 -2317 36 37 51
-228.56 -999.003 -2317 35 35 49
-223.736 -999.296 -2318 33 32 46
-219.003 -1000.02 -2320 31 32 45
-213.895 -999.028 -2318 29 33 46
-208.797 -998.036 -2316 28 34 47
-203.622 -996.617 -2313 34 38 51
-198.461 -995.202 -2310 37 40 53
-193.649 -995.513 -2311 34 35 49
-189.162 -997.549 -2316 31 32 46
-184.815 -1000.45 -2323 30 32 46
-180.362 -1002.92 -2329 31 32 46
-176.187 -1007.12 -2339 29 30 44
-171.605 -1009.17 -2344 28 29 43
-166.932 -1010.78 -2348 28 29 44
-162.175 -1011.98 -2351 31 32 46
-157.206 -1011.88 -2351 28 29 42
-152.562 -1013.93 -2356 25 26 36
-147.085 -1010.4 -2348 39 41 49
-141.945 -1009.02 -2345 53 55 64
-136.935 -1008.51 -2344 36 37 49
-131.875 -1007.56 -2342 27 28 38
-126.608 -1004.9 -2336 25 26 36
-121.679 -1004.83 -2336 24 25 37
-116.652 -1003.89 -2334 26 27 39
-111.682 -1003.4 -2333 26 27 39
-106.763 -1003.33 -2333 29 30 42
-101.933 -1004.13 -2335 34 35 47
-96.97 -1003.63 -2334 33 34 46
-92.1306 -1004.44 -2336 30 31 43
-87.1717 -1003.95 -2335 28 29 41
-82.1473 -1002.61 -2332 34 35 47
-77.103 -1000.84 -2328 40 41 53
-72.1694 -1000.37 -2327 46 47 59
-67.1539 -998.605 -2323 48 49 61
-62.2631 -998.566 -2323 48 49 61
-57.3481 -998.1 -2322 50 51 65
-52.5057 -998.926 -2324 52 52 66
-47.6349 -999.325 -2325 47 46 60
-42.7787 -1000.16 -2327 44 44 57
-246.704 -998.157 -2301 58 60 67
-242.961 -1002.78 -2312 48 49 59
-238.35 -1003.93 -2315 37 38 50
-233.627 -1004.65 -2317 39 40 53
-228.701 -1004.51 -2317 36 37 50
-223.97 -1005.24 -2319 30 31 43
-219.232 -1005.97 -2321 29 30 42
-214.211 -1005.4 -2320 30 33 45
-209.196 -1004.84 -2319 30 34 47
-204.187 -1004.28 -2318 36 39 52
-198.926 -1002.42 -2314 39 41 55
-193.936 -1001.86 -2313 37 38 52
-189.36 -1003.48 -2317 32 33 47
-184.928 -1005.96 -2323 31 32 46
-180.395 -1008.02 -2328 31 32 46
-176.069 -1011.37 -2336 30 31 45
-171.637 -1014.29 -2343 29 30 44
-166.963 -1015.92 -2347 28 29 43
-162.274 -1017.55 -2351 32 33 47
-157.503 -1018.75 -2354 28 29 42
-152.915 -1021.25 -2360 32 33 43
-147.112 -1015.53 -2347 52 54 61
-142.092 -1015.01 -2346 54 55 64
-137.019 -1014.06 -2344 33 34 46
-132.012 -1013.55 -2343 27 28 39
-126.685 -1010.44 -2336 26 27 38
-121.962 -1012.09 -2340 26 27 39
-116.723 -1009.43 -2334 25 26 38
-111.846 -1009.79 -2335 22 23 35
-106.829 -1008.86 -2333 24 25 37
-101.908 -1008.79 -2333 32 33 45
-96.9461 -1008.3 -2332 31 32 44
-92.1475 -1009.54 -2335 28 29 41
-87.1502 -1008.62 -2333 30 31 43
-82.2678 -1009 -2334 32 33 45
-77.1502 -1006.36 -2328 37 38 50
-72.1825 -1005.45 -2326 41 42 54
-67.1949 -1004.11 -2323 39 40 52
-62.2208 -1002.77 -2320 41 42 54
-57.3091 -1002.3 -2319 45 46 59
-52.4926 -1003.56 -2322 46 46 60
-47.6229 -1003.97 -2323 46 45 59
-42.7312 -1003.94 -2323 43 44 56
-242.586 -1006.1 -2307 51 53 61
-238.085 -1007.7 -2311 37 38 48
-233.57 -1009.3 -2315 36 37 49
-228.744 -1009.59 -2316 34 36 48
-224.205 -1011.19 -2320 31 33 44
-219.273 -1011.06 -2320 33 32 44
-214.528 -1011.79 -2322 32 33 45
-209.506 -1011.23 -2321 33 34 48
-204.666 -1011.53 -2322 35 38 51
-199.393 -1009.66 -2318 36 38 52
-194.307 -1008.67 -2316 36 37 51
-189.477 -1008.99 -2317 35 36 50
-184.804 -1010.18 -2320 31 32 46
-180.274 -1012.24 -2325 28 29 43
-175.876 -1015.18 -2332 29 30 44
-171.523 -1018.56 -2340 30 31 45
-167.138 -1021.93 -2348 30 31 45
-162.375 -1023.14 -2351 30 31 45
-157.6 -1024.34 -2354 33 34 46
-153.139 -1027.73 -2362 46 47 57
-147.579 -1023.72 -2353 62 64 71
-142.361 -1021.89 -2349 55 57 65
-137.22 -1020.5 -2346 33 34 46
-132.15 -1019.55 -2344 31 32 42
-126.926 -1017.29 -2339 33 34 44
-121.829 -1015.91 -2336 31 32 44
-116.845 -1015.4 -2335 27 28 40
-111.915 -1015.33 -2335 25 26 38
-106.849 -1013.96 -2332 24 25 37
-102.014 -1014.76 -2334 25 26 38
-97.0057 -1013.83 -2332 24 25 37
-92.0856 -1013.77 -2332 24 25 37
-87.1663 -1013.72 -2332 25 26 38
-82.2479 -1013.67 -2332 25 26 38
-77.1644 -1011.44 -2327 27 28 40
-72.2889 -1011.83 -2328 30 31 43
-67.2942 -1010.49 -2325 30 31 43
-62.2858 -1008.71 -2321 30 31 43
-57.3442 -1007.8 -2319 33 34 47
-52.4569 -1007.77 -2319 37 38 52
-47.5701 -1007.74 -2319 38 38 52
-42.426 -1001.63 -2305 45 45 57
-242.105 -1008.98 -2301 54 56 62
-237.718 -1011.02 -2306 37 39 46
-233.715 -1014.82 -2315 31 32 46
-228.787 -1014.68 -2315 32 33 46
-224.151 -1015.85 -2318 33 34 48
-219.315 -1016.15 -2319 38 35 49
-214.661 -1017.33 -2322 35 33 48
-209.726 -1017.2 -2322 33 34 48
-204.705 -1016.63 -2321 31 36 49
-199.689 -1016.06 -2320 34 38 51
-194.596 -1015.07 -2318 36 37 51
-189.84 -1015.82 -2320 32 33 47
-185.157 -1017.02 -2323 28 29 43
-180.386 -1017.78 -2325 28 29 43
-176.06 -1021.17 -2333 30 29 43
-171.629 -1024.13 -2340 29 29 43
-167.241 -1027.52 -2348 29 30 44
-162.821 -1030.92 -2356 27 28 42
-158.234 -1033.45 -2362 29 30 43
-153.753 -1036.85 -2370 53 54 64
-148.172 -1032.82 -2361 68 69 77
-142.995 -1031.42 -2358 57 58 67
-137.598 -1028.27 -2351 35 36 48
-132.683 -1028.62 -2352 31 32 42
-127.439 -1026.35 -2347 35 36 47
-122.739 -1028.46 -2352 37 38 50
-117.268 -1024.01 -2342 36 37 49
-112.368 -1024.38 -2343 35 36 48
-106.915 -1019.5 -2332 35 36 48
-102.121 -1020.75 -2335 34 35 47
-96.816 -1016.75 -2326 30 31 43
-92.0241 -1018.01 -2329 26 27 39
-87.0332 -1017.08 -2327 25 26 38
-82.1224 -1017.02 -2327 25 26 38
-77.1125 -1015.66 -2324 24 25 37
-72.2093 -1015.62 -2324 22 23 35
-67.191 -1013.83 -2320 23 24 36
-62.2437 -1012.91 -2318 26 27 39
-57.2807 -1011.56 -2315 31 32 46
-52.4215 -1011.97 -2316 37 38 52
-47.5995 -1013.25 -2319 40 41 55
-237.97 -1016.97 -2307 40 42 49
-234.165 -1021.67 -2318 30 31 45
-229.128 -1021.09 -2317 31 32 46
-224.388 -1021.83 -2319 32 33 46
-219.641 -1022.57 -2321 36 32 46
-214.61 -1021.99 -2320 35 33 47
-209.676 -1021.86 -2320 31 32 45
-204.744 -1021.73 -2320 30 34 46
-199.814 -1021.6 -2320 37 40 53
-194.801 -1021.04 -2319 35 38 51
-189.877 -1020.92 -2319 26 27 41
-185.113 -1021.68 -2321 26 27 41
-180.266 -1022.01 -2322 29 30 44
-175.793 -1024.54 -2328 29 28 42
-171.516 -1028.39 -2337 27 26 40
-167.274 -1032.68 -2347 25 26 40
-162.922 -1036.54 -2356 26 27 41
-158.601 -1040.84 -2366 28 29 42
-153.979 -1043.38 -2372 56 57 67
-148.704 -1041.53 -2368 67 69 76
-143.327 -1038.8 -2362 58 60 68
-138.094 -1036.95 -2358 38 39 51
-132.935 -1035.54 -2355 28 29 40
-127.627 -1032.82 -2349 31 32 44
-122.868 -1034.51 -2353 39 40 52
-117.542 -1031.35 -2346 44 45 57
-112.438 -1029.96 -2343 44 45 57
-107.348 -1028.58 -2340 42 43 55
-102.185 -1026.31 -2335 43 44 56
-97.0845 -1024.49 -2331 42 43 55
-92.1209 -1023.99 -2330 43 44 56
-87.05 -1022.18 -2326 44 45 57
-82.1028 -1021.69 -2325 44 45 57
-77.1272 -1020.76 -2323 46 47 59
-72.192 -1020.27 -2322 42 43 55
-67.3196 -1020.67 -2323 42 43 55
-62.3898 -1020.19 -2322 45 46 58
-57.4649 -1019.71 -2321 45 46 60
-52.5446 -1019.24 -2320 42 43 57
-47.7318 -1020.96 -2324 45 46 60
-238.533 -1024.27 -2311 50 52 59
-234.009 -1025.9 -2315 42 43 57
-229.074 -1025.75 -2315 42 43 56
-224.335 -1026.49 -2317 38 39 51
-219.59 -1027.24 -2319 35 32 45
-214.468 -1026.22 -2317 34 32 45
-209.627 -1026.52 -2318 30 31 43
-204.608 -1025.95 -2317 31 33 45
-199.939 -1027.15 -2320 35 37 50
-194.756 -1025.7 -2317 34 36 50
-189.914 -1026.02 -2318 32 33 47
-185.309 -1027.67 -2322 31 32 46
-180.534 -1028.44 -2324 27 28 42
-175.903 -1030.1 -2328 26 25 39
-171.404 -1032.65 -2334 26 26 40
-167.237 -1037.41 -2345 23 24 37
-162.886 -1041.28 -2354 22 23 37
-158.231 -1043.39 -2359 31 32 45
-153.555 -1045.51 -2364 56 57 67
-148.546 -1045.41 -2364 61 63 71
-143.478 -1044.88 -2363 55 57 65
-138.122 -1042.14 -2357 34 35 47
-133.244 -1042.94 -2359 24 25 37
-128.087 -1041.53 -2356 27 28 40
-123.206 -1042.33 -2358 36 37 49
-117.916 -1039.61 -2352 42 43 55
-112.797 -1038.21 -2349 45 46 58
-107.507 -1035.04 -2342 46 47 59
-102.424 -1033.65 -2339 46 47 59
-97.1869 -1030.5 -2332 48 49 61
-92.139 -1029.11 -2329 49 50 62
-87.1044 -1027.73 -2326 51 52 64
-82.1187 -1026.79 -2324 53 54 66
-77.1423 -1025.86 -2322 54 55 67
-72.2372 -1025.81 -2322 52 53 65
-67.3618 -1026.21 -2323 51 52 64
-62.4289 -1025.73 -2322 50 51 63
-57.5751 -1026.57 -2324 44 45 59
-52.6455 -1026.1 -2323 37 38 52
-234.056 -1031 -2314 50 51 63
-229.417 -1032.19 -2317 48 49 61
-224.09 -1030.27 -2313 44 45 57
-219.445 -1031.46 -2316 39 38 50
-214.604 -1031.77 -2317 35 34 47
-209.67 -1031.64 -2317 31 32 46
-204.649 -1031.06 -2316 31 32 46
-199.807 -1031.38 -2317 33 34 48
-194.879 -1031.25 -2317 34 34 48
-190.116 -1032.02 -2319 33 34 48
-185.427 -1033.24 -2322 33 34 48
-180.648 -1034.01 -2324 29 30 44
-176.165 -1036.57 -2330 25 26 40
-171.585 -1038.68 -2335 22 23 36
-167.271 -1042.58 -2344 21 22 34
-162.781 -1045.58 -2351 23 24 37
-157.995 -1046.82 -2354 25 26 40
-153.197 -1048.05 -2357 45 46 57
-148.514 -1050.18 -2362 57 59 67
-143.204 -1047.87 -2357 53 54 63
-138.092 -1046.89 -2355 31 32 45
-132.989 -1045.91 -2353 22 24 35
-128.005 -1045.83 -2353 23 25 36
-122.918 -1044.86 -2351 25 26 38
-117.84 -1043.9 -2349 29 30 42
-112.675 -1042.05 -2345 36 37 49
-107.483 -1039.76 -2340 42 43 55
-102.401 -1038.36 -2337 48 49 61
-97.2899 -1036.52 -2333 50 51 63
-92.1574 -1034.23 -2328 51 51 63
-87.0843 -1032.4 -2324 52 52 64
-82.0644 -1031.01 -2321 53 54 66
-77.2241 -1031.85 -2323 54 57 68
-72.2826 -1031.36 -2322 56 59 69
-67.4331 -1032.21 -2324 53 55 65
-62.5488 -1032.61 -2325 41 42 55
-57.7105 -1033.9 -2328 36 37 52
-52.6105 -1030.32 -2320 37 38 53
-229.96 -1039.55 -2321 48 49 57
-224.329 -1036.27 -2314 46 45 54
-219.679 -1037.47 -2317 41 42 55
-214.462 -1035.99 -2314 37 38 52
-209.803 -1037.2 -2317 32 33 48
-204.602 -1035.73 -2314 31 32 47
-199.848 -1036.49 -2316 33 33 48
-194.919 -1036.37 -2316 37 34 49
-190.155 -1037.14 -2318 33 34 48
-185.624 -1039.25 -2323 32 33 47
-180.841 -1040.03 -2325 31 32 46
-176.202 -1041.71 -2329 26 27 41
-171.621 -1043.83 -2334 21 22 36
-167.163 -1046.86 -2341 18 19 33
-162.538 -1048.99 -2346 21 22 36
-157.961 -1051.57 -2352 23 24 38
-153.099 -1052.36 -2354 33 34 47
-148.042 -1051.82 -2353 50 51 63
-143.051 -1051.73 -2353 47 48 60
-138.12 -1052.09 -2354 24 27 40
-133.017 -1051.1 -2352 19 22 32
-127.977 -1050.58 -2351 19 22 31
-122.996 -1050.5 -2351 20 21 33
-117.864 -1049.08 -2348 21 22 34
-112.747 -1047.66 -2345 27 28 40
-107.597 -1045.81 -2341 29 30 42
-102.378 -1043.06 -2335 33 34 46
-97.3097 -1041.66 -2332 40 41 53
-92.2553 -1040.26 -2329 49 48 60
-87.1769 -1038.41 -2325 51 51 63
-82.1872 -1037.47 -2323 55 57 68
-77.3062 -1037.86 -2324 50 55 66
-72.3907 -1037.81 -2324 47 50 60
-67.5048 -1038.22 -2325 45 47 57
-62.6422 -1039.07 -2327 34 35 49
-57.747 -1039.48 -2328 34 35 50
-230.107 -1045.14 -2321 47 48 55
-224.473 -1041.84 -2314 43 42 51
-219.915 -1043.5 -2318 41 42 54
-214.785 -1042.46 -2316 39 40 54
-209.847 -1042.33 -2316 38 39 54
-204.822 -1041.74 -2315 37 38 54
-200.148 -1042.96 -2318 38 39 54
-195.212 -1042.84 -2318 39 37 52
-190.359 -1043.16 -2319 35 36 50
-185.663 -1044.39 -2322 33 34 48
-181.19 -1046.97 -2328 33 34 48
-176.314 -1047.31 -2329 29 30 44
-171.583 -1048.54 -2332 23 24 38
-167.127 -1051.58 -2339 18 19 32
-162.434 -1053.28 -2343 20 21 35
-157.457 -1053.17 -2343 20 21 35
-152.546 -1053.52 -2344 24 25 39
-147.822 -1055.22 -2348 39 40 54
-142.778 -1054.68 -2347 46 47 61
-137.856 -1055.04 -2348 29 30 44
-132.819 -1054.51 -2347 23 24 36
-127.787 -1053.97 -2346 21 23 34
-122.812 -1053.89 -2346 23 24 36
-117.688 -1052.47 -2343 24 25 37
-112.482 -1050.15 -2338 25 26 38
-107.482 -1049.63 -2337 28 29 41
-102.355 -1047.77 -2333 27 28 40
-97.3717 -1047.25 -2332 30 30 42
-92.2745 -1045.4 -2328 33 32 44
-87.3075 -1044.89 -2327 36 37 49
-82.4164 -1045.29 -2328 49 50 62
-77.4886 -1045.23 -2328 44 47 58
-72.5926 -1045.63 -2329 38 41 51
-67.8093 -1047.83 -2334 36 39 49
-63.0322 -1050.49 -2340 29 30 44
-58.2057 -1052.69 -2345 37 37 50
-230.851 -1053.46 -2327 50 51 58
-225.006 -1049.23 -2318 44 43 53
-220.341 -1050.45 -2321 41 41 53
-215.294 -1049.86 -2320 41 41 54
-210.344 -1049.72 -2320 42 43 56
-205.308 -1049.13 -2319 44 45 61
-200.623 -1050.36 -2322 47 47 63
-195.506 -1049.33 -2320 44 43 57
-190.645 -1049.65 -2321 39 40 54
-185.862 -1050.44 -2323 37 38 52
-180.995 -1050.77 -2324 36 37 51
-176.352 -1052.46 -2328 32 33 47
-171.473 -1052.8 -2329 29 30 44
-166.877 -1054.95 -2334 33 34 47
-162.261 -1057.11 -2339 32 33 46
-157.356 -1057.46 -2340 27 28 42
-152.514 -1058.26 -2342 24 25 39
-147.602 -1058.62 -2343 29 30 44
-142.747 -1059.43 -2345 35 36 50
-137.651 -1058.43 -2343 33 34 48
-132.677 -1058.35 -2343 28 29 41
-127.651 -1057.81 -2342 25 26 38
-122.524 -1056.37 -2339 24 25 37
-117.512 -1055.85 -2338 25 26 38
-112.361 -1053.97 -2334 26 27 39
-107.367 -1053.44 -2333 28 29 41
-102.333 -1052.47 -2331 29 30 42
-97.3505 -1051.96 -2330 30 31 43
-92.294 -1050.54 -2327 31 32 44
-87.4011 -1050.94 -2328 32 33 45
-82.5401 -1051.78 -2330 37 38 50
-77.6715 -1052.64 -2332 38 41 52
-72.8262 -1053.94 -2335 34 37 48
-68.027 -1056.15 -2340 30 33 44
-63.2343 -1058.82 -2346 30 31 45
-58.2429 -1058.33 -2345 42 42 54
-231.894 -1063.18 -2336 56 58 64
-225.929 -1058.48 -2326 43 42 51
-220.864 -1057.88 -2325 39 38 49
-215.619 -1056.37 -2322 39 39 50
-210.753 -1056.69 -2323 39 40 52
-205.972 -1057.46 -2325 41 42 57
-201.099 -1057.78 -2326 45 45 61
-196.138 -1057.65 -2326 45 44 58
-191.097 -1057.07 -2325 41 42 56
-186.143 -1056.95 -2325 40 41 55
-181.034 -1055.92 -2323 37 38 52
-176.314 -1057.17 -2326 33 34 48
-171.731 -1059.33 -2331 30 31 45
-167.056 -1061.04 -2335 31 32 47
-162.227 -1061.84 -2337 32 33 47
-157.323 -1062.19 -2338 28 29 43
-152.613 -1063.91 -2342 25 26 40
-147.382 -1061.99 -2338 25 26 39
-142.535 -1062.81 -2340 27 28 42
-137.622 -1063.17 -2341 34 35 49
-132.48 -1061.72 -2338 32 34 46
-127.46 -1061.18 -2337 30 31 43
-122.394 -1060.2 -2335 27 28 40
-117.286 -1058.76 -2332 28 29 41
-112.145 -1056.87 -2328 25 26 38
-107.113 -1055.89 -2326 31 32 44
-102.091 -1054.91 -2324 31 32 44
-97.2043 -1055.3 -2325 29 30 42
-92.1947 -1054.33 -2323 31 32 44
-87.4574 -1056.54 -2328 32 33 45
-82.6288 -1057.85 -2331 33 34 46
-77.8549 -1060.07 -2336 36 39 50
-72.9979 -1061.38 -2339 33 36 47
-68.2455 -1064.51 -2346 30 33 44
-63.4909 -1068.1 -2354 35 36 49
-58.529 -1068.51 -2355 48 47 58
-221.673 -1066.71 -2332 41 40 50
-216.132 -1063.82 -2326 39 39 49
-211.253 -1064.14 -2327 39 40 52
-206.55 -1065.37 -2330 39 40 55
-201.576 -1065.24 -2330 43 44 60
-196.435 -1064.2 -2328 44 43 57
-191.222 -1062.7 -2325 41 41 55
-186.344 -1063.03 -2326 38 39 53
-181.152 -1061.54 -2323 36 37 51
-176.353 -1062.34 -2325 30 33 46
-171.695 -1064.05 -2329 27 30 43
-166.95 -1065.31 -2332 28 29 45
-162.402 -1067.95 -2338 27 28 42
-157.56 -1068.75 -2340 25 26 40
-152.712 -1069.57 -2342 28 29 43
-147.541 -1068.1 -2339 33 34 47
-142.811 -1069.83 -2343 38 39 51
-137.535 -1067.46 -2338 34 37 50
-132.452 -1066.46 -2336 30 33 45
-127.27 -1064.55 -2332 30 33 44
-122.368 -1064.92 -2333 36 37 50
-117.212 -1063.02 -2329 37 38 50
-112.121 -1061.57 -2326 29 30 42
-107.229 -1061.96 -2327 30 31 43
-102.246 -1061.43 -2326 32 34 45
-97.3928 -1062.28 -2328 35 37 48
-92.3736 -1061.31 -2326 34 35 47
-87.5516 -1062.62 -2329 32 33 45
-82.7532 -1064.39 -2333 31 32 44
-77.9052 -1065.7 -2336 32 35 46
-73.0453 -1067.02 -2339 31 34 45
-68.2897 -1070.17 -2346 34 36 47
-63.586 -1074.69 -2356 47 48 60
-58.6912 -1076.47 -2360 56 55 65
-221.818 -1072.36 -2332 39 38 48
-216.738 -1071.76 -2331 37 36 46
-211.937 -1072.54 -2333 36 36 48
-207.04 -1072.86 -2334 35 36 51
-201.967 -1072.27 -2333 37 38 54
-196.817 -1071.22 -2331 37 36 50
-191.429 -1068.79 -2326 33 34 48
-186.306 -1067.75 -2324 31 32 46
-181.27 -1067.17 -2323 30 31 45
-176.468 -1067.97 -2325 28 31 43
-171.733 -1069.23 -2328 27 30 41
-166.987 -1070.5 -2331 29 30 46
-162.577 -1074.07 -2339 29 30 45
-157.529 -1073.5 -2338 32 33 47
-152.681 -1074.32 -2340 36 37 51
-147.574 -1073.3 -2338 34 35 49
-142.843 -1075.04 -2342 33 34 48
-137.448 -1071.74 -2335 35 38 51
-132.369 -1070.73 -2333 35 38 50
-127.244 -1069.27 -2330 39 42 53
-122.028 -1066.89 -2325 42 43 57
-117.036 -1066.36 -2324 42 43 56
-112.001 -1065.36 -2322 39 40 52
-107.207 -1066.67 -2325 37 38 50
-102.18 -1065.68 -2323 37 39 51
-97.4145 -1067.45 -2327 37 40 51
-92.4736 -1067.39 -2327 37 39 50
-87.6839 -1069.17 -2331 34 35 47
-82.8071 -1070.03 -2333 31 32 44
-77.956 -1071.35 -2336 32 34 45
-73.0303 -1071.76 -2337 32 35 47
-68.305 -1075.38 -2345 38 41 53
-63.5734 -1079.47 -2354 49 50 62
-58.7792 -1083.1 -2362 59 59 67
-222.536 -1080.8 -2338 36 35 46
-217.346 -1079.73 -2336 32 31 42
-212.531 -1080.52 -2338 31 30 42
-207.442 -1079.92 -2337 32 32 46
-202.1 -1077.93 -2333 35 36 51
-197.115 -1077.8 -2333 37 37 51
-191.885 -1076.29 -2330 35 36 50
-186.669 -1074.78 -2327 32 33 47
-181.546 -1073.73 -2325 31 32 45
-176.66 -1074.07 -2326 32 34 46
-171.846 -1074.88 -2328 33 36 47
-166.954 -1075.23 -2329 31 33 47
-162.406 -1077.89 -2335 34 35 49
-157.565 -1078.71 -2337 35 36 50
-152.912 -1080.92 -2342 34 35 49
-147.608 -1078.51 -2337 32 33 47
-142.815 -1079.8 -2340 33 34 48
-137.48 -1076.94 -2334 34 35 49
-132.399 -1075.93 -2332 38 39 52
-127.109 -1073.07 -2326 41 42 56
-122.056 -1072.07 -2324 43 44 58
-117.063 -1071.53 -2323 42 43 55
-112.027 -1070.53 -2321 41 42 54
-107.185 -1071.38 -2323 40 41 53
-102.379 -1072.7 -2326 38 40 51
-97.5202 -1073.55 -2328 36 39 50
-92.5342 -1073.03 -2327 36 39 50
-87.7039 -1074.35 -2330 33 35 46
-82.8615 -1075.68 -2333 30 31 43
-78.0071 -1077.01 -2336 31 32 44
-73.1407 -1078.34 -2339 32 34 47
-68.3497 -1081.06 -2345 36 39 52
-63.588 -1084.71 -2353 40 41 53
-58.9671 -1091.58 -2368 55 56 62
-218.514 -1090.53 -2347 36 35 47
-213.581 -1090.85 -2348 41 40 51
-207.846 -1087 -2340 41 41 54
-202.581 -1085.47 -2337 38 39 53
-197.415 -1084.41 -2335 38 39 53
-192.177 -1082.88 -2332 38 39 53
-186.953 -1081.36 -2329 37 38 52
-181.9 -1080.78 -2328 38 39 51
-176.777 -1079.73 -2326 38 40 52
-171.96 -1080.54 -2328 37 40 51
-166.992 -1080.43 -2328 32 35 49
-162.374 -1082.64 -2333 33 34 48
-157.466 -1083 -2334 34 35 49
-152.686 -1084.29 -2337 32 33 47
-147.453 -1082.33 -2333 28 29 43
-142.604 -1083.17 -2335 29 30 44
-137.453 -1081.68 -2332 37 38 52
-132.373 -1080.66 -2330 41 42 56
-127.083 -1077.8 -2324 40 41 55
-122.084 -1077.25 -2323 39 40 54
-116.989 -1075.78 -2320 39 40 52
-112.052 -1075.7 -2320 39 40 52
-107.209 -1076.56 -2322 37 38 50
-102.315 -1076.95 -2323 34 36 47
-97.5427 -1078.74 -2327 33 36 47
-92.6351 -1079.14 -2328 31 34 45
-87.7993 -1080.47 -2331 25 27 39
-82.9873 -1082.27 -2335 21 22 34
-78.1254 -1083.61 -2338 24 25 37
-73.2516 -1084.95 -2341 32 35 47
-68.4532 -1087.68 -2347 40 43 55
-63.765 -1092.73 -2358 45 46 58
-59.1804 -1100.57 -2375 59 59 64
-214.725 -1101.72 -2359 40 39 49
-207.985 -1092.7 -2340 38 38 50
-202.369 -1089.3 -2333 40 41 55
-197.377 -1089.16 -2333 39 40 54
-192.14 -1087.63 -2330 40 41 55
-186.997 -1086.57 -2328 39 40 54
-181.943 -1085.98 -2327 39 40 52
-176.895 -1085.4 -2326 37 39 51
-171.853 -1084.81 -2325 34 37 48
-167.032 -1085.63 -2327 29 31 48
-162.204 -1086.46 -2329 29 30 45
-157.436 -1087.75 -2332 32 33 47
-152.722 -1089.51 -2336 33 34 48
-147.614 -1088.48 -2334 29 30 44
-142.698 -1088.85 -2335 31 32 46
-137.426 -1086.42 -2330 37 38 51
-132.29 -1084.94 -2327 37 38 51
-127.223 -1083.92 -2325 35 36 49
-122.06 -1081.97 -2321 35 36 50
-117.167 -1082.36 -2322 35 36 49
-112.175 -1081.81 -2321 34 35 47
-107.281 -1082.21 -2322 40 41 53
-102.471 -1083.54 -2325 38 40 51
-97.5235 -1083.47 -2325 35 38 49
-92.6566 -1084.34 -2327 31 34 45
-87.7822 -1085.21 -2329 30 31 43
-82.9355 -1086.55 -2332 29 30 42
-78.1103 -1088.36 -2336 33 34 46
-73.3001 -1090.64 -2341 38 40 53
-68.4693 -1092.92 -2346 40 43 56
-63.8615 -1099.4 -2360 51 52 64
-215.142 -1108.89 -2362 51 50 58
-208.48 -1100.3 -2344 35 35 48
-202.678 -1095.94 -2335 30 31 47
-197.594 -1095.33 -2334 32 33 47
-192.351 -1093.79 -2331 37 38 52
-187.203 -1092.73 -2329 41 42 56
-181.908 -1090.73 -2325 41 42 54
-177.013 -1091.08 -2326 40 42 54
-171.894 -1090.02 -2324 37 40 51
-167 -1090.38 -2325 32 34 52
-162.312 -1092.14 -2329 26 28 44
-157.474 -1092.97 -2331 28 29 45
-152.563 -1093.34 -2332 35 34 48
-147.586 -1093.24 -2332 32 33 47
-142.549 -1092.67 -2331 34 35 49
-137.341 -1090.7 -2327 36 39 50
-132.435 -1091.08 -2328 34 37 48
-127.143 -1088.18 -2322 33 36 47
-122.141 -1087.63 -2321 33 34 49
-116.993 -1085.67 -2317 33 34 47
-112.008 -1085.13 -2316 33 34 47
-107.167 -1085.99 -2318 32 33 44
-102.275 -1086.39 -2319 34 36 47
-97.4626 -1087.73 -2322 34 37 49
-92.5989 -1088.6 -2324 34 36 50
-87.7276 -1089.48 -2326 37 39 52
-82.8485 -1090.36 -2328 37 39 52
-78.062 -1092.65 -2333 39 40 53
-73.255 -1094.94 -2338 37 39 53
-68.515 -1098.64 -2346 36 38 52
-63.9582 -1106.09 -2362 55 56 64
-213.92 -1107.6 -2347 65 65 68
-207.819 -1101.79 -2335 47 47 55
-202.293 -1098.82 -2329 37 36 49
-197.304 -1098.69 -2329 38 39 51
-192.15 -1097.61 -2327 38 38 52
-187.007 -1096.54 -2325 42 41 57
-181.874 -1095.47 -2323 45 46 63
-176.904 -1095.35 -2323 47 47 64
-171.861 -1094.76 -2322 45 45 60
-167.112 -1096.06 -2325 35 40 50
-162.282 -1096.89 -2327 30 32 43
-157.512 -1098.2 -2330 29 30 41
-152.731 -1099.51 -2333 35 37 51
-147.812 -1099.88 -2334 33 37 52
-142.767 -1099.31 -2333 29 35 49
-137.61 -1097.8 -2330 36 39 48
-132.581 -1097.24 -2329 35 38 49
-127.229 -1093.85 -2322 35 38 49
-122.118 -1092.36 -2319 36 37 53
-117.072 -1091.34 -2317 35 37 52
-112.035 -1090.32 -2315 35 38 52
-107.054 -1089.77 -2314 37 38 48
-102.167 -1090.17 -2315 37 40 52
-97.3182 -1091.05 -2317 39 42 55
-92.4618 -1091.92 -2319 39 41 58
-87.711 -1094.22 -2324 39 43 58
-82.8685 -1095.57 -2327 38 43 57
-78.1479 -1098.81 -2334 38 40 56
-73.3668 -1101.59 -2340 37 39 55
-68.6779 -1106.25 -2350 39 41 57
-64.2449 -1116.09 -2371 59 59 63
-214.247 -1114.3 -2349 69 69 69
-207.693 -1106.1 -2332 60 59 64
-202.257 -1103.59 -2327 45 44 53
-197.098 -1102.5 -2325 38 40 50
-191.867 -1100.95 -2322 38 39 51
-186.812 -1100.34 -2321 38 38 52
-181.762 -1099.75 -2320 41 43 58
-176.948 -1100.57 -2322 47 49 62
-171.83 -1099.51 -2320 46 47 59
-167.225 -1101.76 -2325 44 48 58
-162.322 -1102.12 -2326 42 44 55
-157.754 -1104.86 -2332 38 38 49
-152.965 -1106.17 -2335 34 35 50
-147.912 -1105.6 -2334 28 31 47
-142.68 -1103.6 -2330 27 31 47
-137.585 -1102.56 -2328 38 38 49
-132.614 -1102.47 -2328 38 38 50
-127.315 -1099.54 -2322 35 37 48
-122.2 -1098.03 -2319 39 40 56
-117.05 -1096.06 -2315 39 42 58
-111.965 -1094.56 -2312 36 41 57
-107.126 -1095.43 -2314 38 39 51
-102.236 -1095.84 -2315 36 40 51
-97.3839 -1096.72 -2317 38 43 54
-92.5641 -1098.07 -2320 40 43 54
-87.7702 -1099.9 -2324 41 44 54
-82.9245 -1101.27 -2327 40 43 52
-78.2007 -1104.52 -2334 40 42 58
-73.4476 -1107.79 -2341 43 45 59
-68.7241 -1112 -2350 52 55 67
-213.846 -1117.22 -2343 67 67 66
-207.3 -1108.97 -2326 61 62 65
-201.873 -1106.45 -2321 43 44 52
-196.639 -1104.88 -2318 43 44 57
-191.832 -1105.7 -2320 43 44 57
-186.697 -1104.62 -2318 44 45 58
-181.729 -1104.49 -2318 43 47 58
-176.839 -1104.85 -2319 46 49 59
-172.021 -1105.68 -2321 49 51 60
-167.123 -1106.04 -2322 47 49 60
-162.432 -1107.83 -2326 46 47 58
-157.726 -1109.63 -2330 41 40 51
-153.004 -1111.43 -2334 35 35 49
-148.139 -1112.28 -2336 30 31 46
-143.022 -1111.23 -2334 30 31 47
-137.797 -1109.23 -2330 37 34 48
-132.761 -1108.66 -2329 38 36 48
-127.237 -1103.81 -2319 38 36 47
-122.231 -1103.25 -2318 44 42 52
-117.079 -1101.26 -2314 45 44 54
-112.041 -1100.23 -2312 41 40 50
-107.06 -1099.68 -2311 39 37 49
-102.173 -1100.09 -2312 43 42 53
-97.2817 -1100.49 -2313 46 47 57
-92.4272 -1101.38 -2315 46 44 53
-87.6029 -1102.75 -2318 45 44 53
-82.6954 -1103.16 -2319 45 45 53
-78.019 -1106.92 -2327 45 47 63
-73.3405 -1111.15 -2336 50 52 64
-68.8585 -1119.18 -2353 58 61 71
-214.358 -1124.91 -2347 67 68 65
-207.71 -1116.14 -2329 64 65 67
-202.359 -1114.08 -2325 46 48 55
-197.113 -1112.5 -2322 47 48 66
-192.047 -1111.89 -2321 47 47 64
-186.987 -1111.28 -2320 47 46 62
-182.011 -1111.15 -2320 43 46 56
-176.96 -1110.55 -2319 44 46 56
-172.139 -1111.39 -2321 46 48 56
-167.31 -1112.23 -2323 49 49 62
-162.544 -1113.55 -2326 47 47 58
-157.834 -1115.36 -2330 43 41 52
-153.109 -1117.17 -2334 40 39 51
-148.304 -1118.5 -2337 36 36 48
-143.059 -1116.49 -2333 33 34 47
-137.832 -1114.48 -2329 39 35 49
-132.681 -1112.95 -2326 39 37 48
-127.379 -1109.99 -2320 42 41 50
-122.156 -1107.51 -2315 45 45 53
-117.057 -1105.99 -2312 43 43 51
-112.021 -1104.96 -2310 41 43 50
-106.948 -1103.45 -2307 46 45 57
-102.154 -1104.81 -2310 48 49 60
-97.2219 -1104.74 -2310 48 51 61
-92.2906 -1104.68 -2310 42 44 55
-87.5494 -1107.01 -2315 42 45 56
-82.6804 -1107.91 -2317 46 49 61
-77.938 -1110.72 -2323 49 50 63
-73.3905 -1116.88 -2336 55 57 66
-69.0813 -1127.83 -2359 61 63 70
-213.592 -1125.88 -2337 67 70 65
-207.139 -1118.03 -2321 67 69 69
-201.889 -1116.44 -2318 48 50 57
-196.739 -1115.34 -2316 47 49 65
-191.765 -1115.21 -2316 48 50 65
-186.793 -1115.08 -2316 47 48 62
-181.822 -1114.95 -2316 48 51 60
-176.853 -1114.83 -2316 52 55 62
-172.034 -1115.67 -2318 52 54 60
-167.064 -1115.55 -2318 48 47 61
-162.376 -1117.36 -2322 48 45 58
-157.671 -1119.18 -2326 43 39 52
-153.017 -1121.48 -2331 38 37 48
-148.342 -1123.78 -2336 35 35 46
-143.218 -1122.72 -2334 36 36 46
-137.986 -1120.69 -2330 41 39 51
-132.829 -1119.16 -2327 39 39 49
-127.411 -1115.22 -2319 42 44 52
-122.187 -1112.73 -2314 44 46 55
-117.087 -1111.21 -2311 43 46 55
-112.049 -1110.17 -2309 46 51 59
-107.114 -1110.09 -2309 48 50 59
-102.268 -1110.98 -2311 47 50 59
-97.2465 -1109.95 -2309 41 45 54
-92.314 -1109.88 -2309 33 37 48
-87.5716 -1112.23 -2314 35 40 52
-82.7014 -1113.13 -2316 44 49 61
-77.958 -1115.96 -2322 49 49 60
-73.5667 -1124.55 -2340 57 58 65
-214.38 -1135.06 -2344 67 68 63
-207.104 -1122.8 -2319 67 66 63
-201.506 -1119.27 -2312 58 55 54
-196.62 -1119.62 -2313 54 55 66
-191.649 -1119.48 -2313 53 53 64
-186.68 -1119.35 -2313 54 54 65
-181.712 -1119.22 -2313 54 55 67
-176.976 -1120.55 -2316 57 58 68
-172.079 -1120.91 -2317 55 55 64
-167.18 -1121.28 -2318 49 44 54
-162.488 -1123.1 -2322 51 46 55
-157.78 -1124.92 -2326 52 47 55
-153.057 -1126.75 -2330 43 42 51
-148.509 -1130.03 -2337 37 36 44
-143.317 -1128.48 -2334 41 40 48
-138.141 -1126.93 -2331 38 41 52
-132.864 -1124.42 -2326 41 44 55
-127.609 -1121.91 -2321 43 46 57
-122.324 -1118.93 -2315 42 43 53
-117.219 -1117.39 -2312 44 44 53
-112.078 -1115.38 -2308 47 46 54
-107.188 -1115.79 -2309 49 51 58
-102.295 -1116.2 -2310 47 49 57
-97.3136 -1115.65 -2309 45 48 56
-92.3777 -1115.58 -2309 41 43 53
-87.5941 -1117.45 -2313 40 44 53
-82.7943 -1119.32 -2317 46 50 59
-77.9445 -1120.72 -2320 53 52 59
-73.586 -1129.84 -2339 62 62 67
-213.523 -1135.51 -2333 69 67 63
-206.891 -1126.6 -2315 86 81 74
-201.385 -1123.54 -2309 100 90 78
-196.672 -1124.86 -2312 90 80 66
-191.7 -1124.73 -2312 79 68 54
-186.81 -1125.08 -2313 77 64 51
-181.839 -1124.95 -2313 72 63 53
-177.023 -1125.8 -2315 74 63 53
-171.976 -1125.19 -2314 75 62 53
-167.152 -1126.05 -2316 68 60 50
-162.531 -1128.36 -2321 63 55 44
-157.687 -1129.22 -2323 68 60 49
-152.966 -1131.06 -2327 71 66 59
-148.612 -1135.81 -2337 59 53 49
-143.602 -1135.71 -2337 57 50 48
-138.177 -1132.21 -2330 45 47 55
-133.185 -1132.12 -2330 39 41 50
-127.808 -1128.62 -2323 43 44 54
-122.357 -1124.16 -2314 42 42 55
-117.249 -1122.62 -2311 44 41 55
-112.108 -1120.6 -2307 55 51 65
-107.077 -1119.55 -2305 49 50 64
-102.056 -1118.51 -2303 50 52 65
-97.1703 -1118.93 -2304 47 49 62
-92.1216 -1117.4 -2301 50 51 65
-87.276 -1118.31 -2303 51 53 64
-82.4942 -1120.19 -2307 49 52 60
-77.8305 -1124.02 -2315 59 59 63
-73.3852 -1131.74 -2331 62 63 67
-218.514 -1140.48 -2331 66 67 71
-213.123 -1138.37 -2327 82 76 71
-206.947 -1131.86 -2314 151 141 131
-201.526 -1129.28 -2309 198 181 158
-196.81 -1130.6 -2312 212 188 154
-191.751 -1129.98 -2311 204 179 145
-186.698 -1129.36 -2310 208 181 148
-181.966 -1130.69 -2313 199 176 147
-177.07 -1131.06 -2314 192 168 139
-172.022 -1130.44 -2313 190 163 136
-167.269 -1131.79 -2316 160 145 114
-162.645 -1134.12 -2321 149 134 104
-157.729 -1134.49 -2322 154 138 110
-153.073 -1136.83 -2327 149 136 116
-148.652 -1141.12 -2336 104 90 72
-143.641 -1141.02 -2336 74 59 45
-138.393 -1138.96 -2332 57 49 46
-133.278 -1137.89 -2330 53 46 45
-127.897 -1134.38 -2323 50 46 45
-122.548 -1130.88 -2316 53 52 59
-117.331 -1128.35 -2311 55 56 66
-112.089 -1125.34 -2305 54 58 71
-107.059 -1124.29 -2303 56 55 66
-101.994 -1122.75 -2300 54 54 64
-97.1116 -1123.17 -2301 54 56 64
-92.0657 -1121.64 -2298 59 58 66
-87.299 -1123.53 -2302 58 59 65
-82.6591 -1127.37 -2310 61 63 69
-77.952 -1130.73 -2317 61 61 62
-73.2788 -1135.07 -2326 68 68 70
-222.835 -1142.01 -2322 71 72 75
-216.323 -1133.99 -2306 75 74 78
-211.624 -1135.31 -2309 124 116 103
-205.84 -1130.74 -2300 192 179 161
-200.446 -1128.14 -2295 218 195 166
-195.756 -1129.47 -2298 231 198 161
-191.056 -1130.81 -2301 235 201 162
-186.102 -1130.68 -2301 241 205 166
-181.386 -1132.02 -2304 239 207 167
-176.735 -1133.86 -2308 242 209 169
-171.846 -1134.23 -2309 235 200 160
-166.953 -1134.6 -2310 212 187 146
-162.339 -1136.94 -2315 202 177 138
-157.636 -1138.79 -2319 195 170 134
-152.918 -1140.65 -2323 173 151 125
-148.439 -1144.47 -2331 118 95 72
-143.68 -1146.33 -2335 87 64 46
-138.371 -1143.78 -2330 110 90 77
-133.2 -1142.21 -2327 134 117 103
-127.987 -1140.15 -2323 112 97 81
-122.634 -1136.63 -2316 97 82 67
-117.363 -1133.6 -2310 95 80 64
-112.07 -1130.08 -2303 94 79 61
-106.994 -1128.53 -2300 94 77 61
-101.977 -1127.48 -2298 94 79 60
-97.2221 -1129.37 -2302 95 82 61
-92.2105 -1128.32 -2300 103 86 66
-87.4362 -1130.22 -2304 106 90 70
-82.6814 -1132.61 -2309 105 90 70
-77.8721 -1134.52 -2313 83 82 77
-72.952 -1134.96 -2314 71 71 71
-221.648 -1140.89 -2308 72 73 76
-215.632 -1135.29 -2297 85 81 82
-211.132 -1137.61 -2302 167 156 137
-205.538 -1134.01 -2295 204 188 164
-200.238 -1131.89 -2291 227 199 170
-195.384 -1132.24 -2292 232 199 169
-190.776 -1134.08 -2296 235 201 170
-185.829 -1133.94 -2296 241 206 170
-181.278 -1136.28 -2301 240 208 166
-176.477 -1137.14 -2303 239 206 164
-171.669 -1138.01 -2305 238 204 161
-166.854 -1138.87 -2307 227 194 155
-162.173 -1140.73 -2311 217 184 146
-157.34 -1141.61 -2313 206 175 140
-152.894 -1145.44 -2321 185 157 133
-148.48 -1149.78 -2330 130 102 80
-143.72 -1151.65 -2334 91 63 46
-138.35 -1148.59 -2328 132 104 84
-133.237 -1147.51 -2326 181 154 131
-127.967 -1144.95 -2321 191 165 138
-122.456 -1139.93 -2311 204 175 141
-117.192 -1136.88 -2305 213 183 147
-111.955 -1133.84 -2299 223 191 152
-106.837 -1131.79 -2295 223 192 158
-101.827 -1130.73 -2293 227 198 163
-97.0793 -1132.63 -2297 228 199 165
-92.1553 -1132.56 -2297 230 201 167
-87.3839 -1134.47 -2301 229 200 168
-82.5964 -1136.39 -2305 220 191 161
-77.7924 -1138.3 -2309 148 140 127
-72.8142 -1137.75 -2308 89 83 78
-68.2527 -1144.11 -2321 77 73 73
-230.683 -1141.52 -2297 68 70 65
-225.912 -1142.35 -2299 69 72 72
-220.845 -1141.69 -2298 71 74 74
-215.41 -1139.05 -2293 110 102 94
-210.64 -1139.89 -2295 193 170 148
-205.416 -1138.25 -2292 225 198 172
-200.206 -1136.62 -2289 238 203 176
-195.182 -1135.98 -2288 239 204 171
-190.663 -1138.32 -2293 240 204 170
-185.881 -1139.18 -2295 245 207 170
-181.171 -1140.54 -2298 243 207 167
-176.219 -1140.41 -2298 241 204 165
-171.717 -1143.27 -2304 240 201 164
-166.756 -1143.15 -2304 237 196 157
-162.078 -1145.01 -2308 232 192 155
-157.451 -1147.38 -2313 220 185 151
-152.937 -1150.74 -2320 191 164 138
-148.33 -1153.61 -2326 136 112 88
-143.391 -1154 -2327 87 67 46
-137.854 -1149.44 -2318 157 120 93
-132.758 -1148.35 -2316 200 165 138
-127.451 -1145.28 -2310 213 179 153
-122.066 -1141.23 -2302 220 187 155
-117.021 -1140.15 -2300 229 196 161
-111.937 -1138.58 -2297 237 203 164
-106.82 -1136.52 -2293 240 205 167
-101.766 -1134.96 -2290 243 208 173
-96.9791 -1136.38 -2293 243 208 174
-92.02 -1135.81 -2292 243 208 172
-87.104 -1135.75 -2292 241 207 173
-82.2963 -1137.17 -2295 237 204 172
-77.6115 -1140.59 -2302 201 184 163
-72.6765 -1140.53 -2302 123 111 98
-68.0068 -1144.94 -2311 83 75 68
-230.749 -1146.78 -2296 68 70 69
-225.877 -1147.11 -2297 69 71 70
-220.331 -1143.95 -2291 82 82 81
-214.812 -1140.8 -2285 158 145 130
-210.148 -1142.15 -2288 214 189 166
-204.935 -1140.5 -2285 228 199 173
-199.649 -1138.36 -2281 246 210 183
-194.809 -1138.71 -2282 244 208 175
-190.383 -1141.57 -2288 244 208 174
-185.447 -1141.43 -2288 251 212 175
-180.906 -1143.8 -2293 247 210 171
-176.192 -1145.17 -2296 243 207 167
-171.765 -1148.53 -2303 243 204 165
-166.731 -1147.91 -2302 238 201 165
-162.123 -1150.29 -2307 233 196 161
-157.428 -1152.17 -2311 222 186 150
-152.915 -1155.54 -2318 193 162 135
-148.245 -1157.93 -2323 140 110 85
-143.309 -1158.32 -2324 105 76 57
-138.072 -1156.23 -2320 179 143 117
-132.738 -1153.14 -2314 211 175 149
-127.432 -1150.06 -2308 221 185 161
-122.047 -1145.98 -2300 225 192 160
-117.104 -1145.9 -2300 229 197 162
-111.968 -1143.82 -2296 231 199 160
-106.943 -1142.75 -2294 239 204 168
-101.972 -1142.17 -2293 245 210 175
-97.0485 -1142.1 -2293 245 210 178
-92.0857 -1141.54 -2292 246 211 175
-87.1662 -1141.47 -2292 244 210 176
-82.3192 -1142.41 -2294 240 207 175
-77.4982 -1143.85 -2297 223 196 173
-72.6967 -1145.78 -2301 162 142 124
-67.7903 -1146.23 -2302 92 78 64
-241.707 -1156.9 -2304 68 67 68
-235.171 -1149.2 -2289 70 69 71
-230.613 -1151.04 -2293 71 71 73
-225.647 -1150.87 -2293 74 72 69
-219.72 -1145.69 -2283 114 111 105
-214.591 -1144.53 -2281 204 184 164
-209.656 -1144.38 -2281 223 195 171
-204.365 -1142.22 -2277 228 197 172
-199.093 -1140.07 -2273 244 210 182
-194.523 -1141.93 -2277 242 206 175
-189.771 -1142.8 -2279 244 207 174
-184.931 -1143.16 -2280 251 212 176
-180.247 -1144.54 -2283 247 211 171
-175.474 -1145.41 -2285 244 208 168
-171.143 -1149.29 -2293 243 204 167
-166.343 -1150.17 -2295 240 203 171
-161.537 -1151.06 -2297 233 198 165
-157.064 -1154.45 -2304 225 189 154
-152.761 -1159.35 -2314 188 154 128
-148.032 -1161.25 -2318 126 92 69
-142.918 -1160.14 -2316 118 84 68
-137.754 -1158.53 -2313 190 156 131
-132.432 -1155.43 -2307 220 186 161
-127.192 -1152.83 -2302 228 194 170
-121.816 -1148.74 -2294 231 198 167
-116.985 -1149.65 -2296 232 200 166
-111.999 -1149.07 -2295 235 203 164
-107.066 -1148.99 -2295 239 204 168
-102.001 -1147.41 -2292 247 212 178
-96.991 -1146.34 -2290 248 213 181
-92.0312 -1145.77 -2289 249 214 178
-87.0765 -1145.21 -2288 248 213 179
-82.1988 -1145.65 -2289 244 209 177
-77.3513 -1146.59 -2291 235 198 172
-72.654 -1150.04 -2298 186 159 135
-67.6915 -1149.49 -2297 96 78 56
-63.0892 -1155.45 -2309 74 70 67
-240.308 -1155.13 -2289 70 71 72
-234.725 -1151.93 -2283 68 68 69
-230.68 -1156.31 -2292 69 64 63
-225.811 -1156.64 -2293 104 94 85
-219.879 -1151.44 -2283 183 171 157
-214.841 -1150.77 -2282 220 194 168
-209.716 -1149.61 -2280 223 193 167
-204.423 -1147.44 -2276 229 196 170
-199.237 -1145.79 -2273 239 206 179
-194.578 -1147.15 -2276 242 206 175
-189.658 -1147.01 -2276 244 208 175
-184.741 -1146.88 -2276 250 211 176
-179.903 -1147.25 -2277 247 210 172
-175.14 -1148.13 -2279 244 208 169
-170.669 -1151.03 -2285 243 206 169
-165.956 -1152.41 -2288 239 202 170
-161.443 -1155.32 -2294 237 201 170
-157.041 -1159.23 -2302 225 189 156
-152.739 -1164.15 -2312 167 132 111
-148.139 -1167.07 -2318 102 69 51
-142.898 -1164.95 -2314 110 79 66
-137.675 -1162.83 -2310 182 151 130
-132.298 -1159.21 -2303 221 190 167
-126.952 -1155.59 -2296 230 197 172
-121.691 -1152.48 -2290 231 198 168
-116.916 -1153.91 -2293 232 200 167
-111.836 -1152.31 -2290 233 201 162
-106.957 -1152.74 -2291 243 207 170
-101.985 -1152.16 -2290 250 214 179
-96.8916 -1150.07 -2286 251 216 184
-91.8965 -1149 -2284 249 214 180
-87.0633 -1149.94 -2286 249 214 182
-82.1144 -1149.38 -2285 247 212 182
-77.1707 -1148.82 -2284 240 203 174
-72.4849 -1152.28 -2291 206 176 151
-67.5045 -1151.23 -2289 119 95 73
-62.7793 -1154.7 -2296 75 71 68
-248.898 -1154.17 -2275 74 70 75
-244.276 -1155.51 -2278 69 71 72
-239.118 -1154.32 -2276 70 72 70
-234.588 -1156.17 -2280 73 75 70
-230.345 -1159.55 -2287 110 98 85
-225.483 -1159.89 -2288 182 163 145
-219.751 -1155.67 -2280 227 203 181
-214.621 -1154.5 -2278 229 197 169
-209.317 -1152.32 -2274 224 191 164
-203.763 -1148.62 -2267 235 202 175
-198.593 -1146.95 -2264 240 207 180
-194.121 -1149.34 -2269 241 207 176
-189.13 -1148.7 -2268 247 212 179
-184.469 -1150.08 -2271 252 213 178
-179.718 -1150.96 -2273 246 210 173
-175.268 -1153.87 -2279 243 207 170
-170.793 -1156.78 -2285 241 205 169
-166.295 -1159.69 -2291 241 204 170
-161.842 -1163.12 -2298 239 203 170
-157.565 -1168.06 -2308 211 178 148
-153.247 -1173.01 -2318 123 96 79
-148.247 -1172.9 -2318 69 43 30
-142.631 -1167.73 -2308 83 57 51
-137.238 -1164.09 -2301 160 134 118
-131.819 -1159.94 -2293 218 190 172
-126.713 -1158.33 -2290 233 200 175
-121.461 -1155.21 -2284 235 202 172
-116.848 -1158.16 -2290 231 198 166
-111.82 -1157.06 -2288 232 200 162
-106.941 -1157.49 -2289 246 210 173
-101.926 -1156.4 -2287 253 217 182
-96.877 -1154.81 -2284 250 215 183
-91.8022 -1152.72 -2280 248 213 179
-86.8977 -1152.65 -2280 248 213 181
-81.9222 -1151.58 -2278 249 214 184
-76.9899 -1151.02 -2277 243 206 180
-72.1893 -1152.48 -2280 221 190 164
-67.2287 -1151.42 -2278 135 108 82
-62.5238 -1154.91 -2285 79 76 68
-57.8397 -1159.41 -2294 74 72 67
-258.756 -1159.28 -2273 76 72 75
-252.691 -1153.99 -2263 77 73 77
-248.424 -1156.87 -2269 72 69 72
-243.704 -1157.7 -2271 70 71 64
-238.978 -1158.55 -2273 73 72 62
-234.245 -1159.39 -2275 119 114 99
-230.111 -1163.3 -2283 209 187 163
-225.056 -1162.62 -2282 237 209 183
-219.526 -1159.4 -2276 233 200 172
-214.307 -1157.71 -2273 230 199 168
-209.01 -1155.52 -2269 232 200 171
-203.553 -1152.31 -2263 244 211 183
-198.563 -1151.65 -2262 245 212 185
-193.836 -1152.53 -2264 243 209 179
-188.934 -1152.39 -2264 248 213 181
-184.279 -1153.78 -2267 252 213 178
-179.612 -1155.17 -2270 246 209 174
-175.012 -1157.08 -2274 244 209 173
-170.47 -1159.49 -2279 244 208 172
-166.126 -1163.44 -2287 242 206 169
-161.396 -1164.85 -2290 235 200 164
-156.724 -1166.76 -2294 166 139 113
-152.366 -1171.23 -2303 68 50 40
-147.523 -1172.13 -2305 45 28 22
-142.117 -1168.47 -2298 60 41 39
-137.398 -1170.4 -2302 124 103 92
-132.203 -1168.27 -2298 210 186 171
-126.916 -1165.12 -2292 234 202 177
-121.549 -1160.97 -2284 238 207 176
-116.831 -1162.91 -2288 233 201 169
-111.608 -1159.78 -2282 234 202 166
-106.692 -1159.7 -2282 250 214 178
-101.599 -1157.59 -2278 254 219 185
-96.6082 -1156.5 -2276 250 215 184
-91.587 -1154.91 -2273 246 211 177
-86.7323 -1155.35 -2274 244 209 176
-81.6941 -1153.26 -2270 246 211 180
-76.843 -1153.71 -2271 241 205 181
-72.0201 -1154.67 -2273 230 198 172
-67.1301 -1154.62 -2273 170 140 112
-62.4599 -1158.63 -2281 90 83 67
-57.8062 -1163.67 -2291 74 70 63
-53.2024 -1170.74 -2305 72 70 68
-257.922 -1160.43 -2264 73 69 71
-251.425 -1153.07 -2250 76 74 74
-247.183 -1155.96 -2256 69 71 68
-242.596 -1157.31 -2259 74 70 53
-237.682 -1157.14 -2259 131 122 102
-233.285 -1159.52 -2264 209 192 167
-229.575 -1165.5 -2276 239 211 181
-224.433 -1164.3 -2274 239 208 178
-219.205 -1162.6 -2271 239 205 175
-214.087 -1161.42 -2269 235 203 175
-208.703 -1158.71 -2264 240 207 179
-203.523 -1157.02 -2261 248 215 187
-198.709 -1157.38 -2262 249 213 186
-193.893 -1157.75 -2263 246 211 182
-188.99 -1157.61 -2263 251 216 186
-184.496 -1160.03 -2268 252 213 180
-179.507 -1159.38 -2267 245 209 174
-174.909 -1161.29 -2271 243 208 172
-170.595 -1165.26 -2279 245 209 173
-165.885 -1166.67 -2282 246 212 177
-161.092 -1167.57 -2284 215 182 150
-156.702 -1171.54 -2292 105 85 68
-141.974 -1172.23 -2294 45 33 34
-137.021 -1172.13 -2294 83 64 58
-131.725 -1168.97 -2288 195 173 163
-126.566 -1166.83 -2284 233 201 178
-121.16 -1162.14 -2275 238 207 176
-116.406 -1163.58 -2278 231 200 168
-111.249 -1160.94 -2273 229 198 163
-106.443 -1161.89 -2275 247 211 175
-101.361 -1159.77 -2271 255 220 186
-96.5092 -1160.2 -2272 251 216 186
-91.493 -1158.6 -2269 244 209 175
-86.6815 -1159.56 -2271 239 204 172
-81.574 -1156.43 -2265 238 203 171
-76.6624 -1155.87 -2264 237 200 176
-71.8192 -1156.32 -2265 231 196 170
-66.9133 -1155.76 -2264 211 178 150
-62.1494 -1157.75 -2268 114 99 78
-57.4699 -1161.79 -2276 82 73 61
-52.8256 -1167.37 -2287 77 71 66
-263.516 -1168.44 -2268 0 0 0
-257.201 -1162.07 -2256 72 68 66
-251.053 -1156.21 -2245 80 77 71
-246.709 -1158.6 -2250 86 83 72
-242.024 -1159.45 -2252 137 123 101
-237.332 -1160.3 -2254 209 191 167
-233.149 -1163.73 -2261 237 211 183
-229.341 -1169.22 -2272 238 209 178
-224.204 -1168.02 -2270 243 212 182
-219.368 -1168.37 -2271 243 210 181
-214.152 -1166.67 -2268 241 209 181
-208.766 -1163.94 -2263 247 215 187
-203.584 -1162.24 -2260 251 218 191
-198.681 -1162.09 -2260 251 215 188
-193.608 -1160.92 -2258 249 214 185
-188.879 -1161.8 -2260 254 220 190
-184.307 -1163.72 -2264 253 216 184
-179.402 -1163.59 -2264 249 213 179
-175.116 -1167.56 -2272 247 212 178
-170.871 -1172.06 -2281 247 211 175
-166.226 -1173.99 -2285 231 201 172
-161.564 -1175.92 -2289 172 145 120
-157.229 -1180.43 -2298 69 51 45
-141.831 -1175.99 -2290 44 32 33
-136.704 -1174.34 -2287 58 43 39
-131.707 -1173.73 -2286 161 142 135
-126.549 -1171.58 -2282 229 197 174
-121.089 -1166.36 -2272 238 207 177
-116.185 -1166.27 -2272 230 199 167
-111.038 -1163.62 -2267 226 195 160
-106.053 -1162.51 -2265 244 208 172
-101.123 -1161.92 -2264 255 219 185
-96.4105 -1163.9 -2268 252 217 187
-91.3992 -1162.29 -2265 244 209 177
-86.5163 -1162.23 -2265 241 206 174
-81.49 -1160.11 -2261 241 206 174
-76.5834 -1159.54 -2260 241 204 176
-71.6818 -1158.97 -2259 232 197 169
-66.9035 -1160.46 -2262 224 191 163
-62.0855 -1161.44 -2264 192 165 142
-57.4364 -1166.01 -2273 107 90 72
-52.7027 -1169.56 -2280 81 71 56
-264.411 -1177.33 -2274 0 0 0
-257.736 -1169.37 -2259 80 76 70
-251.24 -1161.93 -2245 115 109 99
-246.674 -1163.3 -2248 182 167 150
-241.774 -1163.11 -2248 225 203 180
-236.877 -1162.94 -2248 226 201 177
-232.188 -1163.79 -2250 237 207 182
-228.199 -1168.28 -2259 239 211 180
-222.988 -1166.56 -2256 242 212 183
-218.178 -1166.91 -2257 243 211 184
-213.177 -1166.23 -2256 247 214 184
-207.814 -1163.49 -2251 253 221 193
-203.014 -1163.85 -2252 250 219 195
-198.389 -1165.25 -2255 252 218 191
-193.58 -1165.62 -2256 252 218 189
-188.937 -1167.03 -2259 255 223 191
-184.526 -1169.99 -2265 255 221 190
-179.615 -1169.85 -2265 253 218 185
-175.092 -1172.3 -2270 249 214 180
-170.923 -1177.34 -2280 245 209 175
-166.204 -1178.76 -2283 214 186 164
-161.543 -1180.71 -2287 112 89 73
-157.004 -1183.68 -2293 57 40 43
-136.028 -1173.44 -2274 53 39 35
-131.113 -1173.34 -2274 130 112 106
-126.31 -1174.28 -2276 226 194 172
-120.806 -1168.51 -2265 240 208 181
-115.965 -1168.94 -2266 232 200 169
-110.973 -1167.82 -2264 232 200 163
-105.991 -1166.71 -2262 245 210 173
-101.064 -1166.12 -2261 255 219 185
-96.3544 -1168.11 -2265 253 218 188
-91.3458 -1166.49 -2262 248 213 181
-86.4275 -1165.91 -2261 245 210 179
-81.3701 -1163.27 -2256 245 210 180
-76.5385 -1163.72 -2257 243 206 176
-71.7033 -1164.18 -2258 238 203 173
-66.8644 -1164.65 -2259 225 192 164
-62.1316 -1167.18 -2264 227 193 170
-57.4284 -1170.74 -2271 196 170 148
-52.603 -1172.25 -2274 148 128 105
-47.7442 -1173.24 -2276 90 81 76
