ply
format ascii 1.0
comment Created by Open3D
element vertex 727
property double x
property double y
property double z
property double nx
property double ny
property double nz
property uchar red
property uchar green
property uchar blue
end_header
281.679 143.029 -2345.64 -0.0922029 -0.0870108 -0.960343 249 247 244
276.248 149.974 -2346.25 -0.083683 -0.0903215 -0.958499 248 246 243
-74.1883 230.485 -2341.11 -0.931157 -0.358221 0.0684395 229 183 145
-74.477 231.284 -2341.22 -0.935454 -0.345388 0.079395 229 182 144
-77.2248 240.347 -2340.11 -0.958428 -0.275393 0.0784726 230 179 142
-79.1926 246.058 -2339.19 -0.970118 -0.238581 0.0463805 231 179 142
-80.8863 258.097 -2342.91 -0.96518 -0.0975097 0.190338 226 176 139
-62.1411 214.315 -2343.84 -0.612893 -0.672944 -0.320618 235 194 160
-306.837 -1212.51 -2338.84 0.101445 -0.900707 -0.393276 91 86 85
-302.182 -1212.41 -2337.19 0.104031 -0.903783 -0.422555 93 87 85
-291.729 -1211.96 -2336 0.120172 -0.877196 -0.470422 97 91 89
-281.079 -1211.85 -2334.22 0.120504 -0.869913 -0.490938 101 93 93
-273.965 -1208.78 -2335.88 0.161508 -0.87132 -0.471861 111 101 101
-266.506 -1206.68 -2336.71 0.171812 -0.883753 -0.446718 114 106 105
-265.885 -1205.53 -2338.09 0.159857 -0.890477 -0.435901 114 106 105
-256.196 -1203.42 -2337.41 0.264324 -0.90733 -0.263742 112 104 103
-247.098 -1197.35 -2336.75 0.51592 -0.825772 0.0710645 119 105 102
-261.75 -1180.31 -2339.01 0.51768 -0.781874 0.0237603 123 110 105
-242.52 -1186.95 -2332.99 0.695124 -0.642494 0.25175 223 197 183
-238.724 -1183.68 -2334.8 0.6857 -0.637248 0.30416 248 221 204
-234.34 -1180.79 -2335.89 0.652081 -0.653877 0.33182 252 225 207
-267.404 -1171.65 -2334.53 0.620079 -0.649925 0.42109 245 218 196
-264.331 -1171.1 -2339.43 0.578168 -0.662817 0.486806 255 229 205
-249.534 -1174.18 -2336.52 0.591035 -0.584514 0.489496 245 216 193
-261.564 -1161.17 -2334.2 0.653585 -0.515453 0.537629 239 212 189
-258.7 -1163.62 -2339.25 0.59668 -0.568729 0.561815 249 221 199
-244.616 -1168.3 -2336.02 0.658405 -0.606837 0.317006 255 228 203
-232.149 -1178.34 -2334.69 0.640613 -0.668979 0.309054 255 229 209
-226.552 -1176.4 -2339.05 0.567354 -0.663942 0.452479 255 227 208
-242.171 -1165.75 -2336.78 0.693384 -0.64292 0.162943 255 227 203
-238.525 -1158.75 -2334.28 0.71937 -0.598049 0.151354 244 218 195
-152.976 -660.484 -2338.35 -0.269685 0.00947556 0.877542 37 36 46
-154.287 -653.666 -2339.43 -0.293402 0.0211411 0.839312 36 36 46
-152.043 -650.029 -2339.28 -0.221798 0.0171882 0.874944 35 35 45
-141.318 -660.055 -2339.93 0.107271 0.00729176 0.799434 49 50 61
-158.045 -631.39 -2338.56 -0.657224 -0.288598 0.682636 31 31 40
-157.057 -635.539 -2339.84 -0.627841 -0.228697 0.725008 30 30 40
-151.424 -632.352 -2334.63 -0.256069 -0.3735 0.769177 36 36 46
-158.937 -622.417 -2334.14 -0.726868 -0.240895 0.596305 29 28 38
-159.012 -617.121 -2333.49 -0.680298 -0.0988116 0.591853 28 28 38
-144.13 -625.542 -2337.97 0.22306 -0.252513 0.72539 47 48 60
-143.526 -618.003 -2336.22 0.343673 -0.0732174 0.704589 40 42 54
-272.473 -585.18 -2335.45 0.96487 0.152289 -0.194222 39 41 60
-274.981 -571.104 -2338.49 0.984044 -0.0578957 -0.0134526 39 41 61
-273.554 -562.719 -2338.78 0.974276 -0.0525266 0.0498815 42 44 64
-272.281 -603.049 -2337.86 0.98715 -0.0165158 -0.179618 36 38 56
-271.004 -599.556 -2332.5 0.991889 -0.0141144 -0.134096 36 38 56
-271.923 -586.351 -2334.18 0.969492 0.133997 -0.186921 39 41 60
-276.507 -548.287 -2339.44 0.944313 0.125362 0.155397 46 48 69
-277.641 -545.433 -2333.6 0.996158 0.136858 0.112972 47 49 70
-277.414 -538.207 -2337.51 0.886412 -0.013806 0.276965 48 49 69
-273.725 -524.374 -2338.7 0.895017 0.00343712 0.44312 48 50 66
-24.8275 -856.201 -2338.55 -0.98097 -0.0384815 -0.0487851 35 34 46
-26.2597 -844.518 -2333.14 -0.989038 -0.0245594 -0.0806923 37 36 48
-26.0064 -841.171 -2336.1 -0.998036 -0.0335646 -0.0369283 39 38 50
-28.5878 -820.148 -2334.76 -0.911838 -0.329829 0.216027 38 37 50
-27.7178 -824.637 -2337.77 -0.931333 -0.30975 0.138534 37 36 49
-92.3503 -807.604 -2338.02 0.736076 -0.0275053 -0.674489 22 26 39
-92.7538 -798.335 -2337.15 0.693558 0.161686 -0.696951 25 28 41
-91.6184 -809.317 -2336.7 0.743496 -0.044622 -0.664778 22 26 39
-90.6298 -794.4 -2333.51 0.666072 0.226713 -0.695039 25 28 41
-109.478 -781.441 -2336.84 0.398909 0.646749 -0.633685 26 29 43
-102.447 -788.504 -2338.36 0.551861 0.540032 -0.654569 26 29 42
-102.036 -785.515 -2335.59 0.495058 0.595169 -0.668316 26 29 42
-113.588 -777.726 -2335.85 0.364058 0.662227 -0.649526 31 35 49
-28.6268 -818.633 -2333.01 -0.903336 -0.335524 0.259064 37 36 50
-30.2897 -807.452 -2334.09 -0.962787 0.00176867 0.138815 39 38 50
-29.7972 -802.801 -2335.82 -0.973888 0.111057 0.105854 40 39 51
-415.157 17.813 -2339.16 0.197376 0.380446 -0.899209 234 233 238
-410.348 17.2924 -2337.44 0.299148 0.363794 -0.87729 230 229 235
-404.759 12.6941 -2336.49 0.390317 0.306032 -0.867818 227 226 233
-420.583 21.5606 -2337.92 0.0178499 0.439759 -0.891428 235 233 236
-425.063 27.1179 -2334 -0.147381 0.413565 -0.900043 235 232 233
-414.742 26.4227 -2334.22 0.129024 0.421178 -0.882845 226 225 229
-407.406 21.4381 -2334.12 0.359357 0.415422 -0.833323 223 223 229
-397.432 6.97381 -2334.14 0.408554 0.271407 -0.87112 215 214 220
-529.597 139.507 -2340.2 0.0333036 -0.281564 -0.747811 213 200 180
-521.87 139.622 -2339.84 0.0375285 -0.594553 -0.738407 245 236 213
0.599425 -221.56 -2335.32 -0.95913 0.157493 0.220019 235 234 243
1.43195 -215.127 -2335.4 -0.962986 0.189091 0.168291 234 233 242
4.18398 -203.85 -2333.4 -0.953362 0.287296 0.10142 234 233 242
6.80696 -196.832 -2335.17 -0.935078 0.346023 0.0546955 233 232 241
10.6762 -186.977 -2335.13 -0.9044 0.401707 -0.0174916 234 233 241
16.4285 -178.954 -2336.77 -0.790175 0.524593 -0.261143 235 235 243
19.6764 -173.487 -2336.15 -0.771208 0.49585 -0.379558 235 235 243
24.3188 -169.146 -2338.14 -0.779871 0.502422 -0.353516 235 235 243
26.1177 -159.855 -2334.37 -0.740178 0.372309 -0.525278 237 238 246
31.318 -154.41 -2336.47 -0.729437 0.393752 -0.528197 238 240 247
34.5654 -153.586 -2339.18 -0.768337 0.436037 -0.434363 236 238 245
48.4959 -169.047 -2334.32 -0.711831 0.122207 -0.612141 244 244 248
51.1814 -168.326 -2336.28 -0.698859 0.0948597 -0.647503 245 245 248
47.192 -160.642 -2333.27 -0.693163 0.175408 -0.631507 243 244 248
48.9625 -159.687 -2337.2 -0.67699 0.178366 -0.649496 244 244 249
49.7259 -149.037 -2336.56 -0.673008 0.315275 -0.616255 242 244 249
60.3222 -151.73 -2333.69 -0.537501 0.0980835 -0.847071 251 251 254
205.564 152.076 -2333.61 -0.0449151 -0.408614 -0.907119 253 253 253
209.694 154.923 -2334.82 -0.0299637 -0.378446 -0.913204 253 253 253
215.19 159.043 -2337.77 -0.0323312 -0.339462 -0.923125 247 248 248
226.308 156.48 -2335.62 -0.0852414 -0.195553 -0.957 239 239 240
240.681 150.805 -2333.84 -0.157328 -0.0722158 -0.97245 252 252 252
230.883 157.796 -2336.79 -0.104666 -0.160784 -0.960986 242 242 243
238.352 154.417 -2335.12 -0.150054 -0.0922997 -0.967703 251 251 251
277.642 112.872 -2334.43 -0.151713 0.189563 -0.969198 235 219 204
274.69 119.475 -2333.67 -0.224805 0.19208 -0.961148 237 224 213
284.704 113.547 -2335.18 -0.0720032 0.0600336 -0.99047 248 231 214
282.271 118.833 -2335.98 -0.130391 0.0348772 -0.97681 243 230 213
289.742 120.483 -2338.13 -0.0855032 -0.143406 -0.968796 248 236 217
277.023 120.99 -2334.5 -0.201069 0.129549 -0.965323 240 228 215
278.962 130.531 -2337.18 -0.127737 0.0157991 -0.973538 246 233 217
285.448 124.164 -2338.26 -0.137218 -0.140994 -0.963142 243 233 214
252.071 139.931 -2333.08 -0.113257 -0.129729 -0.97639 254 254 254
249.134 145.323 -2334.48 -0.141972 -0.111102 -0.975981 252 252 252
255.636 145.042 -2336.22 -0.124265 -0.209038 -0.959485 246 246 247
265.057 143.687 -2336.72 -0.0791778 -0.313988 -0.936395 243 244 245
248.631 152.445 -2337.79 -0.112373 -0.241657 -0.950894 249 249 250
245.015 154.312 -2337.8 -0.126656 -0.179988 -0.957192 250 250 251
275.12 134.427 -2335.88 -0.110885 -0.0291478 -0.968709 249 239 227
275.31 138.479 -2337.72 -0.0871293 -0.071875 -0.961685 250 245 237
273.824 141.536 -2338.36 -0.0742304 -0.134847 -0.953046 250 249 246
-71.8781 223.471 -2336.46 -0.889191 -0.430538 -0.102117 230 186 148
-74.7977 231.151 -2334.09 -0.939981 -0.324405 -0.0801628 230 184 147
-80.1727 249.476 -2335.15 -0.988407 -0.172922 -0.0107065 233 183 146
-78.9031 244.462 -2335.72 -0.974976 -0.244184 -0.00850417 232 181 144
-79.9902 258.126 -2336.78 -0.984515 -0.0466538 0.115432 229 181 143
-65.2781 213.946 -2337.03 -0.787123 -0.516918 -0.289101 232 191 156
-129.18 -592.818 -2346.01 -0.413832 0.272757 0.760488 36 37 47
-626.954 39.3508 -2339.73 -0.182111 0.644575 -0.728728 150 127 111
-617.372 43.2251 -2336.34 -0.140548 0.646887 -0.733951 157 132 114
-607.125 43.3478 -2335.94 -0.0643056 0.609024 -0.766933 144 123 107
-597.399 41.518 -2338.63 0.0238517 0.564081 -0.805579 130 111 98
-588.822 42 -2335.51 0.0782235 0.537435 -0.828916 120 104 93
-578.703 43.1242 -2334.24 0.00346321 0.571385 -0.798363 142 121 105
-569.117 45.064 -2333.79 -0.0571885 0.600187 -0.772735 157 133 114
-231.469 -1177.31 -2328.78 0.697331 -0.704294 -0.0455775 255 234 212
-226.35 -1171.49 -2330.65 0.67281 -0.681607 0.171844 255 227 205
-242.468 -1162.12 -2330.67 0.688976 -0.623143 0.210905 253 225 201
-238.043 -1153.8 -2327.71 0.751699 -0.515635 0.228462 227 204 183
-258.498 -1150.18 -2329.25 0.779803 -0.418748 0.456115 213 191 160
-247.636 -1134.23 -2332.67 0.828428 -0.348515 0.422522 205 186 158
-247.577 -1133.88 -2332.2 0.832162 -0.330368 0.422757 202 183 156
-234.179 -1144.09 -2328.22 0.827389 -0.219657 0.489221 155 142 126
-242.969 -1128.46 -2333 0.835939 0.0505612 0.444203 104 95 90
-235.382 -1129.05 -2330.59 0.838086 0.0255485 0.463825 103 95 89
-232.532 -1133.21 -2332.03 0.832771 -0.147938 0.480629 137 126 113
-219.598 -1166.57 -2332.62 0.625135 -0.659476 0.355028 255 223 199
-209.572 -1156.8 -2332.01 0.805 -0.491993 0.197321 254 222 198
-204.898 -1147.39 -2333.26 0.916409 -0.282515 -0.0564872 250 219 195
-200.148 -1141.59 -2330.95 0.867153 -0.332297 -0.343066 247 221 193
-197.005 -1134.19 -2333.5 0.811198 -0.413179 -0.445833 131 121 108
-195.004 -1132.91 -2330.24 0.831382 -0.377476 -0.418296 130 120 107
-154.637 -624.833 -2331.37 -0.541887 -0.34825 0.623361 31 30 40
-151.997 -616.903 -2328.42 -0.136173 -0.129741 0.607969 29 29 39
-145.647 -615.475 -2332.62 0.389254 -0.0565092 0.693785 36 38 50
-273.286 -574.112 -2331.95 0.977074 0.00627911 -0.133583 39 41 60
-271.088 -608.522 -2328.79 0.975719 0.00967946 0.00188098 37 39 56
-270.718 -600.83 -2327.01 0.989909 -0.0457647 -0.0191566 37 39 56
-270.502 -598.434 -2327.2 0.99271 -0.0367311 -0.0426177 36 39 56
-270.651 -591.711 -2329.04 0.989592 0.0171569 -0.0993561 37 39 57
-272.536 -579.521 -2332.43 0.95512 0.132315 -0.242482 40 42 62
-273.852 -559.617 -2326.38 0.986909 0.13638 0.106035 41 43 61
-277.942 -544.254 -2331.11 0.995989 0.144044 0.0757741 47 49 69
-278.869 -539.45 -2330.14 0.977256 0.0722146 0.0976607 47 49 69
-278.847 -534.387 -2333.2 0.933734 -0.101724 0.28706 48 49 68
-278.864 -517.442 -2327.39 0.949596 0.0741168 0.291237 47 49 66
-278.528 -512.596 -2331.13 0.912684 0.0332688 0.392221 46 48 64
-151.505 -612.394 -2329.49 0.0404046 -0.00532003 0.677524 30 30 41
-150.602 -606.592 -2331.4 0.10717 0.141447 0.817252 32 33 44
-101.972 -980.564 -2330.34 0.468323 0.268652 -0.833981 30 31 43
-95.2991 -986.02 -2329.05 0.417317 0.271307 -0.858579 31 32 44
-90.8513 -992.416 -2330.7 0.301071 0.19083 -0.929099 31 32 44
-84.5075 -995.016 -2329.44 0.288838 0.182162 -0.941022 32 33 45
-90.2483 -991.325 -2329.83 0.311074 0.212742 -0.922147 31 32 44
-51.9349 -1025.19 -2329.32 -0.729365 0.44981 -0.372456 37 35 47
-47.2931 -1015.78 -2331.37 -0.862174 0.455022 -0.167211 38 35 45
-44.9019 -1006.7 -2328.99 -0.838189 0.174303 -0.414843 44 43 54
-41.0204 -999.681 -2332.98 -0.907713 0.31968 -0.237474 43 40 51
-43.6079 -994.684 -2330.61 -0.730361 -0.0995638 -0.592616 47 47 59
-47.0041 -990.778 -2328.94 -0.536912 -0.357711 -0.777309 48 48 62
-50.5378 -986.215 -2327.35 -0.41987 -0.394539 -0.840064 44 45 59
-45.1449 -984.824 -2332.23 -0.51605 -0.204752 -0.817273 40 40 53
-113.809 -968.178 -2330.65 0.388167 0.197281 -0.882785 31 32 43
-106.1 -967.71 -2327.68 0.402266 0.152897 -0.898137 30 32 44
-110.653 -964.531 -2328.8 0.361605 0.0925161 -0.908788 30 32 43
-104.357 -972.322 -2328.22 0.461413 0.219097 -0.864848 30 31 43
-114.943 -957.438 -2330.15 0.392179 -0.0799308 -0.882232 30 31 42
-113.686 -950.364 -2331.82 0.409383 -0.263182 -0.851241 30 31 43
-109.224 -953.867 -2329.24 0.344254 -0.166615 -0.907703 31 32 44
-103.821 -953.185 -2328.1 0.321378 -0.13955 -0.929831 32 34 46
-68.4521 -956.917 -2327.12 -0.693535 -0.0937182 -0.587039 34 34 45
-107.564 -941.189 -2332.02 0.447518 -0.242347 -0.847534 34 35 47
-100.839 -945.741 -2328.27 0.36032 -0.154027 -0.915191 33 34 46
-104.882 -938.448 -2330.87 0.45842 -0.15625 -0.862115 34 35 47
-106.949 -926.88 -2332.69 0.627348 -0.0877202 -0.775012 31 32 44
-104.223 -925.694 -2330.39 0.61337 -0.0606777 -0.788294 30 31 43
-391.513 4.37523 -2332.21 0.375598 0.281095 -0.881726 205 204 210
-378.762 -3.37417 -2331.16 0.283013 0.317914 -0.901018 201 198 204
-382.182 4.89975 -2328.09 0.311562 0.326009 -0.892632 200 198 203
-359.46 -9.11008 -2332.79 0.111213 0.309068 -0.94386 212 211 216
-373.537 -3.24184 -2329.63 0.218699 0.320902 -0.91711 202 200 206
-365.927 -3.85243 -2329.21 0.135919 0.313879 -0.939223 205 203 209
-359.089 -3.76354 -2328.57 0.113678 0.291252 -0.949256 205 204 210
-353.561 -6.56808 -2329.42 0.118174 0.282668 -0.948928 217 216 221
-342.395 -9.04524 -2328.99 0.196024 0.204861 -0.956558 237 236 241
-333.884 -14.7468 -2333.09 0.259018 0.188286 -0.898056 240 239 244
-333.463 -12.5269 -2328.81 0.240308 0.188513 -0.921899 240 239 244
-284.633 -177.32 -2328.62 0.856636 0.25367 0.385929 241 244 248
-286.936 -172.352 -2327.34 0.85179 0.265496 0.436849 243 246 251
-287.739 -166.226 -2332 0.806603 0.301203 0.512404 245 248 253
-283.359 -174.355 -2331.94 0.808802 0.28158 0.482677 243 246 251
-286.286 -157.304 -2331.71 0.800604 0.296302 0.514362 244 247 252
-285.761 -151.875 -2331.67 0.813605 0.257495 0.50195 243 244 249
-283.53 -153.064 -2332.85 0.807047 0.269396 0.509101 243 245 250
-252.504 -199.279 -2327.98 0.864256 -0.224241 -0.416592 253 253 255
-253.917 -184.764 -2331.07 0.919165 0.0446423 -0.353942 253 253 254
-254.822 -181.758 -2331.94 0.917707 0.0321821 -0.356709 253 253 254
-251.905 -166.007 -2330.1 0.916866 -0.176027 -0.189351 253 253 254
-323.395 198.519 -2331.27 -0.114881 -0.305036 -0.587744 254 253 252
-309.076 197.721 -2328.75 -0.185242 -0.254602 -0.525974 254 253 251
-268.42 178.32 -2332.49 0.186442 -0.546161 -0.810309 254 253 251
-269.977 180.6 -2332.67 0.182234 -0.53707 -0.802791 254 253 251
-262.075 181.944 -2328.95 0.204679 -0.515427 -0.818826 254 253 251
-257.307 174.507 -2332.22 0.198425 -0.520969 -0.833715 254 253 251
-254.52 180.995 -2330.24 0.200961 -0.504331 -0.836262 254 253 251
-249.178 201.281 -2332.03 0.115742 -0.50421 -0.699307 254 253 252
-248.034 205.837 -2326.51 0.106237 -0.481174 -0.712888 255 254 253
-236.149 207.268 -2332.15 -0.16067 -0.733433 -0.598045 254 254 253
-233.315 207.676 -2328.87 -0.177058 -0.722782 -0.632089 254 254 254
34.6561 -122.474 -2328.57 -0.741044 0.238677 -0.618582 234 236 243
50.71 -147.891 -2332.45 -0.703314 0.278387 -0.606311 241 242 247
55.2742 -136.045 -2331.08 -0.568813 0.201681 -0.782329 246 246 250
36.9902 -134.238 -2333.02 -0.668654 0.320529 -0.657208 239 241 248
54.0936 -132.472 -2333.28 -0.627596 0.290628 -0.692627 243 244 250
54.8161 -128.605 -2331.54 -0.708341 0.352936 -0.59778 240 241 248
58.3919 -129.866 -2330.67 -0.62215 0.263256 -0.696989 244 244 249
66.1494 -131.713 -2331.87 -0.507114 0.177992 -0.831421 251 251 253
68.89 -125.406 -2331.99 -0.342676 0.113535 -0.885792 252 252 255
40.8903 -118.561 -2331.54 -0.615248 0.301956 -0.71502 238 241 247
44.665 -116.531 -2332.68 -0.564214 0.377602 -0.73947 239 242 249
57.9758 -118.151 -2332.68 -0.481832 0.29117 -0.527342 239 240 247
59.7621 -114.858 -2332.19 -0.200734 0.189538 -0.610484 242 243 248
47.5427 -108.432 -2327.16 -0.390549 0.458607 -0.661644 241 243 249
56.1971 -105.957 -2327.9 0.258331 0.321249 -0.63488 244 246 249
62.8089 -121.806 -2331.38 -0.335871 0.146713 -0.747406 246 247 251
72.9066 -118.216 -2331.39 -0.209709 0.151187 -0.884729 246 247 250
64.6745 -116.523 -2331.12 -0.0226803 0.0601036 -0.812186 248 249 252
78.6009 -117.176 -2332.59 -0.523667 0.300762 -0.652628 223 224 229
65.2506 -109.592 -2329.76 0.213554 0.107745 -0.812715 247 249 251
68.4231 -109.653 -2329.24 0.220684 0.0821722 -0.902667 249 251 253
65.4964 -100.387 -2326.85 0.029778 0.293043 -0.852393 247 249 251
81.8172 -109.432 -2331.06 -0.405835 0.274192 -0.743961 232 233 237
79.3152 -103.572 -2328.21 -0.187612 0.204463 -0.911228 248 249 251
85.5304 -99.9141 -2330.76 -0.548355 0.231145 -0.66285 232 233 238
85.3926 -92.228 -2328.17 -0.476659 0.174136 -0.769442 243 243 246
81.1761 -74.2033 -2327.14 -0.310365 -0.131141 -0.932578 252 254 255
82.3393 -75.5999 -2326.96 -0.318555 -0.107144 -0.928383 252 254 255
74.6774 -62.282 -2330.24 -0.417235 -0.120261 -0.884536 251 252 253
80.2934 -69.137 -2329.8 -0.388391 -0.167261 -0.894046 252 253 254
77.2966 -61.2753 -2331.99 -0.366376 -0.0666139 -0.918142 251 253 253
71.426 -56.5133 -2329.02 -0.498942 -0.0406384 -0.837783 251 251 252
-62.6682 378.597 -2327.81 -0.837887 0.327983 -0.0178623 179 136 117
-59.5156 378.221 -2330.11 -0.838754 0.325817 -0.0200268 178 136 117
-51.8402 373.687 -2331.74 -0.848006 0.2902 0.00524297 179 137 118
325.602 116.31 -2332.49 -0.0245761 0.203065 -0.961086 254 242 221
324.604 123.763 -2332.46 0.0231315 -0.137509 -0.926887 252 236 216
-217.754 -966.721 -2322.52 0.87326 0.26418 -0.133021 35 35 44
-219.014 -963.124 -2320.23 0.86614 0.2638 -0.19526 35 35 44
-215.157 -965.123 -2322.39 0.932953 0.346848 -0.00503991 35 35 43
-214.065 -956.596 -2324.9 0.944067 0.376451 0.0537183 32 32 42
-190.591 -972.398 -2319.97 -0.613374 -0.113443 -0.731323 26 29 42
-187.496 -968.931 -2324.07 -0.679943 -0.170948 -0.725496 23 26 39
-187.692 -961.408 -2325.63 -0.643026 -0.0935327 -0.759188 23 26 40
-187.704 -958.317 -2325.71 -0.629565 -0.0300952 -0.767877 24 26 40
-188.163 -950.035 -2323.62 -0.60823 0.164045 -0.766177 26 29 43
-219.684 -941.491 -2320.64 0.965955 0.237363 0.0604489 29 30 39
-219.989 -932.817 -2321.93 1.01851 0.130572 -0.000366752 28 29 39
-220.101 -923.972 -2322.78 0.985175 0.123752 -0.128415 30 31 41
-188.006 -945.121 -2320.97 -0.58086 0.283163 -0.758564 30 33 47
-174.952 -941.731 -2325.95 -0.49214 0.340902 -0.799513 27 29 44
-175.427 -934.787 -2321.83 -0.48762 0.386889 -0.771085 29 31 47
-175.919 -932.835 -2320.28 -0.463907 0.393649 -0.738929 30 32 48
-168.563 -821.84 -2325.58 -0.73553 0.358584 -0.568722 29 31 47
-250.428 -806.226 -2322.91 0.947566 0.277577 -0.139704 37 37 49
-251.712 -802.573 -2323.08 0.958872 0.237765 -0.125815 38 37 50
-252.651 -799.797 -2323.34 0.970381 0.19373 -0.111497 38 38 51
-252.886 -789.343 -2326.54 0.982046 -0.147592 -0.0706888 36 35 48
-249.537 -775.69 -2320.87 0.969338 -0.149865 -0.0435857 34 34 46
-250.657 -766.623 -2322.96 0.967434 0.117231 -0.09744 33 34 46
-251.952 -763.07 -2326.33 0.955327 0.227463 -0.134344 32 34 45
-260.031 -742.146 -2326.3 0.967912 0.245876 0.0629608 39 41 52
-259.111 -743.521 -2321.16 0.961033 0.250096 -0.0247458 38 39 50
-259.944 -740.529 -2320.65 0.96676 0.221749 -0.024439 38 40 51
-260.97 -733.882 -2326.61 0.984733 0.128663 0.0277255 39 40 52
-261.033 -718.875 -2325.25 0.998127 -0.0612635 0.0237886 38 39 51
-273.142 -575.741 -2320.81 0.971789 0.00603745 -0.00808071 39 41 60
-273.958 -561.08 -2324.26 0.986372 0.123656 0.123971 40 42 60
-271.276 -602.181 -2323.16 0.975059 -0.0915943 0.106699 37 39 56
-270.818 -598.982 -2323.38 0.98821 -0.0669473 0.0379051 37 39 56
-272.116 -581.471 -2323.58 0.96798 0.01074 -0.0803787 39 41 61
-272.409 -580.475 -2322.2 0.965186 -0.00651788 -0.0618533 39 41 61
-275.105 -557.261 -2320.09 0.987297 0.119294 0.0949514 40 42 60
-277.364 -541.818 -2321.73 0.983261 0.166794 -0.0761358 44 46 65
-278.353 -538.531 -2322.86 0.986324 0.140996 -0.0659787 45 47 66
-279.048 -533.267 -2321.18 0.983505 0.126041 -0.110804 45 47 66
-279.36 -518.343 -2324.63 0.961301 0.0768985 0.213321 47 48 66
-280.044 -516.497 -2322.23 0.968532 0.0965379 0.178507 46 48 66
-33.6439 -869.489 -2322.68 -0.853143 0.121327 -0.501907 33 32 44
-29.8073 -857.563 -2324.34 -0.870718 0.144071 -0.441691 34 33 45
-28.0099 -846.562 -2323.55 -0.963885 0.100556 -0.209031 35 35 46
-27.5896 -842.612 -2323.05 -0.977942 0.0919866 -0.159631 37 36 48
-27.66 -831.35 -2320.85 -0.978096 0.0188111 -0.139071 39 38 50
-26.3157 -818.5 -2324.65 -0.962335 -0.0863141 0.133437 37 36 49
-81.7872 -817.049 -2321.42 0.751336 -0.0203572 -0.647934 25 28 41
-83.1529 -809.546 -2324.57 0.781409 -0.071452 -0.617533 24 27 40
-80.4427 -799.081 -2323.3 0.760329 -0.0483933 -0.639775 22 24 39
-109.998 -767.393 -2325.9 0.274152 0.605615 -0.741247 21 26 40
-92.6445 -775.364 -2321.81 0.493725 0.477361 -0.703807 26 30 43
-100.455 -771.842 -2324.14 0.407496 0.549088 -0.723981 22 27 40
-81.432 -787.371 -2322.73 0.625094 0.296928 -0.692155 26 29 44
-89.305 -784.463 -2326.6 0.536184 0.454221 -0.709893 28 31 44
-83.0972 -785.957 -2323.35 0.598767 0.35656 -0.699568 27 30 45
-269.808 -325.599 -2322.18 0.930789 -0.224597 0.276501 52 53 67
-267.989 -319.686 -2323.45 0.933649 -0.217241 0.290436 53 54 67
-266.045 -311.784 -2323.7 0.934824 -0.197943 0.290516 52 53 67
-262.681 -297.658 -2323.1 0.899811 -0.274851 0.277502 51 52 66
-261.359 -293.961 -2322.33 0.889635 -0.316769 0.284839 51 52 66
-256.816 -284.899 -2320.89 0.873507 -0.382375 0.267163 50 51 64
-253.611 -284.441 -2326.48 0.854194 -0.437857 0.279059 50 51 64
-252.093 -276.814 -2326.65 0.918604 -0.228759 0.269542 46 47 61
-252.349 -264.222 -2321.11 0.995604 -0.0222687 0.115473 67 68 81
-252.303 -253.582 -2325.28 0.993504 0.0821017 0.0627858 170 170 176
-256.636 -239.668 -2322.62 0.942635 0.30775 -0.0110247 250 250 252
-260.655 -226.864 -2324.13 0.970338 0.172165 0.0200955 248 248 251
-256.972 -239.182 -2322 0.94174 0.310284 -0.0205276 249 249 252
-259.837 -218.47 -2321.56 0.962271 -0.134628 -0.186965 253 253 255
-255.354 -212.329 -2321.62 0.798709 -0.38276 -0.441482 253 253 255
-250.514 -201.843 -2322.55 0.853798 -0.225921 -0.42805 253 253 254
-500.601 126.342 -2321.59 0.042467 -0.675058 -0.733725 253 244 220
-496.874 131.385 -2322.17 0.0464149 -0.654255 -0.741503 253 245 221
-497.642 136.616 -2326.69 0.0389535 -0.664727 -0.738145 253 245 221
-488.743 143.767 -2324.84 0.0441082 -0.660914 -0.739544 253 245 221
-386.723 169.264 -2321.09 0.00269787 -0.28019 -0.83 246 245 246
-380.622 168.423 -2320.9 0.0102229 -0.277305 -0.828882 246 245 246
-370.461 170.526 -2322.84 0.146925 -0.44028 -0.82707 250 249 251
-370.057 172.323 -2323.98 0.154132 -0.42453 -0.824957 250 249 251
-372.436 173.591 -2325.35 0.149335 -0.347291 -0.815656 247 246 248
-361.684 174.386 -2322.87 0.168923 -0.533205 -0.835612 253 253 255
-356.03 182.394 -2326.92 0.157566 -0.519714 -0.840048 253 253 255
-352.61 183.423 -2326.55 0.158749 -0.518936 -0.839683 253 253 255
-330.941 190.355 -2321.57 0.0793636 -0.417394 -0.806558 253 253 254
-333.665 193.203 -2325.96 0.121346 -0.490704 -0.803023 253 253 254
9.99638 -197.186 -2322.65 -0.92342 0.201986 0.313534 234 233 240
9.94663 -186.777 -2326.53 -0.962726 0.217288 0.103025 232 231 239
11.3801 -187.989 -2321.7 -0.946183 0.133194 0.243636 233 232 240
12.3848 -176.154 -2325.07 -0.92016 0.217656 -0.111869 234 233 240
13.7211 -167.456 -2322.87 -0.912643 0.167794 -0.197275 234 233 240
15.4676 -156.944 -2323.09 -0.891911 0.199611 -0.228008 233 232 239
44.1641 -174.663 -2322.56 -0.802553 0.191807 -0.466405 241 242 244
46.9273 -170.997 -2322.92 -0.768417 0.110927 -0.563553 244 244 247
42.7884 -167.233 -2321.18 -0.742224 0.0652105 -0.612 244 244 247
43.8268 -163.535 -2323.77 -0.693339 0.0676864 -0.672586 246 245 249
43.8808 -162.17 -2322.07 -0.711819 0.0535921 -0.660371 245 245 248
19.9237 -145.769 -2322.13 -0.847416 0.341243 -0.168765 232 233 239
23.3169 -137.285 -2321.16 -0.811043 0.418537 -0.321828 231 233 239
27.0907 -132.625 -2323.14 -0.809401 0.337635 -0.382473 231 233 239
29.922 -126.097 -2325.37 -0.814607 0.261725 -0.50609 230 232 239
194.589 91.316 -2326.25 -0.114154 0.135452 -0.970324 254 254 254
193.11 101.708 -2325.38 0.0823101 0.0714535 -0.976293 253 253 253
199.199 100.938 -2324.59 -0.0310547 0.165364 -0.974564 253 253 253
196.712 106.531 -2323.99 0.116109 0.120147 -0.976799 253 253 253
205.739 99.1301 -2325.57 -0.122085 0.265296 -0.947894 253 253 253
204.59 106.63 -2323.46 0.0161036 0.183967 -0.976865 253 253 253
215.547 106.703 -2326.08 -0.304613 0.0924986 -0.938085 253 253 253
-76.3908 269.285 -2322.62 -0.968873 0.166791 0.121636 233 188 156
-74.7329 275.847 -2322.38 -0.971391 0.133344 0.182818 232 187 155
-75.0871 282.591 -2325.85 -0.958115 0.0720922 0.269432 230 185 151
-72.7254 289.424 -2320.51 -0.934933 0.0817247 0.33393 227 184 154
-70.7545 301.461 -2322.06 -0.901643 0.241461 0.340052 215 171 144
-68.0113 310.945 -2324.29 -0.898588 0.270687 0.327357 222 178 149
-67.0657 326.36 -2326.41 -0.972704 0.109457 0.118304 192 140 117
-65.7056 320.328 -2322.18 -0.953171 0.0948569 0.304004 209 161 138
-65.2564 329.727 -2320.81 -0.972556 0.0480804 0.255763 200 153 133
-65.1671 340.464 -2324.03 -0.949287 0.150971 0.0873343 206 162 142
-62.092 348.426 -2321.23 -0.926379 0.227234 -0.013596 206 167 150
-54.7274 357.283 -2326.15 -0.778778 0.419185 -0.4317 127 99 87
-54.9308 362.888 -2324.52 -0.785753 0.381253 -0.2611 140 107 93
-504.633 136.935 -2332.4 0.0407235 -0.676916 -0.734897 253 245 221
-463.435 158.502 -2320.19 0.0230182 -0.0401693 -0.953106 219 218 216
-188.29 -943.11 -2319.49 -0.566216 0.326474 -0.755429 33 35 50
-185.825 -939.965 -2318.73 -0.523657 0.381451 -0.762465 34 37 52
-184.142 -933.395 -2315.05 -0.495088 0.467264 -0.740778 38 41 56
-179.027 -933.974 -2318.76 -0.468599 0.422767 -0.75209 32 35 50
-174.225 -925.542 -2318.35 -0.357557 0.28221 -0.493486 31 32 46
-223.208 -912.543 -2317.16 0.920874 0.286514 0.0499624 33 33 44
-226.65 -907.674 -2313.8 0.914916 0.281599 0.280944 33 33 43
-229.096 -889.073 -2319.58 0.909106 0.184868 -0.25672 28 28 38
-229.997 -887.057 -2316.4 0.92481 0.173269 -0.057015 30 29 40
-233.04 -878.359 -2315.55 0.903572 0.285376 0.10546 31 30 42
-237.059 -864.521 -2318.54 0.894833 0.147343 0.0493414 35 34 45
-240.221 -861.5 -2314.95 0.924548 0.234108 0.238866 36 35 46
-238.337 -853.026 -2319.55 0.942421 0.200579 0.219194 36 34 46
-240.522 -851.098 -2315.66 0.96486 0.143451 0.203368 35 34 46
-167.292 -786.238 -2315.69 -0.672747 0.138182 -0.716342 29 31 47
-163.976 -781.093 -2316.85 -0.499692 0.213856 -0.834677 31 32 48
-157.063 -781.153 -2319.26 -0.395916 0.252943 -0.879477 35 36 53
-165.81 -774.913 -2314.29 -0.451544 0.289809 -0.839277 29 30 46
-163.237 -772.332 -2315.06 -0.42111 0.324224 -0.844052 28 29 46
-153.955 -774.3 -2317.01 -0.179828 0.299087 -0.896778 32 34 50
-145.046 -774.18 -2318.45 -0.052761 0.365142 -0.806142 42 44 61
-150.301 -768.799 -2314.13 0.25285 0.300764 -0.923575 33 35 52
-154.203 -766.75 -2313.68 0.0363766 0.32135 -0.894967 30 32 50
-134.504 -763.69 -2318.79 0.0402636 0.406363 -0.727746 50 54 69
-131.191 -759.385 -2318.09 -0.0178543 0.36157 -0.737876 48 52 67
-126.594 -758.92 -2319.49 0.0584397 0.538651 -0.734863 44 49 64
-131.257 -754.194 -2315.01 -0.117858 0.278142 -0.887261 59 62 77
-120.895 -751.425 -2314.81 0.0340045 0.466133 -0.869294 48 51 67
-126.406 -733.279 -2314.32 -0.00140533 -0.0371264 -0.964688 48 52 66
-260.769 -712.89 -2319.13 0.993196 -0.0906029 0.0640431 37 38 50
-259.889 -706.841 -2317.41 0.987779 -0.126764 0.0942026 35 36 48
-259.138 -700.669 -2316.73 0.986398 -0.0824507 0.0686187 35 36 47
-258.999 -693.575 -2316.89 0.989705 0.0168488 0.00631519 36 37 49
-259.627 -686.256 -2316.41 0.986301 0.114615 -0.0866212 38 39 51
-261.109 -676.075 -2317.97 0.989398 0.1016 -0.0868602 38 38 50
-261.966 -670.215 -2317.78 0.987086 0.129702 -0.0516082 38 38 50
-35.0504 -860.26 -2314.99 -0.930271 0.20901 -0.260659 34 33 44
-31.0206 -853.876 -2319.44 -0.910464 0.191752 -0.333541 34 33 45
-31.7594 -849.565 -2314.26 -0.938601 0.188668 -0.268652 35 34 45
-29.7598 -832.948 -2314.95 -0.962392 0.0788525 -0.231884 38 37 47
-28.1827 -827.634 -2317.1 -0.965313 0.0755508 -0.190993 39 38 49
-26.3797 -821.155 -2319.3 -0.973538 0.0360273 -0.0474173 39 38 50
-78.3194 -817.826 -2318 0.694702 0.0480748 -0.706233 26 29 42
-76.4538 -806.746 -2316.46 0.700051 -0.0078888 -0.699739 24 27 40
-77.8091 -803.99 -2318.95 0.746448 -0.0547253 -0.647199 23 26 39
-73.0641 -798.57 -2314.79 0.73589 -0.0544261 -0.677604 22 24 38
-93.5317 -772.11 -2319.96 0.484417 0.473233 -0.71199 24 28 42
-74.1214 -791.628 -2316.05 0.738781 0.076687 -0.652452 26 27 42
-75.8516 -783.905 -2315.13 0.686148 0.292373 -0.649515 31 33 49
-84.1063 -776.289 -2316.74 0.575467 0.434009 -0.676363 31 33 48
-92.092 -770.525 -2317.75 0.499969 0.467917 -0.711087 25 28 42
-327.803 3.02034 -2320.31 0.336564 0.136938 -0.925139 235 234 237
-285.752 -171.852 -2319.93 0.862692 0.277513 0.360401 240 243 248
-249.766 -189.113 -2317.56 0.965026 0.138991 -0.235728 253 253 253
-250.637 -186.674 -2317.85 0.969765 0.148251 -0.205735 253 253 253
-252.421 -181.191 -2316.03 0.969125 0.183151 -0.10556 253 253 253
-254.038 -173.183 -2317.61 0.982827 0.034362 0.0700755 254 254 253
-252.992 -166.608 -2319.67 0.949834 0.0511344 0.243578 253 253 253
-254.28 -161.271 -2319.08 0.91847 0.170549 0.309131 253 253 253
-741.325 60.3352 -2313.94 -0.464223 -0.0641221 -0.891589 195 158 129
-769.218 95.3338 -2315.53 -0.276919 -0.0939265 -0.792158 227 188 164
-741.375 95.8928 -2314.83 -0.322237 0.195506 -0.821746 235 201 184
-728.713 49.6473 -2319.33 -0.0102841 0.227929 -0.80818 166 138 118
-726.502 55.3663 -2315.02 -0.0112132 0.0194882 -0.966784 163 136 116
-720.216 54.8132 -2317.02 -0.0176368 0.30133 -0.910483 161 134 111
-714.904 55.8104 -2317.86 -0.059264 0.504827 -0.837082 168 138 113
-698.888 54.9622 -2318.57 0.0660395 0.514507 -0.84619 124 106 91
-695.363 56.0193 -2317.66 0.0950968 0.422334 -0.887326 146 124 106
-686.808 56.4173 -2316.48 0.122833 0.224335 -0.957719 173 145 124
-671.242 43.1837 -2316.7 0.0947379 0.177836 -0.883448 146 125 112
-660.456 41.9332 -2314.67 0.111995 0.155198 -0.901208 151 128 114
-680.853 47.4492 -2318.2 0.0871364 0.303219 -0.889216 136 117 104
-673.283 47.238 -2315.63 0.176218 0.0911721 -0.924002 141 122 110
-679.91 55.3368 -2315.69 0.126249 0.135105 -0.967982 176 149 128
-677.04 50.9891 -2315.77 0.155199 0.127832 -0.944921 154 132 116
-654.659 41.683 -2315.6 -0.0968036 0.261335 -0.874036 163 135 120
-649.322 43.2412 -2316.53 -0.111852 0.216927 -0.892854 168 139 122
-643.243 44.8488 -2319.71 -0.167768 0.37362 -0.832323 161 133 118
-639.628 52.107 -2314.24 -0.206004 0.413222 -0.843055 167 138 121
-733.233 60.3942 -2314.18 -0.175913 0.031339 -0.95422 194 157 129
-732.303 63.618 -2313.9 -0.0766076 0.073947 -0.968025 200 163 133
-710.007 57.2488 -2318.01 -0.0714602 0.580568 -0.811414 169 138 113
-702.105 60.8833 -2315.64 -0.0466487 0.475561 -0.869758 186 153 126
-695.483 62.8266 -2315.13 -0.00516029 0.339076 -0.929572 202 166 138
-690.985 59.2201 -2316.23 0.0810945 0.29055 -0.943029 181 151 128
-690.222 68.6549 -2313.73 -0.0529233 0.249324 -0.969689 222 183 152
-719.475 95.0119 -2315.48 -0.139142 -0.252891 -0.947265 237 196 175
-716.599 91.371 -2314.39 -0.202191 -0.263409 -0.943551 243 201 179
-721.261 101.205 -2319.78 -0.000854716 -0.276697 -0.924746 202 167 153
-707.74 88.5237 -2313.83 -0.086594 -0.300957 -0.942777 245 204 183
-699.204 94.6527 -2315.35 0.166697 -0.208729 -0.954963 236 197 178
-202.625 170.597 -2313.53 0.299442 -0.619296 -0.723773 252 253 254
-198.925 168.101 -2316.32 0.322393 -0.543099 -0.767653 253 253 253
-204.073 174.635 -2318.05 0.234319 -0.458934 -0.803495 253 253 253
-197.674 175.891 -2314.15 0.266406 -0.602592 -0.734014 252 253 253
-190.248 170.349 -2313.9 0.353711 -0.555508 -0.752775 253 253 252
-191.057 173.628 -2319.04 0.385944 -0.555078 -0.743373 255 254 252
-183.509 177.574 -2316.99 0.407366 -0.521047 -0.751231 254 253 251
-189.477 183.091 -2314.75 0.339324 -0.573268 -0.713955 254 252 250
-181.358 176.324 -2314.2 0.402685 -0.503364 -0.768339 254 253 251
-178.058 179.04 -2314.87 0.42612 -0.473063 -0.76831 254 252 250
-220.932 191.597 -2316.06 -0.230053 -0.571407 -0.748552 253 253 253
-220.145 197.466 -2319.74 -0.170614 -0.570947 -0.772769 253 253 253
-211.859 194.598 -2318.83 0.0433115 -0.610619 -0.75387 253 253 252
-206.479 197.04 -2319.61 0.0846231 -0.579995 -0.782281 253 253 253
-199.303 198.058 -2318.06 0.144396 -0.580548 -0.789466 253 253 254
-192.433 187.443 -2318.64 0.230711 -0.631312 -0.642762 253 250 247
-188.296 187.239 -2316.54 0.35831 -0.59977 -0.642343 253 250 246
-185.817 193.396 -2314.35 0.292718 -0.640618 -0.667306 254 253 250
-180.992 189.705 -2314.97 0.364323 -0.543578 -0.70934 254 251 247
-176.345 185.762 -2315.71 0.456704 -0.404999 -0.757091 253 250 245
-171.31 195.154 -2317.19 0.481925 -0.393066 -0.739536 249 235 224
102.028 165.202 -2319.71 -0.108881 -0.223839 -0.949218 254 253 252
103.658 166.5 -2319.97 -0.184198 -0.32449 -0.902083 254 253 252
-243.8 -834.692 -2310.19 0.961579 0.274069 -0.0213991 36 36 48
-244.878 -831.6 -2306.17 0.951173 0.229113 -0.101447 34 34 46
-220.131 -922.229 -2313.39 0.981954 0.144229 0.0368269 32 32 43
-175.458 -915.773 -2312.61 -0.71267 0.18134 -0.57967 26 28 44
-174.938 -912.878 -2313.03 -0.641366 0.13704 -0.516963 27 29 44
-177.73 -902.155 -2307.82 -0.795799 0.105764 -0.676488 26 28 44
-175.958 -891.409 -2307.94 -0.835151 0.0759631 -0.556225 29 31 47
-173.149 -888.632 -2311.82 -0.853935 0.0764489 -0.548902 29 31 47
-173.517 -881.022 -2310.3 -0.834309 0.0107848 -0.548414 29 31 47
-173.028 -873.274 -2312.19 -0.844562 -0.116082 -0.510872 28 30 46
-174.126 -867.179 -2312.74 -0.849512 -0.188146 -0.4893 29 31 47
-175.784 -861.124 -2313.46 -0.848302 -0.227586 -0.480291 30 32 48
-179.797 -848.791 -2310.03 -0.886289 -0.138972 -0.434053 31 34 50
-180.803 -842.715 -2308.86 -0.911831 -0.0656413 -0.402912 31 34 50
-180.826 -835.22 -2308.55 -0.914002 0.0389806 -0.398966 30 33 49
-178.745 -823.801 -2310.71 -0.865956 0.153613 -0.468884 27 29 45
-115.194 -1136.44 -2312.41 0.507666 -0.577253 -0.582492 188 163 139
-110.038 -1134.74 -2308.28 0.583883 -0.483638 -0.578004 196 171 145
-41.9996 -1160.25 -2308.92 -0.800431 -0.553967 0.204184 255 226 197
-44.02 -1158.07 -2310.06 -0.782715 -0.577212 0.203218 255 226 197
-36.9806 -1167.05 -2313.94 -0.77532 -0.607543 0.151212 255 228 199
-24.127 -1176.19 -2309.05 -0.500224 -0.787906 0.223371 254 233 204
-39.066 -1163.99 -2312.43 -0.773522 -0.601221 0.173194 254 226 197
-50.5487 -1150.33 -2311.18 -0.794343 -0.553977 0.188532 255 225 195
-52.5571 -1146.99 -2309.75 -0.841437 -0.492767 0.165205 255 224 193
-61.7599 -1127.69 -2307.55 -0.810215 -0.519811 -0.111069 106 91 77
-12.1581 -633.114 -2313.8 -0.932374 0.136043 -0.279042 34 35 51
-12.6242 -630.408 -2308.4 -0.950459 0.223522 -0.135024 34 35 51
-8.17376 -620.354 -2310.74 -0.919181 0.303694 -0.248994 32 33 49
-4.57467 -610.848 -2312.65 -0.944126 0.206286 -0.230891 33 34 50
-4.32348 -605.082 -2310.4 -0.943922 0.157979 -0.277046 33 34 50
-3.55524 -594.36 -2308.48 -0.930633 0.166669 -0.328099 36 37 53
-1.25835 -592.61 -2313.43 -0.93599 0.186711 -0.291039 36 36 52
3.30901 -578.104 -2314.5 -0.949947 0.213697 -0.227528 39 38 56
2.52889 -572.391 -2310.78 -0.948355 0.111698 -0.277324 39 38 57
1.30161 -564.157 -2311.05 -0.929995 -0.0679556 -0.36326 42 41 60
0.793826 -555.866 -2311.19 -0.939889 -0.0442897 -0.293639 43 41 60
2.00595 -547.124 -2311.53 -0.938343 0.118983 -0.235923 42 40 60
5.22116 -537.819 -2309.06 -0.942346 0.317678 -0.109074 41 39 59
8.83309 -528.911 -2308.51 -0.940204 0.330677 -0.0658052 42 40 59
10.7904 -519.984 -2308.22 -0.952114 0.207166 -0.110122 41 39 57
11.0656 -515.072 -2308.84 -0.963355 0.0909638 -0.138958 39 37 55
9.9763 -487.079 -2308.57 -0.990152 -0.0747523 -0.107643 44 41 58
11.5367 -507.876 -2312.31 -0.977134 0.06598 -0.0278576 42 40 58
11.0103 -495.215 -2310.81 -0.986559 0.00105661 -0.0841555 43 41 58
8.54419 -477.787 -2307.1 -0.988097 -0.130372 -0.111168 45 42 59
8.64062 -467.374 -2312.98 -0.980109 -0.057992 -0.121636 43 41 56
9.35638 -458.817 -2312.06 -0.982657 0.0974709 -0.0214646 45 43 58
-378.896 34.0402 -2313.04 0.26222 0.290642 -0.915102 250 250 252
-381.93 42.8809 -2311.2 0.272094 0.289303 -0.913604 249 249 251
-393.552 48.715 -2313.35 0.330225 0.361893 -0.868631 252 252 254
-391.07 51.2271 -2311.39 0.279911 0.349556 -0.890514 250 250 252
-384.072 47.2511 -2310.69 0.274279 0.290325 -0.912516 249 249 251
-380.257 46.339 -2309.81 0.260255 0.277426 -0.921248 247 247 249
-386.338 55.4287 -2308.99 0.206085 0.27305 -0.936183 247 247 249
-325.309 17.822 -2313.3 0.321778 0.395785 -0.849173 224 223 225
-338.533 30.4687 -2310.04 0.112273 0.399148 -0.902357 232 233 235
-333.014 23.3955 -2312.33 0.173469 0.431509 -0.88089 222 223 225
-334.693 27.6869 -2310.36 0.156248 0.405697 -0.891479 228 229 230
-326.555 26.8626 -2308.12 0.311938 0.429594 -0.837541 233 233 234
-370.582 34.0415 -2312.63 0.12185 0.385249 -0.906715 246 246 248
-375.029 39.8197 -2310.41 0.189587 0.321285 -0.923784 246 246 248
-365.819 41.7244 -2307.96 0.138136 0.411392 -0.895897 243 243 245
-359.891 36.3718 -2310.39 0.110515 0.461457 -0.877104 239 239 241
-351.072 34.332 -2309.9 0.134355 0.470051 -0.8681 234 234 236
-371.786 44.9666 -2308.01 0.177485 0.33215 -0.923841 243 243 245
-348.405 37.1108 -2307.92 0.113246 0.533875 -0.838959 238 238 240
-337.639 37.511 -2307.41 0.0410145 0.393322 -0.909161 246 246 248
-414.042 61.4977 -2312.21 0.142483 0.525866 -0.827353 252 252 253
-422.793 67.7548 -2308.25 0.134032 0.374875 -0.873937 253 251 252
-412.582 59.3141 -2313.21 0.178903 0.531033 -0.816557 252 252 253
-402.368 59.0089 -2310.94 0.220882 0.452136 -0.86203 252 252 254
-412.081 68.4093 -2309.06 0.0460016 0.366162 -0.909861 252 252 254
-424.058 69.9745 -2306.72 0.135509 0.28832 -0.903938 254 252 252
-414.095 70.071 -2308.68 0.00821981 0.34716 -0.918956 252 252 253
-409.079 80.2093 -2307.48 -0.0871361 0.203459 -0.972234 252 252 254
-403.095 79.141 -2308.22 -0.0586945 0.181168 -0.972186 251 251 253
-392.534 60.9457 -2309.01 0.157831 0.272259 -0.94044 248 248 250
-398.879 63.6491 -2308.98 0.153191 0.32888 -0.921527 250 250 252
-389.094 63.1295 -2308.62 0.118853 0.183774 -0.966583 247 247 249
-381.549 59.5601 -2307.86 0.173159 0.114964 -0.970642 246 246 248
-378.987 67.4149 -2307.66 0.182936 -0.00429515 -0.978296 248 248 250
-393.383 74.2084 -2309.24 0.00331028 0.086774 -0.985152 250 250 252
-396.747 78.6611 -2308.91 -0.0549749 0.141443 -0.977066 252 252 254
-386.601 74.401 -2309.32 0.0450367 0.0388837 -0.98643 251 251 253
-378.013 72.5623 -2307.89 0.235383 -0.0140221 -0.963566 252 252 253
-384.872 78.6895 -2309.12 0.0358608 0.0724887 -0.982973 252 252 254
-378.944 82.5508 -2308.16 0.0929929 0.130312 -0.96976 253 253 255
-199.082 170.75 -2312.67 0.316627 -0.605246 -0.730385 252 253 254
-208.243 180.273 -2307.65 0.0257741 -0.749174 -0.655795 253 253 253
-195.469 175.028 -2313.06 0.285086 -0.610486 -0.728487 252 253 253
-190.628 172.286 -2312.82 0.338924 -0.56221 -0.750589 253 253 252
-192.365 176.329 -2313.09 0.30995 -0.579908 -0.741815 253 253 252
-182.944 184.09 -2313.12 0.355433 -0.555266 -0.748554 254 254 251
-178.925 181.849 -2312.74 0.410264 -0.463092 -0.777517 253 251 248
-220.714 186.095 -2312.09 -0.204485 -0.558679 -0.750345 253 253 253
-197.38 191.21 -2311.15 0.240276 -0.638254 -0.721463 253 253 253
-190.037 193.505 -2311.25 0.260731 -0.678184 -0.667017 254 253 252
-187.251 193.596 -2310.96 0.265587 -0.678273 -0.667577 254 254 252
-177.035 193.548 -2311.42 0.3408 -0.516864 -0.735017 253 249 243
-176.307 193.733 -2313.56 0.36974 -0.476532 -0.746376 252 247 240
-62.2797 318.75 -2310.24 -0.972653 0.132497 0.176112 229 188 173
-61.9903 327.627 -2312.01 -0.96953 0.061805 0.246002 223 181 167
-60.4317 336.107 -2308.26 -0.970427 0.0461953 0.225179 234 194 184
-62.2833 341.907 -2312.63 -0.971877 0.029738 0.231704 220 181 168
-63.5344 356.098 -2311.69 -0.972739 -0.0766651 -0.025859 144 116 110
-66.3316 365.194 -2312.07 -0.917611 -0.345965 -0.0147704 102 83 83
-66.8261 366.097 -2312.11 -0.911468 -0.378339 -0.00440858 98 81 81
-72.5989 374.974 -2313.65 -0.849404 -0.465596 0.0754452 74 65 72
-73.6958 387.114 -2309.85 -0.841866 -0.397422 0.320006 69 60 66
-260.713 203.279 -2308.72 -0.139563 -0.394939 -0.881402 229 229 230
-268.169 200.367 -2312.32 0.0814744 -0.288604 -0.87744 239 239 239
-266.263 201.846 -2319.46 0.144147 -0.315108 -0.835442 249 249 249
-268.867 199.72 -2309.94 0.0813698 -0.273983 -0.887393 237 237 238
-181.807 -821.589 -2304.51 -0.86827 0.107899 -0.480393 26 28 44
-247.379 -802.794 -2302.76 0.937614 0.215757 -0.266164 34 35 47
-249.683 -797.82 -2305.22 0.949016 0.245134 -0.233909 35 36 48
-246.944 -807.698 -2304.54 0.954007 0.167854 -0.190956 33 35 47
-252.7 -789.066 -2306.21 0.965294 0.13582 -0.182089 35 37 48
-252.852 -786.081 -2304.9 0.945323 0.0703099 -0.186098 34 36 48
-249.821 -767.645 -2301.07 0.977786 -0.0786176 -0.159218 32 33 45
-250.229 -765.303 -2303.23 0.991063 -0.02435 -0.1097 32 33 45
-253.5 -751.65 -2305.56 0.947046 0.209851 -0.239459 37 38 50
-254.456 -742.873 -2303.61 0.953434 0.181861 -0.241522 45 45 57
-255.397 -738.814 -2304.18 0.95591 0.183166 -0.226509 45 45 57
-258.758 -729.567 -2306.6 0.964542 0.218689 -0.110322 41 42 53
-261.704 -720.664 -2300.66 0.977746 0.163207 -0.0229007 38 39 51
-179.306 -813.009 -2306.75 -0.821507 0.155544 -0.542733 24 26 42
-180.322 -807.823 -2304.4 -0.80598 0.127329 -0.569692 25 27 43
-281.525 -468.617 -2303.68 0.980542 0.0536603 0.0595591 42 42 60
-283.296 -453.7 -2303.25 0.971405 0.143157 0.0343456 44 44 61
-284.112 -450.901 -2302.48 0.971306 0.173245 -0.037536 45 46 62
-285.697 -435.949 -2303.54 0.96508 -0.015097 -0.147264 49 50 66
-285.4 -428.933 -2304.48 0.972603 -0.170056 0.0565357 48 49 64
-284.829 -424.435 -2301.62 0.977244 -0.107822 0.0359348 49 50 65
-283.688 -418.675 -2305.69 0.967621 -0.149776 0.187376 50 50 65
-116.881 -1143.67 -2302.34 0.378196 -0.745708 -0.5199 225 195 166
-108.687 -1138.5 -2301.31 0.424741 -0.654336 -0.552178 218 190 161
-107.263 -1129.5 -2306.13 0.466043 -0.30638 -0.653592 152 134 119
-14.8719 -689.524 -2305 -0.942331 0.230153 -0.0782499 37 38 51
-10.8213 -677.627 -2303.45 -0.941441 0.236162 -0.145436 37 38 51
-10.1386 -669.284 -2304.28 -0.95264 -0.0127653 -0.266092 36 37 51
-12.5652 -661.793 -2302.66 -0.947542 -0.157958 -0.289612 35 36 50
-13.9262 -655.402 -2303.44 -0.950376 -0.189295 -0.260884 35 36 50
-14.5203 -635.469 -2302.9 -0.974857 0.160492 0.0455453 36 37 53
-11.4063 -626.004 -2303.24 -0.951853 0.250067 -0.0504685 34 35 51
-9.57834 -616.691 -2302.11 -0.957635 0.216769 -0.0996168 32 33 49
-6.56082 -612.667 -2308.34 -0.935963 0.229488 -0.241338 33 34 50
-5.26675 -602.12 -2307.12 -0.941041 0.142287 -0.303827 34 35 52
-4.68179 -594.156 -2305.18 -0.932574 0.16715 -0.315438 36 37 53
-2.42857 -581.746 -2301.86 -0.917154 0.263679 -0.302223 35 36 54
-1.41107 -575.019 -2302.17 -0.941587 0.128041 -0.287143 35 35 53
-0.334298 -564.754 -2303.47 -0.959508 0.00584072 -0.223422 39 38 57
-0.495541 -560.329 -2304.74 -0.956799 -0.0263498 -0.223592 41 39 58
0.382116 -551.497 -2302.8 -0.97183 0.114157 -0.0920759 40 38 58
3.1645 -541.359 -2302.36 -0.956297 0.275012 -0.0896281 42 40 59
-630.277 83.7556 -2306.71 0.217425 0.257925 -0.938561 252 217 197
-622.841 87.1403 -2303.12 0.147008 0.284147 -0.94399 254 220 200
-627.477 92.6192 -2302.11 0.213423 0.247211 -0.944132 255 220 203
-619.793 85.1187 -2303.42 0.0852654 0.315986 -0.936293 251 217 196
-612.311 89.1823 -2302.93 -0.103687 0.295487 -0.927778 252 221 201
-612.805 89.6158 -2302.66 -0.0919757 0.29136 -0.930707 253 221 201
-630.194 95.2779 -2302.81 0.231846 0.21703 -0.943916 255 219 202
-626.517 98.9216 -2301.8 0.183011 0.130879 -0.963154 255 220 203
-628.218 103.048 -2303.38 0.158185 0.110239 -0.965416 255 220 202
-614.649 99.7347 -2301.67 -0.0357417 0.0469062 -0.980541 255 223 206
-610.606 98.848 -2302.65 -0.130633 0.0815149 -0.965513 254 225 207
-608.503 106.934 -2302.54 -0.0881628 0.0472934 -0.983178 255 227 211
-605.183 87.1943 -2306.24 -0.295412 0.294719 -0.894049 248 219 196
-605.35 95.0622 -2304.66 -0.264395 0.164743 -0.931137 254 227 210
-601.034 99.0125 -2305.43 -0.27345 0.166315 -0.933637 255 232 216
-603.421 107.565 -2302.62 -0.133972 0.147713 -0.963289 255 230 214
-596.78 105.621 -2303.81 -0.187016 0.278373 -0.932136 255 234 217
-588.644 106.805 -2304.86 -0.189338 0.335199 -0.91677 255 239 220
-562.135 66.7539 -2307.49 0.0491322 0.407289 -0.905036 179 146 124
-571.951 78.6112 -2306.96 0.117119 0.0828126 -0.989129 229 197 173
-567.899 71.4487 -2306.78 0.0885456 0.264267 -0.948829 205 171 146
-567.555 78.5597 -2306.16 0.110811 0.0864798 -0.98933 231 199 174
-557.729 81.2265 -2304.18 0.119546 0.0515658 -0.988319 238 211 184
-550.935 74.9356 -2305.61 -0.115236 0.36743 -0.890892 217 182 155
-551.121 78.0579 -2304.24 -0.0142977 0.255981 -0.929121 227 196 170
-545.931 80.0246 -2304.2 -0.0360706 0.306939 -0.898147 232 202 176
-533.743 77.7786 -2306.43 -0.118173 0.615953 -0.771661 214 179 154
-565.37 85.5562 -2306.62 0.13264 -0.0654677 -0.986444 245 225 201
-556.265 87.6109 -2304.91 0.173261 -0.109966 -0.975123 247 229 205
-550.542 84.5191 -2302.88 0.142717 0.0465335 -0.970375 242 220 195
-543.313 84.9975 -2301.77 0.118423 0.14501 -0.943047 240 221 198
-543.553 94.5447 -2301.61 0.272277 -0.106784 -0.951309 248 240 220
-540.351 83.231 -2302.7 0.0246681 0.292561 -0.904891 234 211 187
-541.865 94.7851 -2301.12 0.241373 -0.0846445 -0.955748 247 239 219
-543.217 98.9258 -2303.49 0.244002 -0.245783 -0.918485 250 245 225
-540.957 99.5856 -2303.09 0.189731 -0.245147 -0.921951 250 245 225
-539.038 106.609 -2307.13 0.128299 -0.566352 -0.801164 252 249 228
-533.332 104.446 -2304.83 0.0316847 -0.457902 -0.85062 252 247 225
-624.686 110.479 -2305.34 0.0433863 0.0893296 -0.981367 255 224 208
-614 108.985 -2303.3 -0.0113261 -0.018333 -0.995616 255 225 208
-606.846 113.626 -2302.61 -0.0867185 0.162066 -0.969318 255 229 213
-611.585 120.583 -2306.18 -0.0642652 0.210039 -0.969663 254 228 212
-601.369 109.801 -2301.97 -0.137966 0.22465 -0.951974 255 231 214
-603.968 117.166 -2302.72 -0.11371 0.253006 -0.950351 254 230 213
-599.086 118.405 -2301.98 -0.140635 0.324403 -0.935307 254 232 214
-179.587 316.375 -2303.79 0.800896 0.512451 0.289645 239 189 174
-183.627 339.407 -2301.75 0.910757 -0.0471863 -0.198537 225 188 176
-183.555 344.18 -2305.86 0.893 -0.0250826 0.0530933 213 175 165
-182.131 352.102 -2302.3 0.946651 -0.119035 0.0422052 191 158 151
-178.239 361.514 -2306.67 0.900185 -0.168453 -0.186324 153 126 121
-174.599 369.267 -2302.62 0.927801 -0.183612 -0.208578 167 139 133
-174.464 372.953 -2302.29 0.946211 -0.0614829 -0.138798 159 133 128
-180.327 386.99 -2300.78 0.809393 0.478025 0.0319547 92 78 80
-181.499 395.818 -2301.29 0.875647 0.30321 -0.108486 71 60 65
-180.041 401.035 -2304.46 0.978358 0.0943407 -0.126654 80 68 73
8.68262 -398.914 -2300.88 -0.967325 -0.234543 0.0651586 46 44 61
7.54529 -392.22 -2305.29 -0.977659 -0.0968061 0.064036 46 44 60
8.73345 -383.33 -2307.3 -0.95359 0.128768 0.181926 47 45 61
58.2062 58.5898 -2302.1 -0.532216 0.0377956 -0.841652 253 253 253
60.7254 68.5992 -2303.91 -0.569599 -0.0669232 -0.816372 253 253 253
58.065 70.919 -2302.13 -0.588901 -0.0560864 -0.804532 253 253 253
61.1387 80.1554 -2306.41 -0.579762 -0.165901 -0.797198 253 253 253
68.4248 59.0818 -2307.15 -0.466814 -0.00966079 -0.872841 253 253 253
62.6095 76.7654 -2306.75 -0.588207 -0.140613 -0.796555 253 253 253
53.2599 87.9923 -2303.53 -0.440937 -0.236201 -0.85449 253 253 253
52.3583 90.2085 -2303.89 -0.4239 -0.222048 -0.867364 253 253 253
40.4397 99.6697 -2301.04 -0.388636 -0.150433 -0.904047 253 253 253
40.7616 102.909 -2301.53 -0.400306 -0.117043 -0.90487 253 253 253
47.7431 103.33 -2304.23 -0.381659 -0.0812319 -0.916733 253 253 253
54.7733 107.598 -2307.01 -0.436275 0.0170572 -0.893258 253 253 253
