ply
format ascii 1.0
comment Created by Open3D
element vertex 1336
property double x
property double y
property double z
property uchar red
property uchar green
property uchar blue
end_header
-68.9043 -522.633 -1618 222 228 248
-66.0643 -526.479 -1630 216 222 242
-63.8296 -535.816 -1659 212 218 238
-61.9132 -549.03 -1700 213 217 238
-59.8289 -562.244 -1741 214 218 240
-57.3827 -573.52 -1776 212 216 239
-54.2486 -578.985 -1793 213 219 238
-50.5376 -578.638 -1792 211 217 236
-46.831 -578.294 -1791 135 141 158
-231.133 -524.642 -1603 126 130 149
-229.052 -527.482 -1612 214 220 239
-226.375 -529.013 -1617 219 227 246
-222.438 -527.602 -1613 218 226 245
-218.928 -527.175 -1612 217 224 243
-215.289 -526.421 -1610 215 223 243
-211.793 -525.997 -1609 214 222 242
-208.173 -525.247 -1607 213 221 241
-204.563 -524.5 -1605 212 220 240
-200.838 -523.427 -1602 209 217 237
-197.128 -522.356 -1599 211 219 238
-193.552 -521.614 -1597 213 221 240
-189.868 -520.547 -1594 214 222 241
-186.315 -519.808 -1592 217 225 244
-182.541 -518.418 -1588 220 228 247
-179.238 -518.336 -1588 222 230 249
-175.715 -517.602 -1586 222 230 249
-172.201 -516.871 -1584 222 229 249
-168.804 -516.467 -1583 218 224 244
-165.412 -516.065 -1582 209 215 235
-162.129 -515.99 -1582 205 211 230
-158.545 -514.939 -1579 205 211 230
-155.468 -515.52 -1581 208 214 233
-151.998 -514.798 -1579 210 216 235
-148.726 -514.73 -1579 206 210 231
-145.455 -514.663 -1579 207 212 231
-142.186 -514.598 -1579 210 215 233
-138.566 -513.231 -1575 210 215 232
-135.479 -513.82 -1577 208 213 231
-132.134 -513.434 -1576 210 216 234
-128.876 -513.375 -1576 217 223 241
-125.459 -512.666 -1574 221 226 246
-122.129 -512.284 -1573 222 226 246
-118.805 -511.904 -1572 220 225 244
-115.78 -512.828 -1575 217 223 242
-112.457 -512.45 -1574 217 223 243
-109.487 -513.702 -1578 217 222 243
-106.433 -514.63 -1581 218 222 244
-103.173 -514.583 -1581 216 223 243
-100.166 -515.839 -1585 217 224 244
-96.8376 -515.469 -1584 220 227 247
-93.6917 -516.076 -1586 225 230 251
-90.5382 -516.685 -1588 227 232 253
-87.5971 -518.597 -1594 226 232 252
-84.4734 -519.534 -1597 227 231 252
-81.3888 -520.798 -1601 226 230 251
-78.2397 -521.738 -1604 223 227 248
-75.2658 -523.98 -1611 220 224 245
-72.1744 -525.573 -1616 218 222 243
-69.0631 -527.167 -1621 217 223 243
-66.2967 -531.69 -1635 214 219 240
-64.2817 -543.041 -1670 212 218 238
-60.1652 -568.998 -1750 214 218 240
-57.4086 -577.425 -1776 213 217 240
-54.2125 -582.276 -1791 215 221 241
-50.5038 -581.928 -1790 198 204 222
-46.5643 -578.655 -1780 104 110 127
-232.105 -530.174 -1609 126 129 148
-229.868 -532.704 -1617 213 219 238
-226.619 -532.928 -1618 218 226 246
-222.264 -530.519 -1611 217 224 244
-218.892 -530.418 -1611 217 223 242
-214.987 -529.001 -1607 215 223 243
-211.495 -528.574 -1606 214 222 242
-208.139 -528.478 -1606 214 222 242
-205.039 -529.041 -1608 212 220 240
-201.306 -527.961 -1605 209 217 237
-197.588 -526.882 -1602 210 218 238
-194.004 -526.135 -1600 213 221 240
-190.193 -524.731 -1596 218 226 245
-186.634 -523.988 -1594 222 230 249
-183.2 -523.574 -1593 225 234 252
-179.546 -522.505 -1590 226 235 251
-175.684 -520.781 -1585 224 232 252
-172.279 -520.372 -1584 219 226 246
-168.987 -520.294 -1584 213 219 239
-165.592 -519.889 -1583 206 212 231
-162.203 -519.486 -1582 201 207 226
-158.718 -518.756 -1580 199 205 224
-155.538 -519.012 -1581 200 205 225
-152.163 -518.614 -1580 203 207 228
-148.888 -518.545 -1580 201 205 226
-145.245 -517.165 -1576 205 209 229
-142.251 -518.084 -1579 208 213 230
-138.717 -517.035 -1576 209 214 231
-135.627 -517.629 -1578 208 212 230
-132.11 -516.584 -1575 213 217 237
-129.098 -517.508 -1578 219 224 243
-125.596 -516.466 -1575 222 228 247
-122.418 -516.737 -1576 224 228 248
-119.086 -516.354 -1575 221 227 246
-115.685 -515.645 -1573 218 224 243
-112.794 -517.232 -1578 216 222 242
-109.536 -517.181 -1578 216 221 241
-106.549 -518.443 -1582 216 220 241
-103.285 -518.395 -1582 216 222 242
-100.085 -518.677 -1583 218 224 244
-96.9428 -519.287 -1585 221 227 247
-93.7341 -519.571 -1586 227 231 252
-90.5222 -519.857 -1587 227 231 252
-87.5818 -521.782 -1593 224 230 250
-84.4588 -522.725 -1596 223 227 248
-81.3239 -523.67 -1599 220 224 245
-78.2752 -525.271 -1604 216 220 241
-75.2065 -526.873 -1609 215 219 240
-72.1178 -528.477 -1614 214 218 239
-69.0944 -530.737 -1621 215 219 240
-66.4484 -536.272 -1638 216 220 241
-64.7729 -550.647 -1682 215 219 240
-60.674 -577.434 -1764 215 219 241
-57.7256 -584.281 -1785 219 223 246
-54.5702 -589.82 -1802 220 224 244
-51.0348 -591.76 -1808 178 182 202
-232.212 -533.748 -1609 119 123 141
-229.405 -534.968 -1613 209 215 234
-226.444 -535.857 -1616 217 225 245
-222.367 -534.095 -1611 216 223 243
-218.857 -533.661 -1610 218 224 243
-215.22 -532.898 -1608 215 223 243
-211.724 -532.468 -1607 214 222 242
-208.364 -532.371 -1607 212 220 240
-204.879 -531.944 -1606 211 219 239
-201.399 -531.519 -1605 210 218 238
-197.432 -529.771 -1600 212 220 240
-193.851 -529.018 -1598 217 224 243
-189.804 -526.944 -1592 221 227 246
-186.603 -527.188 -1593 222 230 249
-182.939 -526.11 -1590 225 232 250
-179.289 -525.034 -1587 226 232 249
-175.986 -524.951 -1587 221 228 247
-172.468 -524.21 -1585 215 222 242
-169.172 -524.131 -1585 208 214 234
-165.878 -524.054 -1585 202 208 227
-162.482 -523.647 -1584 199 205 224
-158.992 -522.912 -1582 197 203 222
-155.807 -523.17 -1583 198 203 223
-152.329 -522.438 -1581 200 204 225
-149.145 -522.699 -1582 199 203 224
-145.588 -521.64 -1579 201 205 224
-142.496 -522.235 -1581 202 207 224
-138.957 -521.179 -1578 204 209 226
-135.689 -521.116 -1578 205 210 228
-132.255 -520.394 -1576 213 217 237
-129.239 -521.324 -1579 214 220 238
-125.813 -520.606 -1577 215 220 238
-122.552 -520.548 -1577 216 220 240
-119.291 -520.493 -1577 215 220 240
-116.032 -520.439 -1577 212 218 237
-113.06 -521.706 -1581 210 216 236
-109.934 -522.315 -1583 212 217 237
-106.8 -522.925 -1585 215 219 240
-103.397 -522.217 -1583 216 222 242
-100.131 -522.17 -1583 217 223 243
-96.9259 -522.455 -1584 219 225 245
-93.8361 -523.401 -1587 221 226 246
-90.6777 -524.018 -1589 220 224 245
-87.6768 -525.626 -1594 217 223 243
-84.6032 -526.906 -1598 219 223 244
-81.5137 -528.186 -1602 219 223 244
-78.5062 -530.128 -1608 216 220 241
-75.3811 -531.411 -1612 216 220 241
-72.2849 -533.026 -1617 216 220 241
-69.4245 -536.619 -1628 215 219 240
-66.9659 -543.839 -1650 213 217 238
-65.1492 -557.322 -1691 212 216 237
-63.4197 -573.112 -1739 214 218 239
-60.977 -583.959 -1772 218 222 243
-57.7842 -588.546 -1786 220 224 247
-54.4435 -592.145 -1797 214 219 238
-50.8603 -593.439 -1801 150 155 172
-233.042 -538.997 -1614 111 115 133
-229.796 -539.223 -1615 209 215 233
-226.829 -540.117 -1618 215 223 242
-223.023 -539.011 -1615 216 223 242
-219.095 -537.573 -1611 217 223 242
-215.32 -536.471 -1608 214 222 242
-212.086 -536.705 -1609 212 220 240
-208.461 -535.94 -1607 211 219 238
-204.974 -535.51 -1606 212 220 239
-201.493 -535.082 -1605 215 223 243
-197.894 -534.322 -1603 219 227 246
-194.062 -532.898 -1599 221 228 247
-190.249 -531.475 -1595 223 229 248
-186.806 -531.055 -1594 223 230 249
-183.254 -530.302 -1592 221 228 247
-179.824 -529.885 -1591 217 223 241
-176.29 -529.136 -1589 212 218 237
-172.765 -528.389 -1587 209 215 234
-169.25 -527.644 -1585 202 208 227
-165.954 -527.566 -1585 197 203 221
-162.557 -527.157 -1584 195 201 219
-158.965 -526.084 -1581 194 200 219
-155.977 -527.009 -1584 194 199 219
-152.593 -526.605 -1583 199 203 224
-149.214 -526.202 -1582 197 201 221
-145.932 -526.134 -1582 197 202 220
-142.652 -526.067 -1582 200 205 222
-138.933 -524.339 -1577 205 208 226
-135.666 -524.276 -1577 207 211 228
-132.316 -523.881 -1576 208 213 231
-129.216 -524.485 -1578 206 211 229
-125.871 -524.094 -1577 203 209 226
-122.841 -525.033 -1580 206 210 230
-119.649 -525.31 -1581 206 210 230
-116.38 -525.255 -1581 203 208 228
-113.041 -524.87 -1580 203 208 228
-109.915 -525.483 -1582 205 209 230
-106.782 -526.097 -1584 209 212 233
-103.38 -525.384 -1582 207 213 232
-100.367 -526.665 -1586 207 213 232
-97.0929 -526.62 -1586 210 216 236
-93.9385 -527.24 -1588 214 218 239
-90.8907 -528.525 -1592 216 220 241
-87.7171 -529.148 -1594 216 222 242
-84.6421 -530.436 -1598 217 222 243
-81.6021 -532.057 -1603 217 221 242
-78.4934 -533.348 -1607 218 222 243
-75.4625 -535.303 -1613 219 223 244
-72.5417 -538.256 -1622 218 222 243
-69.8403 -543.201 -1637 213 217 238
-67.6056 -552.46 -1665 209 213 234
-65.9115 -567.36 -1710 207 211 232
-63.996 -581.928 -1754 209 213 234
-61.1427 -589.198 -1776 217 221 243
-57.8432 -592.82 -1787 219 224 247
-54.4079 -595.448 -1795 209 213 231
-50.7989 -596.419 -1798 116 120 137
-234.018 -544.609 -1620 101 104 123
-230.901 -545.172 -1622 206 212 229
-227.917 -546.072 -1625 213 221 240
-224.233 -545.294 -1623 214 221 240
-220.014 -543.174 -1617 216 222 241
-215.822 -541.056 -1611 216 223 243
-212.581 -541.291 -1612 214 222 242
-208.818 -540.185 -1609 213 221 240
-205.197 -539.417 -1607 212 220 240
-201.461 -538.315 -1604 214 222 242
-197.863 -537.55 -1602 220 228 247
-194.153 -536.451 -1599 222 229 248
-190.458 -535.355 -1596 222 228 247
-186.776 -534.26 -1593 221 227 246
-183.57 -534.509 -1594 219 225 244
-180.248 -534.424 -1594 213 219 238
-176.594 -533.335 -1591 208 214 233
-172.954 -532.247 -1588 204 210 229
-169.543 -531.832 -1587 199 205 224
-166.032 -531.083 -1585 196 202 219
-162.736 -531.006 -1585 196 202 219
-159.24 -530.261 -1583 202 206 226
-156.148 -530.857 -1585 205 209 230
-152.856 -530.785 -1585 205 209 230
-149.566 -530.715 -1585 196 200 220
-146.185 -530.311 -1584 197 202 220
-142.899 -530.243 -1584 204 209 226
-139.174 -528.504 -1579 210 212 230
-135.815 -528.105 -1578 209 212 230
-132.461 -527.708 -1577 208 213 230
-129.358 -528.316 -1579 205 210 227
-126.089 -528.257 -1579 201 207 223
-122.976 -528.868 -1581 200 204 223
-119.78 -529.146 -1582 199 203 223
-116.508 -529.09 -1582 199 202 223
-113.379 -529.706 -1584 199 203 224
-110.105 -529.654 -1584 200 203 224
-107.101 -530.941 -1588 202 204 225
-103.689 -530.223 -1586 199 205 224
-100.54 -530.844 -1588 202 208 227
-97.2604 -530.798 -1588 207 213 233
-94.2188 -532.09 -1592 213 217 238
-90.9328 -532.047 -1592 218 222 243
-87.8129 -533.008 -1595 218 224 244
-84.6814 -533.971 -1598 221 225 246
-81.6909 -535.937 -1604 223 227 248
-78.5298 -536.902 -1607 222 226 247
-75.4974 -538.871 -1613 221 225 246
-72.6647 -542.511 -1624 218 222 243
-70.2141 -549.493 -1645 212 216 237
-68.2869 -561.486 -1681 209 213 234
-64.3177 -588.478 -1762 207 211 232
-61.2743 -594.127 -1779 215 220 241
-57.8052 -596.103 -1785 219 225 247
-54.3118 -598.08 -1791 186 191 209
-50.7376 -599.392 -1795 83 88 105
-234.995 -550.253 -1626 100 103 121
-232.007 -551.157 -1629 204 210 227
-228.586 -551.048 -1629 215 223 241
-224.891 -550.264 -1627 216 223 242
-220.798 -548.468 -1622 216 222 241
-216.862 -547.012 -1618 215 223 243
-213.077 -545.896 -1615 214 222 242
-209.046 -544.107 -1610 214 222 241
-205.549 -543.671 -1609 215 223 243
-201.682 -542.223 -1605 218 226 246
-198.079 -541.453 -1603 219 227 246
-194.244 -540.01 -1599 219 226 245
-190.786 -539.581 -1598 218 224 243
-187.451 -539.492 -1598 216 222 241
-183.886 -538.729 -1596 213 219 238
-180.332 -537.968 -1594 209 215 234
-177.01 -537.884 -1594 204 210 229
-173.363 -536.789 -1591 200 206 225
-169.943 -536.371 -1590 199 205 224
-166.424 -535.617 -1588 197 203 220
-163.12 -535.54 -1588 194 200 217
-159.617 -534.789 -1586 200 204 224
-156.517 -535.389 -1588 204 208 229
-153.218 -535.317 -1588 205 209 230
-149.919 -535.245 -1588 198 202 222
-146.438 -534.501 -1586 198 203 221
-143.237 -534.77 -1587 205 210 227
-139.327 -532.345 -1580 213 215 233
-136.051 -532.281 -1580 213 216 234
-132.775 -532.218 -1580 210 214 232
-129.665 -532.83 -1582 206 212 227
-126.388 -532.769 -1582 201 207 222
-123.345 -533.721 -1585 198 203 220
-119.988 -533.327 -1584 198 201 221
-116.636 -532.935 -1583 200 202 223
-113.289 -532.545 -1582 199 201 222
-110.017 -532.492 -1582 199 202 223
-106.881 -533.115 -1584 201 203 224
-103.607 -533.065 -1584 202 208 227
-100.587 -534.364 -1588 206 212 232
-97.4896 -535.326 -1591 212 218 238
-94.2035 -535.282 -1591 217 222 243
-91.0324 -535.911 -1593 220 224 245
-88.0191 -537.551 -1598 219 223 244
-84.7208 -537.511 -1598 220 224 245
-81.729 -539.49 -1604 222 226 247
-78.6153 -540.798 -1608 219 223 244
-75.5794 -542.779 -1614 216 220 241
-72.7881 -546.78 -1626 215 219 240
-70.6739 -556.498 -1655 213 217 238
-64.6033 -594.733 -1769 204 208 229
-61.3717 -598.737 -1781 205 210 231
-57.9616 -601.399 -1789 211 217 239
-54.4584 -603.39 -1795 154 157 175
-235.83 -555.588 -1631 97 100 117
-232.687 -556.157 -1633 202 208 225
-228.975 -555.366 -1631 213 221 239
-225.413 -554.918 -1630 215 222 241
-221.312 -553.109 -1625 217 223 242
-217.636 -552.324 -1623 215 222 242
-213.574 -550.52 -1618 214 222 242
-209.665 -549.058 -1614 216 224 243
-205.647 -547.259 -1609 219 227 246
-201.777 -545.801 -1605 221 229 249
-198.05 -544.686 -1602 216 224 243
-194.215 -543.233 -1598 216 223 242
-190.876 -543.142 -1598 214 220 239
-187.305 -542.372 -1596 211 217 236
-183.973 -542.284 -1596 208 214 233
-180.418 -541.518 -1594 204 210 228
-176.983 -541.093 -1593 201 207 226
-173.553 -540.671 -1592 199 205 224
-170.023 -539.91 -1590 197 203 222
-166.712 -539.83 -1590 195 201 219
-163.403 -539.752 -1590 195 201 218
-159.893 -538.996 -1588 199 204 222
-156.887 -539.939 -1591 202 206 225
-153.58 -539.866 -1591 204 208 229
-150.273 -539.794 -1591 199 203 223
-146.876 -539.384 -1590 197 201 220
-143.395 -538.637 -1588 204 209 226
-139.746 -537.214 -1584 214 216 234
-136.373 -536.809 -1583 213 215 233
-133.258 -537.424 -1585 210 213 232
-130.054 -537.7 -1586 206 210 228
-126.687 -537.301 -1585 202 207 224
-123.403 -537.241 -1585 198 203 220
-120.196 -537.523 -1586 196 200 219
-116.765 -536.789 -1584 198 202 222
-113.558 -537.074 -1585 197 200 221
-110.208 -536.682 -1584 198 201 222
-106.999 -536.97 -1585 201 205 226
-103.786 -537.259 -1586 205 210 230
-100.761 -538.565 -1590 210 214 234
-97.5355 -538.857 -1591 215 220 240
-94.4847 -540.167 -1595 217 221 242
-91.3038 -540.8 -1597 221 225 246
-88.1706 -541.774 -1600 222 226 247
-84.9197 -542.071 -1601 222 226 247
-81.9203 -544.064 -1607 222 226 247
-78.75 -545.041 -1610 221 225 246
-75.8024 -547.713 -1618 224 228 249
-73.1806 -553.094 -1634 225 229 250
-71.1342 -563.553 -1665 224 228 250
-69.3267 -577.058 -1705 222 225 248
-67.3932 -590.902 -1746 220 223 246
-64.8163 -600.347 -1774 214 218 239
-61.4005 -602.686 -1781 211 216 237
-57.9564 -605.027 -1788 202 208 230
-54.4535 -607.03 -1794 128 130 149
-235.075 -557.179 -1625 92 94 112
-232.228 -558.438 -1629 199 205 222
-228.664 -557.985 -1628 216 223 242
-225.521 -558.561 -1630 217 225 244
-221.69 -557.426 -1627 218 224 243
-217.74 -555.95 -1623 216 223 243
-213.808 -554.477 -1619 216 224 244
-210.025 -553.348 -1616 216 224 243
-205.873 -551.194 -1610 218 226 245
-201.999 -549.727 -1606 218 226 245
-198.391 -548.947 -1604 215 224 241
-194.915 -548.51 -1603 213 221 238
-191.445 -548.076 -1602 211 217 235
-187.981 -547.643 -1601 208 214 233
-184.522 -547.212 -1600 206 212 230
-180.617 -545.414 -1595 201 207 223
-177.178 -544.987 -1594 197 203 221
-173.745 -544.561 -1593 194 200 219
-170.318 -544.137 -1592 194 200 219
-166.896 -543.715 -1591 197 203 221
-163.583 -543.636 -1591 198 204 221
-160.272 -543.559 -1591 203 208 226
-156.961 -543.483 -1591 209 214 233
-153.556 -543.068 -1590 211 215 236
-150.25 -542.995 -1590 201 205 224
-146.669 -541.9 -1587 196 201 219
-143.372 -541.831 -1587 204 209 225
-139.635 -540.057 -1582 208 211 229
-136.696 -541.356 -1586 206 209 227
-133.405 -541.292 -1586 205 208 228
-130.362 -542.253 -1589 202 207 225
-127.067 -542.192 -1589 197 203 220
-123.773 -542.132 -1589 193 198 215
-120.405 -541.733 -1588 192 196 215
-116.894 -540.653 -1585 194 198 218
-113.611 -540.598 -1585 195 199 220
-110.33 -540.545 -1585 199 203 224
-107.117 -540.834 -1586 203 207 229
-103.966 -541.466 -1588 206 210 230
-100.808 -542.099 -1590 209 214 234
-97.7044 -543.075 -1593 214 220 240
-94.5887 -544.052 -1596 218 223 243
-91.4043 -544.689 -1598 224 228 249
-88.1573 -544.988 -1599 233 237 255
-84.9599 -545.628 -1601 236 240 255
-81.9591 -547.633 -1607 235 239 255
-78.7383 -548.277 -1609 235 239 255
-76.0256 -552.67 -1622 236 240 255
-73.3496 -557.745 -1637 237 241 255
-71.2961 -568.272 -1668 231 235 254
-70.2137 -587.998 -1726 223 226 249
-67.7726 -597.845 -1755 218 220 243
-64.9932 -605.648 -1778 212 216 237
-61.464 -606.981 -1782 211 216 237
-57.9837 -608.996 -1788 194 200 222
-54.2364 -608.288 -1786 112 114 133
-235.478 -561.509 -1627 88 90 108
-232.482 -562.432 -1630 194 200 219
-228.352 -560.595 -1625 216 224 243
-225.214 -561.175 -1627 214 222 241
-221.66 -560.722 -1626 216 223 242
-217.844 -559.582 -1623 218 225 244
-213.911 -558.099 -1619 218 224 243
-209.866 -556.273 -1614 216 224 243
-205.716 -554.105 -1608 216 224 243
-201.97 -552.973 -1605 214 222 241
-198.858 -553.565 -1607 212 221 235
-195.374 -553.126 -1606 211 219 233
-191.776 -552.344 -1604 208 214 229
-188.423 -552.252 -1604 203 209 226
-184.496 -550.441 -1599 200 206 222
-180.93 -549.665 -1597 197 203 218
-177.485 -549.234 -1596 194 200 218
-173.938 -548.462 -1594 192 198 217
-170.507 -548.035 -1593 194 200 219
-167.081 -547.61 -1592 197 203 222
-163.764 -547.53 -1592 198 204 223
-160.248 -546.765 -1590 200 204 224
-157.135 -547.376 -1592 204 208 229
-153.629 -546.614 -1590 207 211 231
-150.322 -546.541 -1590 197 202 219
-146.924 -546.126 -1589 196 201 218
-143.622 -546.056 -1589 202 207 222
-139.967 -544.613 -1585 202 207 223
-136.848 -545.234 -1587 196 201 218
-133.637 -545.513 -1588 192 196 216
-130.506 -546.137 -1590 190 195 213
-127.208 -546.075 -1590 188 194 211
-123.832 -545.671 -1589 189 194 211
-120.614 -545.956 -1590 191 196 214
-117.171 -545.212 -1588 195 199 219
-113.952 -545.5 -1589 198 201 222
-110.661 -545.447 -1589 200 203 225
-107.303 -545.051 -1588 203 207 229
-104.147 -545.687 -1590 205 209 230
-100.92 -545.981 -1591 209 213 234
-97.8123 -546.963 -1594 214 220 240
-94.6931 -547.946 -1597 219 224 244
-91.4479 -548.245 -1598 222 226 246
-88.2544 -548.888 -1600 226 230 250
-85.0004 -549.19 -1601 229 233 252
-81.896 -550.522 -1605 231 235 253
-78.8248 -552.199 -1610 229 233 251
-75.8274 -554.562 -1617 227 231 250
-73.5638 -562.757 -1641 223 227 248
-71.6722 -574.725 -1676 216 220 241
-69.9215 -589.093 -1718 215 219 240
-67.9981 -603.462 -1760 216 220 241
-65.1338 -610.63 -1781 211 215 236
-61.6658 -612.657 -1787 210 214 235
-58.0762 -613.657 -1790 189 193 213
-233.999 -561.338 -1616 82 84 102
-231.311 -562.962 -1621 190 196 215
-227.619 -562.155 -1619 215 222 241
-224.492 -562.74 -1621 215 223 242
-221.086 -562.631 -1621 214 222 241
-217.413 -561.831 -1619 217 223 242
-213.75 -561.032 -1617 218 224 243
-209.707 -559.194 -1612 216 224 243
-205.816 -557.706 -1608 214 222 241
-202.068 -556.567 -1605 212 220 239
-198.707 -556.469 -1605 210 219 232
-195.225 -556.027 -1604 209 217 230
-191.869 -555.933 -1604 206 212 227
-188.28 -555.148 -1602 201 207 224
-184.931 -555.057 -1602 196 202 219
-181.244 -553.929 -1599 193 199 216
-177.682 -553.149 -1597 192 198 217
-174.24 -552.718 -1596 193 199 218
-170.696 -551.942 -1594 194 200 219
-167.372 -551.86 -1594 196 202 221
-164.049 -551.78 -1594 200 206 225
-160.426 -550.663 -1591 203 207 227
-157.211 -550.932 -1592 199 203 223
-153.703 -550.165 -1590 198 202 222
-150.3 -549.745 -1589 194 199 216
-146.81 -548.982 -1587 198 203 220
-143.691 -549.603 -1589 202 207 222
-140.035 -548.151 -1585 197 202 219
-136.914 -548.776 -1587 192 197 214
-133.618 -548.711 -1587 188 192 212
-130.651 -550.03 -1591 188 193 211
-127.269 -549.622 -1590 189 195 212
-124.126 -550.253 -1592 191 196 213
-120.672 -549.502 -1590 191 195 214
-117.67 -550.827 -1594 191 195 215
-114.222 -550.08 -1592 196 198 219
-110.784 -549.335 -1590 196 199 220
-107.558 -549.628 -1591 196 200 221
-104.328 -549.922 -1592 197 201 222
-101.032 -549.873 -1592 199 203 224
-97.982 -551.206 -1596 204 210 230
-94.8572 -552.196 -1599 209 213 233
-91.6635 -552.842 -1601 211 215 235
-88.352 -552.798 -1601 213 217 237
-85.2005 -553.792 -1604 213 217 237
-82.0374 -554.788 -1607 212 216 236
-78.9116 -556.13 -1611 210 214 234
-76.2391 -560.925 -1625 208 212 232
-74.0476 -569.864 -1651 209 213 234
-71.9632 -580.529 -1682 207 211 232
-70.4844 -597.406 -1731 206 210 231
-68.6491 -612.902 -1776 207 211 232
-65.5309 -618.046 -1791 207 211 232
-62.0061 -619.741 -1796 209 213 234
-58.6559 -623.508 -1807 188 192 212
-230.282 -563.806 -1613 184 190 209
-226.746 -563.345 -1612 216 222 241
-223.77 -564.283 -1615 216 223 242
-220.511 -564.523 -1616 215 223 242
-216.982 -564.067 -1615 216 223 242
-213.458 -563.612 -1614 217 223 242
-209.81 -562.81 -1612 214 222 241
-206.044 -561.661 -1609 212 220 239
-202.293 -560.514 -1606 211 219 238
-198.927 -560.416 -1606 209 218 231
-195.442 -559.971 -1605 208 216 230
-191.962 -559.528 -1604 206 212 227
-188.606 -559.435 -1604 203 209 225
-185.021 -558.646 -1602 197 203 220
-181.332 -557.511 -1599 192 198 215
-177.991 -557.423 -1599 192 198 217
-174.761 -557.685 -1600 193 199 218
-170.886 -555.858 -1595 195 201 220
-167.453 -555.428 -1594 202 208 227
-163.923 -554.65 -1592 215 221 240
-160.403 -553.874 -1590 224 228 248
-156.892 -553.1 -1588 222 225 245
-153.875 -554.069 -1591 214 217 237
-150.562 -553.995 -1591 200 203 221
-147.066 -553.226 -1589 201 204 221
-143.76 -553.156 -1589 204 208 223
-140.279 -552.391 -1587 201 204 222
-137.066 -552.671 -1588 199 202 220
-133.682 -552.257 -1587 199 203 223
-130.468 -552.541 -1588 201 206 225
-127.17 -552.478 -1588 204 210 228
-124.108 -553.461 -1591 206 211 230
-120.806 -553.402 -1591 204 208 227
-117.653 -554.039 -1593 201 204 224
-114.349 -553.983 -1593 201 203 224
-110.907 -553.233 -1591 199 202 223
-107.677 -553.528 -1592 198 202 223
-104.378 -553.476 -1592 200 204 225
-101.208 -554.122 -1594 201 206 227
-98.0907 -555.116 -1597 203 209 229
-95.0217 -556.46 -1601 205 210 230
-91.7077 -556.414 -1601 208 212 232
-88.3946 -556.371 -1601 210 214 234
-85.2417 -557.371 -1604 209 213 234
-81.9749 -557.678 -1605 210 214 234
-78.9497 -559.724 -1611 213 217 238
-76.4636 -565.94 -1629 216 220 241
-74.3526 -575.63 -1657 218 222 243
-72.64 -589.49 -1697 213 217 238
-71.1702 -606.824 -1747 205 209 230
-68.9529 -619.294 -1783 202 206 227
-65.892 -625.166 -1800 206 210 231
-62.3122 -626.524 -1804 212 216 237
-58.944 -630.315 -1815 170 174 194
-230.681 -568.138 -1615 178 184 203
-227.42 -568.377 -1616 216 222 241
-223.88 -567.914 -1615 217 223 242
-220.756 -568.507 -1617 216 224 243
-217.088 -567.696 -1615 217 224 243
-213.562 -567.239 -1614 217 223 242
-210.043 -566.783 -1613 214 222 241
-206.401 -565.978 -1611 212 220 239
-202.392 -564.121 -1606 211 219 238
-199.025 -564.022 -1606 208 217 232
-195.416 -563.223 -1604 205 213 228
-191.937 -562.776 -1603 202 208 224
-188.934 -563.736 -1606 200 206 223
-185.574 -563.644 -1606 197 203 220
-182.102 -563.202 -1605 193 199 216
-178.747 -563.114 -1605 192 198 216
-174.956 -561.624 -1601 196 202 221
-171.184 -560.136 -1597 202 208 227
-167.745 -559.702 -1596 207 212 232
-163.9 -557.867 -1591 211 215 235
-160.582 -557.787 -1591 216 219 239
-157.068 -557.008 -1589 220 223 243
-153.853 -557.283 -1590 221 223 243
-150.446 -556.858 -1589 210 212 230
-147.045 -556.434 -1588 210 212 230
-143.649 -556.013 -1587 212 214 230
-140.348 -555.943 -1587 210 212 229
-137.047 -555.875 -1587 208 211 229
-133.579 -555.109 -1585 204 208 228
-130.449 -555.744 -1587 204 210 229
-127.152 -555.681 -1587 205 211 230
-124.168 -557.02 -1591 210 213 233
-120.865 -556.96 -1591 214 217 237
-117.637 -557.252 -1592 216 218 238
-114.333 -557.195 -1592 213 215 235
-111.24 -558.19 -1595 211 214 234
-107.797 -557.437 -1593 211 215 236
-104.56 -557.735 -1594 212 216 236
-101.384 -558.384 -1596 212 217 237
-98.2614 -559.385 -1599 213 219 239
-95.0085 -559.688 -1600 216 220 241
-91.867 -560.691 -1603 216 220 241
-88.5481 -560.647 -1603 216 220 241
-85.3363 -561.305 -1605 219 223 244
-82.0658 -561.614 -1606 225 229 250
-79.0861 -564.022 -1613 227 231 251
-76.5947 -570.278 -1631 224 228 249
-74.8376 -582.828 -1667 223 227 248
-73.3177 -598.525 -1712 219 223 244
-71.7346 -615.27 -1760 211 215 236
-69.3347 -626.422 -1792 204 208 229
-66.107 -630.933 -1805 206 210 231
-62.5845 -632.999 -1811 206 210 231
-231.795 -574.254 -1622 172 177 197
-228.096 -573.432 -1620 217 222 242
-224.546 -572.966 -1619 219 225 244
-221.139 -572.855 -1619 217 225 244
-217.599 -572.393 -1618 218 225 244
-213.8 -571.224 -1615 219 225 244
-210.277 -570.766 -1614 215 223 242
-206.503 -569.601 -1611 212 220 239
-202.87 -568.793 -1609 211 218 237
-199.247 -567.986 -1607 209 218 234
-195.512 -566.828 -1604 203 211 227
-191.912 -566.026 -1602 201 207 224
-188.792 -566.638 -1604 200 206 223
-185.434 -566.545 -1604 198 204 221
-182.191 -566.808 -1605 195 201 218
-178.723 -566.365 -1604 194 200 218
-175.37 -566.278 -1604 198 204 223
-171.697 -565.133 -1601 205 210 230
-168.143 -564.343 -1599 211 216 236
-163.981 -561.438 -1591 212 216 236
-160.661 -561.357 -1591 211 213 233
-157.046 -560.221 -1588 211 213 233
-153.929 -560.849 -1590 211 213 233
-150.426 -560.069 -1588 203 205 225
-147.21 -560.348 -1589 204 206 225
-143.811 -559.924 -1588 213 215 231
-140.505 -559.854 -1588 216 218 236
-137.028 -559.08 -1586 217 219 237
-133.56 -558.308 -1584 214 217 237
-130.513 -559.301 -1587 209 213 233
-127.215 -559.237 -1587 204 208 228
-123.995 -559.528 -1588 208 210 230
-120.848 -560.172 -1590 214 216 236
-117.842 -561.523 -1594 218 220 240
-114.389 -560.761 -1592 221 223 243
-111.155 -561.057 -1593 219 222 242
-108.053 -562.06 -1596 218 222 243
-104.809 -562.36 -1597 218 222 242
-101.561 -562.661 -1598 217 221 241
-98.3711 -563.316 -1600 217 221 242
-95.2333 -564.325 -1603 218 222 243
-91.9693 -564.631 -1604 221 225 246
-88.5914 -564.235 -1603 222 226 247
-85.378 -564.896 -1605 223 227 248
-82.2594 -566.262 -1609 224 228 249
-79.223 -568.334 -1615 224 228 248
-77.0551 -577.093 -1640 224 228 249
-75.2784 -589.724 -1676 222 226 247
-73.8249 -606.224 -1723 217 221 242
-72.096 -622.021 -1768 216 220 241
-69.446 -631.133 -1794 213 217 238
-66.1761 -635.321 -1806 210 214 235
-62.5459 -636.345 -1809 207 211 231
-231.911 -577.914 -1622 162 166 186
-228.351 -577.442 -1621 220 225 245
-224.797 -576.973 -1620 221 227 246
-221.386 -576.862 -1620 219 226 245
-217.842 -576.395 -1619 219 226 245
-214.437 -576.288 -1619 218 224 243
-210.642 -575.114 -1616 216 223 242
-206.478 -572.874 -1610 213 220 239
-203.097 -572.772 -1610 211 217 236
-199.222 -571.249 -1606 210 217 234
-195.731 -570.795 -1605 208 215 232
-192.247 -570.342 -1604 205 211 228
-189.239 -571.314 -1607 200 206 223
-185.873 -571.221 -1607 197 203 220
-182.509 -571.129 -1607 198 203 220
-179.035 -570.683 -1606 200 205 224
-175.567 -570.24 -1605 205 210 230
-171.675 -568.377 -1600 212 216 236
-168.122 -567.582 -1598 213 216 236
-164.371 -566.079 -1594 212 215 235
-160.539 -564.223 -1589 212 214 234
-157.322 -564.499 -1590 211 213 233
-153.908 -564.066 -1589 207 209 229
-150.595 -563.991 -1589 202 204 224
-147.283 -563.917 -1589 206 208 227
-143.882 -563.49 -1588 211 213 230
-140.575 -563.419 -1588 215 217 236
-137.269 -563.35 -1588 218 220 239
-133.795 -562.573 -1586 217 219 239
-130.66 -563.217 -1588 214 217 237
-127.358 -563.153 -1588 210 214 234
-124.212 -563.8 -1590 210 212 232
-120.984 -564.094 -1591 211 213 233
-117.826 -564.744 -1593 215 217 237
-114.446 -564.331 -1592 219 221 241
-111.21 -564.63 -1593 220 223 243
-108.039 -565.285 -1595 222 226 247
-104.926 -566.295 -1598 222 226 247
-101.611 -566.244 -1598 222 226 246
-98.4811 -567.257 -1601 222 226 246
-95.2803 -567.918 -1603 221 225 247
-92.0147 -568.226 -1604 221 225 247
-88.801 -568.89 -1606 219 223 244
-85.6862 -570.263 -1610 219 223 244
-82.5045 -571.285 -1613 219 223 244
-79.4583 -573.369 -1619 221 225 245
-77.1871 -581.476 -1642 223 227 248
-75.8549 -597.727 -1688 224 228 249
-74.9758 -619.29 -1749 213 217 238
-72.5803 -629.875 -1779 206 210 231
-69.5576 -635.859 -1796 220 224 245
-66.2453 -639.72 -1807 227 231 252
-62.542 -640.042 -1808 220 224 245
-233.172 -584.447 -1630 142 146 166
-229.452 -583.613 -1628 214 219 238
-226.02 -583.499 -1628 217 223 242
-222.454 -583.028 -1627 216 222 241
-218.893 -582.558 -1626 216 222 241
-214.677 -580.3 -1620 217 223 242
-211.27 -580.193 -1620 218 224 243
-207.094 -577.939 -1614 216 222 241
-203.577 -577.478 -1613 213 219 238
-200.066 -577.018 -1612 211 217 234
-196.439 -576.203 -1610 209 215 232
-192.822 -575.39 -1608 204 210 227
-189.687 -576.009 -1610 200 206 223
-186.082 -575.199 -1608 200 206 223
-182.487 -574.392 -1606 203 208 226
-179.013 -573.943 -1605 207 211 230
-175.655 -573.855 -1605 213 217 237
-171.654 -571.622 -1599 220 223 243
-168.205 -571.18 -1598 217 220 240
-164.247 -568.952 -1592 214 216 236
-160.922 -568.871 -1592 210 212 232
-157.202 -567.362 -1588 206 208 228
-153.888 -567.284 -1588 203 205 225
-150.575 -567.208 -1588 199 201 221
-147.356 -567.491 -1589 204 206 226
-143.863 -566.704 -1587 208 210 228
-140.733 -567.347 -1589 208 210 230
-137.423 -567.277 -1589 211 213 233
-134.03 -566.852 -1588 208 210 230
-130.807 -567.143 -1589 207 210 230
-127.501 -567.079 -1589 206 210 230
-124.431 -568.086 -1592 206 208 228
-121.12 -568.025 -1592 205 207 227
-117.663 -567.252 -1590 208 210 230
-114.503 -567.907 -1592 215 216 236
-111.475 -569.278 -1596 218 219 239
-108.093 -568.867 -1595 219 222 242
-104.912 -569.527 -1597 221 224 244
-101.725 -570.188 -1599 220 224 244
-98.53 -570.852 -1601 220 224 244
-95.2087 -570.803 -1601 219 223 244
-91.8882 -570.757 -1601 216 220 241
-88.7345 -571.781 -1604 214 218 239
-85.5158 -572.451 -1606 219 223 244
-82.6479 -575.617 -1615 228 232 253
-79.7432 -578.784 -1624 232 236 255
-77.5076 -587.298 -1648 228 232 251
-75.5777 -599.02 -1681 217 221 242
-74.6699 -620.363 -1741 216 220 241
-72.6162 -633.866 -1779 213 217 238
-69.7858 -641.669 -1801 219 223 244
-66.3147 -644.129 -1808 227 231 252
-62.6078 -644.453 -1809 217 221 241
-233.862 -589.579 -1634 131 135 155
-230.273 -589.1 -1633 212 217 236
-226.69 -588.624 -1632 214 220 239
-222.84 -587.428 -1629 214 220 239
-219.004 -586.234 -1626 214 220 239
-214.652 -583.601 -1619 215 221 240
-211.246 -583.493 -1619 215 221 240
-207.199 -581.586 -1614 215 221 240
-203.554 -580.761 -1612 214 220 239
-200.043 -580.299 -1611 210 216 234
-196.905 -580.919 -1613 209 215 232
-193.28 -580.1 -1611 204 210 227
-190.018 -580.363 -1612 201 207 224
-186.523 -579.908 -1611 202 208 225
-183.033 -579.455 -1610 207 211 231
-179.103 -577.564 -1605 211 215 235
-175.743 -577.475 -1605 215 219 239
-171.847 -575.588 -1600 219 221 241
-168.185 -574.423 -1597 218 220 240
-164.639 -573.62 -1595 214 216 236
-161.104 -572.819 -1593 209 211 231
-157.578 -572.019 -1591 206 208 228
-154.256 -571.941 -1591 204 206 226
-150.935 -571.864 -1591 200 202 222
-147.523 -571.429 -1590 206 208 228
-144.207 -571.356 -1590 210 212 230
-140.981 -571.644 -1591 207 209 228
-137.492 -570.855 -1589 205 207 227
-134.098 -570.427 -1588 207 209 229
-130.955 -571.079 -1590 207 210 230
-127.726 -571.373 -1591 206 209 229
-124.415 -571.31 -1591 206 208 229
-121.257 -571.966 -1593 204 206 227
-118.018 -572.265 -1594 203 205 225
-114.704 -572.207 -1594 207 208 228
-111.461 -572.509 -1595 210 211 231
-108.214 -572.813 -1596 212 214 234
-105.031 -573.477 -1598 215 218 238
-101.776 -573.784 -1599 218 222 242
-98.5177 -574.092 -1600 218 222 242
-95.1968 -574.044 -1600 219 223 244
-91.9916 -574.714 -1602 219 223 244
-88.7788 -575.386 -1604 221 225 246
-85.6651 -576.778 -1608 224 228 249
-82.6891 -579.246 -1615 224 228 249
-79.9305 -583.509 -1627 222 226 247
-77.8757 -593.511 -1655 221 225 246
-76.5151 -609.969 -1701 219 223 244
-75.3937 -630.011 -1757 221 225 246
-72.775 -638.938 -1782 223 227 248
-69.8207 -645.715 -1801 223 227 248
-66.2011 -646.756 -1804 225 229 250
-62.3619 -645.648 -1801 209 213 233
-58.9915 -649.561 -1812 121 125 145
-233.122 -591.103 -1628 120 124 144
-229.826 -591.348 -1629 209 214 233
-226.666 -591.958 -1631 211 217 236
-223.227 -591.843 -1631 216 222 241
-219.385 -590.642 -1628 215 221 240
-215.027 -587.992 -1621 216 222 241
-211.483 -587.52 -1620 214 220 239
-207.561 -585.963 -1616 213 219 238
-204.162 -585.858 -1616 212 218 237
-200.641 -585.393 -1615 211 217 234
-197.004 -584.566 -1613 206 212 229
-193.618 -584.467 -1613 202 207 224
-190.468 -585.094 -1615 202 208 225
-186.733 -583.911 -1612 205 211 228
-183.126 -583.093 -1610 210 214 234
-179.305 -581.552 -1606 215 219 239
-175.722 -580.738 -1604 217 221 241
-171.934 -579.202 -1600 219 221 241
-168.586 -579.115 -1600 221 222 242
-164.619 -576.859 -1594 222 223 243
-161.185 -576.415 -1593 221 222 242
-157.658 -575.61 -1591 221 222 242
-154.334 -575.531 -1591 217 219 239
-151.012 -575.454 -1591 206 208 228
-147.69 -575.378 -1591 205 207 226
-144.371 -575.304 -1591 212 214 232
-141.141 -575.593 -1592 216 218 238
-137.735 -575.161 -1591 217 219 239
-134.503 -575.454 -1592 216 218 238
-131.186 -575.386 -1592 217 219 239
-127.951 -575.682 -1593 217 219 239
-124.712 -575.98 -1594 219 219 241
-121.47 -576.279 -1595 220 221 242
-118.226 -576.579 -1596 218 220 240
-114.906 -576.521 -1596 216 217 237
-111.657 -576.824 -1597 216 217 237
-108.337 -576.769 -1597 215 217 237
-105.018 -576.715 -1597 215 219 239
-101.827 -577.385 -1599 217 221 241
-98.5057 -577.334 -1599 218 222 242
-95.2447 -577.646 -1600 221 225 245
-91.923 -577.599 -1600 218 222 243
-88.7681 -578.637 -1603 215 219 240
-85.6548 -580.036 -1607 213 217 238
-82.6795 -582.52 -1614 211 215 236
-80.1181 -588.254 -1630 214 218 239
-77.9148 -597.236 -1655 219 223 244
-76.5536 -613.796 -1701 222 226 247
-74.9164 -629.635 -1745 217 221 242
-72.7707 -642.587 -1781 217 221 242
-69.7781 -649.045 -1799 219 223 244
-66.1609 -650.093 -1802 222 226 247
-62.3239 -648.978 -1799 202 206 227
-233.815 -596.26 -1632 97 101 121
-230.79 -597.236 -1635 204 209 228
-227.339 -597.119 -1635 214 220 239
-223.341 -595.542 -1631 215 221 240
-219.632 -594.698 -1629 216 222 241
-215.667 -593.127 -1625 217 223 242
-211.983 -592.287 -1623 216 222 241
-208.053 -590.72 -1619 213 219 238
-204.646 -590.614 -1619 211 217 236
-200.993 -589.781 -1617 208 214 233
-197.472 -589.314 -1616 203 209 227
-193.836 -588.484 -1614 203 208 225
-190.683 -589.115 -1616 206 212 229
-186.944 -587.925 -1613 211 217 234
-183.105 -586.372 -1609 218 222 242
-179.173 -584.458 -1604 221 225 245
-175.702 -584.003 -1603 221 225 245
-171.914 -582.456 -1599 223 225 245
-168.461 -582.005 -1598 226 227 247
-164.806 -580.828 -1595 228 229 249
-161.47 -580.744 -1595 227 228 248
-158.135 -580.663 -1595 224 225 245
-154.607 -579.855 -1593 215 217 237
-151.373 -580.141 -1594 207 209 229
-148.23 -580.792 -1596 206 208 228
-144.807 -580.354 -1595 210 212 230
-141.301 -579.553 -1593 211 213 233
-137.891 -579.118 -1592 214 216 236
-134.487 -578.685 -1591 214 216 236
-131.17 -578.617 -1591 215 217 237
-127.935 -578.915 -1592 216 218 238
-124.775 -579.577 -1594 219 219 241
-121.532 -579.879 -1595 221 222 243
-118.137 -579.454 -1594 221 223 243
-114.964 -580.121 -1596 220 221 241
-111.783 -580.791 -1598 220 221 241
-108.324 -580.008 -1596 217 221 241
-105.071 -580.317 -1597 215 219 239
-101.879 -580.991 -1599 217 220 240
-98.6173 -581.303 -1600 218 220 240
-95.412 -581.981 -1602 214 218 239
-92.2569 -583.023 -1605 212 216 239
-88.9238 -582.977 -1605 213 217 239
-85.8582 -584.748 -1610 214 218 240
-82.9264 -587.611 -1618 214 218 239
-80.1587 -591.928 -1630 216 220 241
-78.0014 -601.329 -1656 218 222 243
-76.4572 -616.54 -1698 220 224 245
-74.6966 -631.388 -1739 216 220 241
-72.4805 -643.695 -1773 217 221 242
-69.8135 -653.098 -1799 218 222 243
-66.2679 -654.879 -1804 222 226 247
-62.5634 -655.209 -1805 191 195 216
-234.508 -601.44 -1636 73 77 97
-231.615 -602.79 -1640 193 198 218
-228.012 -602.304 -1639 212 218 237
-224.278 -601.452 -1637 214 220 239
-220.554 -600.602 -1635 216 222 241
-216.442 -598.653 -1630 217 223 242
-212.354 -596.706 -1625 217 223 242
-208.417 -595.129 -1621 214 220 239
-204.625 -593.921 -1618 211 217 236
-200.847 -592.715 -1615 207 213 232
-197.695 -593.346 -1617 201 207 226
-193.816 -591.778 -1613 203 207 227
-190.309 -591.312 -1612 210 215 234
-186.692 -590.481 -1610 219 225 242
-183.086 -589.653 -1608 225 229 249
-179.153 -587.726 -1603 225 229 249
-175.792 -587.634 -1603 227 230 250
-171.895 -585.712 -1598 229 231 251
-168.547 -585.625 -1598 230 232 252
-164.994 -584.806 -1596 227 229 249
-161.35 -583.623 -1593 226 227 247
-158.017 -583.541 -1593 224 226 246
-155.074 -584.926 -1597 216 217 237
-151.641 -584.481 -1596 205 207 227
-148.399 -584.77 -1597 207 209 229
-145.154 -585.06 -1598 208 210 228
-141.728 -584.621 -1597 207 209 228
-138.309 -584.183 -1596 207 209 229
-134.809 -583.381 -1594 212 213 233
-131.567 -583.678 -1595 212 214 234
-128.242 -583.612 -1595 212 214 234
-124.996 -583.913 -1596 211 212 233
-121.823 -584.581 -1598 214 215 236
-118.42 -584.154 -1597 215 217 237
-115.095 -584.094 -1597 214 216 236
-111.91 -584.767 -1599 214 216 236
-108.515 -584.345 -1598 214 218 238
-105.125 -583.925 -1597 216 220 240
-101.931 -584.603 -1599 218 222 242
-98.7292 -585.283 -1601 220 222 242
-95.58 -586.33 -1604 218 221 242
-92.419 -587.378 -1607 218 222 244
-89.0247 -586.966 -1606 219 223 244
-86.1154 -589.845 -1614 219 223 243
-82.9686 -591.264 -1618 216 220 240
-80.1011 -594.876 -1628 214 218 239
-77.5227 -601.047 -1645 215 219 240
-75.5952 -613.065 -1678 215 219 240
-71.9857 -642.947 -1760 215 219 240
-69.4996 -653.87 -1790 219 223 244
-65.9708 -655.662 -1795 216 220 241
-234.343 -604.425 -1634 119 124 148
-231.312 -605.414 -1637 187 192 215
-227.713 -604.924 -1636 211 219 238
-224.12 -604.437 -1635 212 218 237
-220.669 -604.321 -1635 216 222 241
-216.289 -601.621 -1628 216 222 241
-212.725 -601.14 -1627 214 220 239
-208.396 -598.444 -1620 211 217 236
-204.731 -597.598 -1618 208 212 232
-200.827 -596.016 -1614 205 210 230
-197.431 -595.912 -1614 202 208 227
-193.676 -594.703 -1611 208 213 230
-190.407 -594.973 -1612 215 219 237
-186.557 -593.399 -1608 222 225 245
-183.18 -593.303 -1608 229 231 251
-179.47 -592.102 -1605 231 234 253
-175.993 -591.641 -1604 233 236 255
-172.414 -590.813 -1602 229 231 251
-168.845 -589.987 -1600 224 226 246
-165.286 -589.163 -1598 213 217 237
-161.839 -588.71 -1597 209 212 232
-158.496 -588.627 -1597 207 209 229
-155.348 -589.283 -1599 205 206 226
-152.004 -589.204 -1599 201 202 221
-148.661 -589.126 -1599 207 209 227
-145.32 -589.05 -1599 208 210 228
-141.801 -588.239 -1597 207 209 228
-138.206 -587.062 -1594 207 209 229
-134.879 -586.991 -1594 212 212 234
-131.635 -587.29 -1595 214 215 236
-128.308 -587.223 -1595 213 215 235
-125.138 -587.894 -1597 211 213 233
-121.733 -587.463 -1596 212 214 234
-118.481 -587.769 -1597 213 215 236
-115.154 -587.708 -1597 215 216 236
-111.828 -587.65 -1597 214 216 236
-108.435 -587.225 -1596 214 218 239
-105.31 -588.274 -1599 216 220 241
-101.983 -588.22 -1599 216 220 240
-98.965 -590.008 -1604 216 220 240
-95.6887 -590.325 -1605 217 221 242
-92.6391 -592.116 -1610 218 223 244
-89.4586 -593.172 -1613 219 223 243
-86.2129 -593.862 -1615 219 223 243
-83.0625 -595.29 -1619 219 223 243
-79.9453 -597.086 -1624 217 221 242
-77.3267 -602.928 -1640 215 219 240
-74.8677 -610.609 -1661 214 219 239
-231.15 -608.401 -1635 178 184 207
-228.389 -610.141 -1640 211 219 240
-224.648 -609.279 -1638 213 219 239
-221.189 -609.162 -1638 216 222 241
-217.199 -607.56 -1634 215 221 240
-213.229 -605.96 -1630 213 219 238
-208.633 -602.504 -1621 209 215 234
-205.09 -602.024 -1620 207 211 231
-201.18 -600.432 -1616 206 211 230
-197.533 -599.584 -1614 208 214 233
-193.656 -597.996 -1610 218 223 240
-190.152 -597.525 -1609 224 228 246
-186.538 -596.684 -1607 226 228 248
-183.161 -596.587 -1607 230 232 252
-179.675 -596.122 -1606 232 234 254
-176.414 -596.4 -1607 229 231 251
-172.611 -594.824 -1603 219 221 241
-169.144 -594.364 -1602 206 208 228
-165.269 -592.422 -1597 197 201 221
-161.923 -592.337 -1597 195 199 219
-158.677 -592.624 -1598 194 197 217
-155.429 -592.914 -1599 200 201 221
-152.178 -593.204 -1600 201 203 222
-148.924 -593.497 -1601 204 206 226
-145.668 -593.791 -1602 205 207 225
-142.053 -592.604 -1599 207 209 228
-138.538 -591.79 -1597 213 215 235
-135.118 -591.348 -1596 220 220 242
-131.703 -590.908 -1595 219 220 242
-128.374 -590.841 -1595 214 216 237
-125.36 -592.256 -1599 211 213 233
-121.949 -591.822 -1598 211 213 233
-118.765 -592.5 -1600 212 214 234
-115.358 -592.069 -1599 215 216 236
-112.096 -592.38 -1600 215 217 237
-108.695 -591.952 -1599 214 218 239
-105.431 -592.267 -1600 215 219 239
-102.163 -592.584 -1601 213 217 237
-99.0162 -593.642 -1604 215 219 239
-95.9171 -595.071 -1608 216 221 241
-92.802 -596.503 -1612 217 223 243
-89.5602 -597.195 -1614 220 224 244
-86.3109 -597.89 -1616 222 226 246
-83.1054 -598.956 -1619 223 225 246
-79.7896 -599.284 -1620 220 224 245
-76.8005 -602.202 -1628 216 222 242
-73.9142 -606.232 -1639 197 205 225
-230.847 -611.011 -1632 176 182 204
-228.927 -615.008 -1643 212 220 242
-224.629 -612.643 -1637 213 220 239
-221.305 -612.9 -1638 215 221 240
-217.712 -612.41 -1637 214 220 239
-213.602 -610.426 -1632 213 217 237
-209.129 -607.322 -1624 211 215 235
-205.451 -606.465 -1622 209 213 233
-201.161 -603.741 -1615 210 214 234
-197.759 -603.637 -1615 215 219 239
-193.998 -602.412 -1612 224 228 246
-190.252 -601.19 -1609 229 232 251
-186.519 -599.97 -1606 232 234 254
-183.257 -600.247 -1607 229 231 251
-179.769 -599.778 -1606 224 226 246
-176.286 -599.311 -1605 217 218 238
-172.809 -598.846 -1604 203 205 225
-169.338 -598.383 -1603 193 195 215
-165.562 -596.802 -1599 196 200 220
-162.21 -596.716 -1599 205 209 229
-158.959 -597.005 -1600 208 212 232
-155.802 -597.669 -1602 207 208 228
-152.258 -596.842 -1600 202 203 223
-148.909 -596.763 -1600 202 203 223
-145.653 -597.059 -1601 201 203 222
-141.949 -595.492 -1597 205 207 227
-138.437 -594.673 -1595 212 214 234
-134.934 -593.856 -1593 224 224 246
-131.855 -594.904 -1596 226 227 248
-128.602 -595.209 -1597 221 223 243
-125.347 -595.515 -1598 214 216 236
-122.165 -596.196 -1600 210 212 232
-118.827 -596.133 -1600 210 213 233
-115.346 -595.326 -1598 215 216 236
-112.295 -596.757 -1602 217 218 238
-108.888 -596.327 -1601 214 218 239
-105.552 -596.271 -1601 214 218 239
-102.089 -595.472 -1599 214 218 238
-99.1295 -597.653 -1605 214 218 238
-95.9669 -598.72 -1608 214 219 239
-92.7927 -599.787 -1611 214 220 239
-89.7178 -601.601 -1616 216 220 240
-86.4093 -601.928 -1617 219 223 243
-83.2 -603 -1620 220 223 243
-79.6339 -601.469 -1616 217 221 242
-76.4157 -602.545 -1619 209 215 235
-73.0051 -602.133 -1618 179 189 207
-68.9967 -596.514 -1603 162 172 190
-229.979 -612.107 -1625 179 183 204
-228.49 -617.258 -1639 213 221 242
-225.023 -617.138 -1639 216 223 242
-221.557 -617.019 -1639 214 220 239
-217.96 -616.526 -1638 209 215 234
-213.977 -614.906 -1634 212 217 236
-209.626 -612.16 -1627 214 218 238
-205.94 -611.298 -1625 211 215 235
-201.641 -608.557 -1618 210 214 234
-197.986 -607.699 -1616 218 222 242
-194.221 -606.467 -1613 230 232 250
-190.589 -605.613 -1611 231 234 252
-186.966 -604.761 -1609 230 232 252
-183.696 -605.039 -1610 226 227 247
-180.088 -604.192 -1608 215 217 237
-176.709 -604.098 -1608 205 206 226
-173.224 -603.629 -1607 196 198 218
-169.956 -603.914 -1608 195 197 217
-166.064 -601.948 -1603 201 205 225
-162.6 -601.486 -1602 205 209 229
-159.142 -601.025 -1601 206 210 230
-155.787 -600.942 -1601 210 211 231
-152.338 -600.486 -1600 205 206 226
-148.987 -600.406 -1600 204 205 225
-145.729 -600.704 -1601 203 205 225
-142.201 -599.878 -1599 207 209 229
-138.683 -599.053 -1597 213 215 235
-135.26 -598.606 -1596 219 220 241
-132.006 -598.911 -1597 222 223 243
-128.831 -599.592 -1599 222 224 244
-125.491 -599.525 -1599 221 223 243
-122.458 -600.96 -1603 217 219 239
-119.187 -601.271 -1604 211 215 235
-115.767 -600.834 -1603 212 214 234
-112.494 -601.149 -1604 215 217 237
-109.013 -600.341 -1602 216 220 241
-105.673 -600.285 -1602 216 220 241
-102.398 -600.605 -1603 215 219 239
-99.0578 -600.552 -1603 216 220 240
-95.8978 -601.624 -1606 216 221 241
-92.7837 -603.073 -1610 216 222 241
-89.7093 -604.898 -1615 217 221 241
-86.3476 -604.852 -1615 217 221 241
-82.9866 -604.807 -1615 217 221 241
-79.5277 -604.016 -1613 218 222 242
-75.9834 -602.477 -1609 210 215 234
-72.321 -599.817 -1602 174 181 198
-230.951 -618.103 -1631 175 178 198
-229.309 -622.906 -1644 211 219 239
-225.28 -621.269 -1640 215 222 241
-221.675 -620.771 -1639 215 221 240
-218.21 -620.654 -1639 210 216 235
-214.484 -619.781 -1637 211 216 236
-209.995 -616.639 -1629 213 217 237
-206.05 -615.014 -1625 215 219 239
-202.122 -613.391 -1621 219 223 243
-198.337 -612.15 -1618 224 228 248
-194.324 -610.154 -1613 229 233 250
-191.045 -610.429 -1614 229 232 251
-187.414 -609.572 -1612 226 228 248
-184.022 -609.473 -1612 218 219 239
-180.295 -608.242 -1609 205 206 226
-177.022 -608.525 -1610 201 202 222
-173.531 -608.054 -1609 201 203 223
-170.046 -607.585 -1608 206 208 228
-166.463 -606.74 -1606 208 210 230
-162.991 -606.275 -1605 203 206 226
-159.425 -605.433 -1603 202 204 224
-155.869 -604.594 -1601 205 206 226
-152.323 -603.757 -1599 205 206 226
-148.973 -603.677 -1599 207 208 228
-145.533 -603.222 -1598 206 208 228
-141.921 -602.013 -1595 211 213 233
-138.496 -601.562 -1594 211 213 233
-135.161 -601.489 -1594 208 210 230
-131.828 -601.418 -1594 209 211 231
-128.657 -602.104 -1596 217 219 239
-125.636 -603.545 -1600 223 225 245
-122.37 -603.857 -1601 224 226 246
-119.175 -604.547 -1603 220 222 242
-115.901 -604.862 -1604 216 218 238
-112.413 -604.047 -1602 214 216 236
-109.002 -603.612 -1601 215 219 240
-105.729 -603.932 -1602 216 220 240
-102.388 -603.877 -1602 215 219 239
-99.11 -604.2 -1603 218 222 242
-95.8886 -604.903 -1605 219 223 244
-92.7172 -605.983 -1608 221 225 245
-89.8122 -608.95 -1616 221 225 245
-86.393 -608.526 -1615 220 224 244
-83.0303 -608.482 -1615 220 224 244
-79.5202 -607.308 -1612 221 225 245
-75.9762 -605.76 -1608 200 204 223
-71.9073 -599.694 -1592 112 115 132
-230.933 -621.464 -1630 134 135 154
-229.153 -625.914 -1642 203 210 229
-224.988 -623.887 -1637 213 220 239
-221.658 -624.148 -1638 214 220 239
-218.326 -624.411 -1639 213 219 238
-214.73 -623.913 -1638 211 216 236
-210.366 -621.133 -1631 212 216 236
-206.921 -621.021 -1631 216 219 239
-202.729 -618.627 -1625 225 228 248
-198.811 -616.996 -1621 227 231 251
-194.91 -615.369 -1617 227 230 248
-191.147 -614.124 -1614 223 225 244
-187.631 -613.641 -1613 215 217 237
-184.349 -613.922 -1614 208 209 229
-180.616 -612.683 -1611 200 201 221
-177.007 -611.827 -1609 200 202 222
-173.732 -612.114 -1610 210 212 232
-170.454 -612.402 -1611 218 219 239
-166.759 -611.171 -1608 221 223 243
-163.179 -610.323 -1606 220 222 242
-159.609 -609.476 -1604 219 221 241
-156.05 -608.632 -1602 218 219 239
-152.499 -607.79 -1600 212 213 233
-149.052 -607.33 -1599 209 210 230
-145.61 -606.871 -1598 209 210 230
-142.085 -606.035 -1596 211 213 233
-138.657 -605.58 -1595 209 211 231
-135.233 -605.128 -1594 207 209 229
-131.981 -605.436 -1595 206 208 228
-128.726 -605.746 -1596 208 210 230
-125.624 -606.817 -1599 214 216 236
-122.511 -607.889 -1602 219 221 241
-119.238 -608.204 -1603 220 222 242
-115.962 -608.521 -1604 218 220 240
-112.613 -608.46 -1604 215 218 238
-109.264 -608.401 -1604 214 218 238
-105.851 -607.964 -1603 216 220 240
-102.442 -607.53 -1602 215 219 239
-99.3483 -608.993 -1606 218 222 242
-96.059 -609.32 -1607 219 223 243
-92.8241 -610.028 -1609 219 223 243
-89.6374 -611.116 -1612 219 223 243
-86.5459 -612.965 -1617 221 225 245
-83.1772 -612.92 -1617 221 225 245
-79.7105 -612.119 -1615 225 229 249
-76.0165 -609.424 -1608 180 183 202
-71.9003 -602.942 -1591 73 74 90
-231.766 -627.127 -1635 140 141 157
-229.277 -629.687 -1642 204 210 229
-225.247 -628.03 -1638 208 214 233
-221.643 -627.526 -1637 208 214 233
-218.044 -627.024 -1636 210 214 234
-214.583 -626.907 -1636 211 215 235
-210.866 -626.025 -1634 215 218 238
