ply
format ascii 1.0
comment Created by Open3D
element vertex 1474
property double x
property double y
property double z
property uchar red
property uchar green
property uchar blue
end_header
336.235 245.662 -1558 61 79 127
339.718 245.894 -1559 59 80 129
342.989 245.968 -1559 66 96 149
346.928 246.516 -1562 60 91 145
350.211 246.592 -1562 62 93 146
353.497 246.668 -1562 64 97 152
357.014 246.903 -1563 69 98 153
360.078 246.824 -1562 75 100 154
370.447 247.379 -1564 224 217 225
375.19 248.409 -1570 250 223 205
378.997 248.808 -1572 253 222 198
382.816 249.208 -1574 255 222 198
386.401 249.45 -1575 255 222 199
390.984 250.328 -1580 255 223 200
393.345 249.78 -1576 255 222 199
396.197 249.549 -1574 255 221 200
398.789 249.161 -1571 255 222 200
401.628 248.931 -1569 255 222 201
405.495 249.337 -1571 255 223 202
409.373 249.744 -1573 255 222 200
412.477 249.676 -1572 255 223 201
416.638 250.244 -1575 255 224 201
420.816 250.813 -1578 255 226 202
423.398 250.429 -1575 255 227 203
427.054 250.682 -1576 255 226 202
431.265 251.254 -1579 255 227 203
434.391 251.19 -1578 255 225 200
437.794 251.286 -1578 255 225 200
440.922 251.224 -1577 255 224 198
442.922 250.525 -1572 255 227 200
446.04 250.465 -1571 255 228 201
448.586 250.085 -1568 255 229 204
452.853 250.664 -1571 255 231 206
455.684 250.446 -1569 255 231 209
477.211 249.894 -1561 230 206 203
476.633 247.919 -1548 201 184 181
476.932 246.424 -1538 166 153 150
473.132 242.844 -1515 184 174 170
-370.658 251.969 -1616 85 101 131
-366.346 251.266 -1612 50 66 97
-362.954 251.188 -1612 39 55 88
-360.235 251.578 -1615 43 61 96
-357.285 251.812 -1617 51 73 112
-353.892 251.736 -1617 66 89 132
-351.37 252.283 -1621 84 108 152
-346.472 251.119 -1614 76 101 146
-343.095 251.046 -1614 62 88 134
-338.668 250.195 -1609 76 102 148
-335.307 250.123 -1609 91 121 170
-332.155 250.207 -1610 84 113 162
-328.389 249.826 -1608 63 90 136
-324.837 249.601 -1607 47 65 106
-321.691 249.688 -1608 46 61 100
-317.95 249.309 -1606 63 80 118
-314.416 249.087 -1605 63 82 122
-310.889 248.865 -1604 47 68 110
-307.177 248.489 -1602 48 63 105
-303.286 247.959 -1599 48 63 105
-299.974 247.895 -1599 47 65 103
-296.292 247.521 -1597 50 67 109
-292.805 247.304 -1596 54 71 115
-289.143 246.932 -1594 53 74 118
-285.671 246.716 -1593 55 75 119
-281.674 246.037 -1589 57 75 118
-278.046 245.668 -1587 52 71 113
-274.948 245.764 -1588 45 64 106
-271.678 245.706 -1588 44 62 98
-267.902 245.185 -1585 46 64 102
-264.642 245.129 -1585 50 67 107
-261.384 245.074 -1585 51 70 106
-257.477 244.4 -1581 51 70 106
-253.911 244.037 -1579 49 64 100
-250.83 244.138 -1580 39 54 90
-247.278 243.777 -1578 39 55 90
-243.891 243.571 -1577 48 61 96
-240.662 243.52 -1577 45 58 95
-237.285 243.315 -1576 43 59 98
-234.062 243.265 -1576 47 61 98
-230.842 243.216 -1576 49 62 98
-227.479 243.014 -1575 49 66 105
-223.979 242.658 -1573 44 61 100
-220.77 242.611 -1573 40 57 96
-217.702 242.719 -1574 39 53 88
-214.631 242.828 -1575 39 52 86
-211.692 243.092 -1577 40 52 85
-208.746 243.356 -1579 41 52 86
-205.404 243.158 -1578 43 53 88
-202.196 243.116 -1578 39 52 91
-198.737 242.765 -1576 45 58 97
-195.04 242.108 -1572 47 60 97
-191.482 241.606 -1569 41 55 90
-188.539 241.874 -1571 34 49 81
-185.353 241.835 -1571 36 47 72
-182.168 241.796 -1571 34 46 73
-179.099 241.912 -1572 34 46 82
-176.028 242.029 -1573 42 51 85
-172.843 241.993 -1573 45 52 85
-169.553 241.803 -1572 46 56 88
-166.056 241.307 -1569 50 60 92
-162.158 240.196 -1562 51 59 89
-158.289 239.086 -1555 49 61 94
-154.25 237.67 -1546 46 59 93
-150.737 237.023 -1542 43 60 98
-147.434 236.685 -1540 47 64 101
-144.327 236.654 -1540 48 65 100
-141.313 236.778 -1541 51 64 100
-138.296 236.902 -1542 49 62 97
-135.013 236.567 -1540 50 63 100
-131.911 236.539 -1540 48 61 99
-128.726 236.358 -1539 49 63 102
-125.546 236.178 -1538 50 64 103
-122.292 235.845 -1536 49 63 102
-119.202 235.82 -1536 48 65 103
-116.113 235.796 -1536 49 66 104
-112.951 235.618 -1535 47 65 103
-109.866 235.595 -1535 48 64 106
-106.781 235.573 -1535 46 63 104
-103.698 235.551 -1535 44 62 100
-100.484 235.223 -1533 45 65 101
-97.2791 234.895 -1531 47 68 103
-94.1447 234.722 -1530 46 67 104
-91.0745 234.703 -1530 46 66 102
-87.9475 234.531 -1529 47 65 101
-84.8253 234.359 -1528 48 66 103
-81.8146 234.496 -1529 49 67 105
-78.8008 234.632 -1530 50 68 106
-75.5856 234.156 -1527 52 70 108
-72.5729 234.294 -1528 51 69 107
-69.6934 234.893 -1532 47 68 105
-66.6244 234.879 -1532 47 68 105
-63.6389 235.172 -1534 52 70 107
-60.6459 235.465 -1536 52 71 108
-57.6455 235.76 -1538 47 65 103
-54.5665 235.748 -1538 43 60 96
-51.5214 235.89 -1539 32 50 85
-48.4727 236.033 -1540 34 51 85
-45.4499 236.33 -1542 45 62 100
-42.3921 236.474 -1543 46 63 102
-39.3815 236.925 -1546 44 62 102
-36.2887 236.918 -1546 43 61 100
-33.1964 236.91 -1546 41 59 97
-30.0653 236.597 -1544 37 51 90
-26.9599 236.438 -1543 45 59 97
-23.8588 236.28 -1542 51 65 100
-20.7753 236.275 -1542 54 68 102
-17.669 235.965 -1540 42 56 87
-14.5899 235.961 -1540 47 58 91
-11.4883 235.499 -1537 52 63 97
-8.40985 235.344 -1536 51 60 97
-5.33547 235.189 -1535 49 61 98
-2.26808 235.342 -1536 45 58 95
0.802238 235.188 -1535 47 60 97
3.87613 235.495 -1537 46 59 96
6.93978 235.19 -1535 42 56 93
10.0087 235.192 -1535 41 57 95
13.0607 234.888 -1533 41 58 96
16.1155 234.737 -1532 46 63 101
19.1412 234.281 -1529 48 66 103
22.1695 233.979 -1527 44 62 98
25.1901 233.678 -1525 45 62 100
28.2213 233.53 -1524 51 68 106
31.2488 233.383 -1523 50 67 107
34.2951 233.39 -1523 48 65 105
37.3416 233.397 -1523 51 69 109
40.4151 233.559 -1524 54 72 112
43.4642 233.567 -1524 56 74 114
46.5139 233.577 -1524 57 75 115
49.5637 233.587 -1524 56 74 111
52.6832 233.904 -1526 55 73 110
55.7378 233.915 -1526 54 72 112
58.7546 233.774 -1525 49 69 109
61.8488 233.94 -1526 50 70 110
64.905 233.953 -1526 53 74 113
67.9172 233.813 -1525 55 76 115
70.9725 233.828 -1525 51 73 112
74.0769 233.996 -1526 48 70 109
77.1353 234.012 -1526 45 67 106
80.1419 233.875 -1525 49 71 110
83.3087 234.198 -1527 50 72 113
86.4277 234.369 -1528 50 72 113
89.4929 234.388 -1528 50 70 110
92.6799 234.713 -1530 49 70 111
95.7505 234.733 -1530 50 72 113
98.8865 234.907 -1531 50 72 113
102.094 235.235 -1533 50 72 113
105.379 235.716 -1536 46 66 108
108.535 235.892 -1537 42 64 107
111.697 236.069 -1538 41 63 106
114.789 236.092 -1538 42 62 106
117.882 236.116 -1538 47 67 110
120.818 235.834 -1536 54 74 116
123.828 235.706 -1535 57 75 119
127 235.886 -1536 51 69 113
130.008 235.759 -1535 49 67 111
133.013 235.633 -1534 46 64 108
136.193 235.815 -1535 44 62 106
139.468 236.151 -1537 50 67 113
142.753 236.487 -1539 56 75 120
146.142 236.978 -1542 51 71 115
149.544 237.47 -1545 44 62 105
152.662 237.502 -1545 38 55 96
155.783 237.534 -1545 26 43 81
158.698 237.259 -1543 33 48 82
161.607 236.985 -1541 49 66 100
164.616 236.866 -1540 51 69 105
167.841 237.054 -1541 51 69 107
171.07 237.244 -1542 51 69 106
174.192 237.28 -1542 51 69 105
177.661 237.778 -1545 39 54 91
181.026 238.124 -1547 43 58 95
184.282 238.316 -1548 54 72 110
187.543 238.509 -1549 53 73 111
190.687 238.548 -1549 41 63 100
193.707 238.435 -1548 48 62 99
196.725 238.321 -1547 51 67 103
199.999 238.517 -1548 48 65 101
203.016 238.405 -1547 51 68 106
206.031 238.294 -1546 54 72 114
209.178 238.338 -1546 50 70 116
212.465 238.536 -1547 52 70 109
215.897 238.89 -1549 54 71 113
219.48 239.398 -1552 53 70 116
222.791 239.599 -1553 53 73 118
225.962 239.646 -1553 52 69 114
228.987 239.54 -1552 55 69 113
231.86 239.279 -1550 54 75 119
235.031 239.329 -1550 54 75 120
238.511 239.687 -1552 52 73 119
241.689 239.738 -1552 52 70 113
245.028 239.944 -1553 51 69 113
248.052 239.841 -1552 54 73 118
251.237 239.894 -1552 59 76 123
254.26 239.793 -1551 58 74 121
257.281 239.692 -1550 57 73 119
260.468 239.747 -1550 51 68 114
263.998 240.112 -1552 51 67 114
267.537 240.478 -1554 58 75 123
270.914 240.689 -1555 56 77 120
274.472 241.057 -1557 55 76 120
277.864 241.27 -1558 55 76 123
280.9 241.174 -1557 57 77 120
284.118 241.234 -1557 56 76 119
286.969 240.985 -1555 53 74 120
290 240.891 -1554 55 75 119
293.408 241.108 -1555 54 74 118
296.822 241.326 -1556 56 78 121
300.242 241.545 -1557 60 77 117
303.475 241.609 -1557 57 74 114
307.104 241.984 -1559 57 74 114
309.748 241.584 -1556 53 70 110
312.986 241.651 -1556 54 71 111
316.227 241.718 -1556 56 73 114
319.676 241.941 -1557 52 70 114
322.925 242.01 -1557 54 72 118
326.804 242.545 -1560 70 89 136
329.642 242.305 -1558 70 90 139
332.473 242.064 -1556 67 87 135
335.946 242.291 -1557 65 86 133
338.991 242.208 -1556 61 83 134
342.695 242.592 -1558 61 90 138
346.187 242.822 -1559 59 90 137
349.911 243.208 -1561 58 89 135
352.968 243.128 -1560 55 88 136
356.481 243.36 -1561 59 89 137
359.77 243.437 -1561 69 96 141
362.829 243.358 -1560 82 99 145
366.827 243.905 -1563 114 117 142
369.419 243.516 -1560 222 214 221
373.914 244.377 -1565 253 227 207
378.673 245.395 -1571 254 224 201
384.435 247.039 -1581 255 222 198
387.298 246.81 -1579 255 221 197
390.652 246.894 -1579 255 221 197
393.01 246.353 -1575 255 220 196
396.11 246.282 -1574 255 219 195
397.941 245.429 -1568 255 218 194
401.285 245.516 -1568 255 218 197
404.89 245.76 -1569 255 219 198
409.024 246.318 -1572 252 217 194
412.912 246.72 -1574 251 217 193
417.076 247.281 -1577 251 218 194
420.457 247.372 -1577 250 217 193
423.305 247.15 -1575 255 216 190
427.231 247.556 -1577 255 215 189
431.443 248.121 -1580 254 214 188
434.571 248.058 -1579 251 211 185
437.975 248.153 -1579 250 209 181
440.545 247.778 -1576 251 211 184
443.388 247.56 -1574 255 218 192
445.658 247.028 -1570 255 221 197
448.487 246.811 -1568 255 224 202
452.465 247.224 -1570 255 225 203
455.583 247.166 -1569 255 228 206
459.287 247.424 -1570 255 233 211
485.197 247.466 -1565 242 227 214
485.516 245.992 -1555 233 220 207
483.594 243.409 -1538 224 213 199
483.819 241.933 -1528 211 210 202
-375.292 247.402 -1607 94 124 165
-372.365 247.63 -1609 74 93 126
-369.203 247.706 -1610 45 63 95
-365.813 247.628 -1610 36 53 85
-362.202 247.397 -1609 51 70 106
-359.489 247.782 -1612 72 94 132
-356.546 248.014 -1614 77 104 148
-353.817 248.399 -1617 77 104 153
-350.212 248.171 -1616 74 101 151
-346.184 247.637 -1613 68 95 145
-342.172 247.104 -1610 68 95 145
-338.596 246.879 -1609 73 100 150
-335.027 246.655 -1608 75 105 157
-331.672 246.585 -1608 62 91 141
-328.524 246.668 -1609 46 74 119
-324.364 245.987 -1605 47 66 103
-321.023 245.919 -1605 47 64 98
-317.289 245.545 -1603 59 76 113
-313.958 245.479 -1603 56 75 112
-310.242 245.107 -1601 40 61 100
-306.729 244.889 -1600 47 60 100
-303.033 244.519 -1598 47 61 100
-299.723 244.456 -1598 49 63 101
-296.23 244.241 -1597 52 67 108
-292.743 244.026 -1596 53 70 113
-289.263 243.813 -1595 53 73 118
-285.432 243.294 -1592 56 76 120
-281.437 242.624 -1588 55 72 115
-277.813 242.26 -1586 52 68 110
-274.717 242.355 -1587 48 65 105
-271.278 242.145 -1586 46 64 99
-268.015 242.089 -1586 47 64 101
-264.753 242.033 -1586 48 66 105
-261.165 241.673 -1584 51 67 102
-257.423 241.162 -1581 52 68 102
-253.857 240.803 -1579 47 60 93
-250.778 240.903 -1580 37 51 84
-247.226 240.547 -1578 40 55 87
-243.994 240.496 -1578 44 57 91
-240.917 240.598 -1579 40 53 89
-237.536 240.395 -1578 45 59 96
-234.013 240.042 -1576 44 57 93
-230.793 239.994 -1576 45 58 94
-227.142 239.489 -1573 49 66 105
-223.79 239.29 -1572 44 61 100
-220.584 239.244 -1572 38 55 95
-217.518 239.351 -1573 39 52 88
-214.45 239.458 -1574 42 55 90
-211.648 239.871 -1577 40 52 86
-208.571 239.979 -1578 40 52 86
-205.231 239.784 -1577 41 52 86
-201.769 239.438 -1575 39 52 90
-198.57 239.397 -1575 39 52 90
-194.875 238.748 -1571 40 53 89
-191.443 238.404 -1569 37 50 84
-188.26 238.365 -1569 34 47 78
-185.196 238.479 -1570 37 47 73
-182.131 238.593 -1571 37 48 76
-179.176 238.859 -1573 35 48 83
-175.991 238.822 -1573 41 50 83
-172.917 238.938 -1574 44 51 85
-169.626 238.751 -1573 45 55 87
-166.022 238.109 -1569 48 58 89
-162.124 237.013 -1562 51 60 89
-158.052 235.615 -1553 49 61 94
-154.118 234.369 -1545 49 61 95
-150.608 233.731 -1541 47 61 97
-147.212 233.245 -1538 47 61 97
-144.11 233.215 -1538 49 63 99
-141.009 233.186 -1538 50 63 98
-138.088 233.461 -1540 51 64 99
-134.985 233.432 -1540 49 62 99
-131.884 233.405 -1540 45 59 96
-128.699 233.227 -1539 45 59 97
-125.52 233.049 -1538 48 64 101
-122.346 232.872 -1537 48 64 101
-119.177 232.696 -1536 50 66 103
-116.164 232.823 -1537 49 65 103
-112.927 232.497 -1535 49 66 103
-109.843 232.474 -1535 48 66 106
-106.759 232.452 -1535 48 65 105
-103.744 232.581 -1536 48 66 104
-100.463 232.106 -1533 48 68 105
-97.3227 231.935 -1532 49 70 106
-94.1253 231.612 -1530 46 67 104
-90.9962 231.442 -1529 48 68 104
-87.8143 231.121 -1527 47 65 101
-84.7522 231.103 -1527 44 62 100
-81.7978 231.389 -1529 41 60 98
-78.7331 231.372 -1529 47 66 103
-75.6195 231.205 -1528 52 70 108
-72.6055 231.341 -1529 51 69 107
-69.679 231.781 -1532 45 64 101
-66.6541 231.918 -1533 44 63 100
-63.6258 232.056 -1534 51 69 105
-60.5939 232.195 -1535 51 70 107
-57.5961 232.485 -1537 47 66 104
-54.5198 232.474 -1537 45 63 100
-51.5108 232.765 -1539 30 48 85
-48.4313 232.755 -1539 34 52 87
-45.3522 232.745 -1539 47 64 102
-42.3284 233.039 -1541 47 64 103
-39.2969 233.333 -1543 44 62 102
-36.2109 233.325 -1543 44 62 101
-33.1466 233.469 -1544 39 57 95
-30.0202 233.161 -1542 37 51 89
-26.9544 233.306 -1543 45 58 97
-23.8539 233.15 -1542 50 64 99
-20.7711 233.145 -1542 54 68 101
-17.6769 232.99 -1541 43 57 88
-14.5963 232.987 -1541 49 59 92
-11.4935 232.53 -1538 52 62 95
-8.41913 232.528 -1538 49 59 94
-5.33789 232.225 -1536 51 63 99
-2.26912 232.375 -1537 48 61 98
0.802588 232.224 -1536 47 60 97
3.87516 232.375 -1537 46 59 96
6.93386 231.923 -1534 44 58 95
10.0002 231.925 -1534 45 60 99
13.041 231.473 -1531 44 60 99
16.091 231.325 -1530 43 60 98
19.1246 231.026 -1528 44 61 98
22.1649 230.879 -1527 43 61 97
25.1849 230.582 -1525 46 63 101
28.2155 230.436 -1524 50 67 105
31.2424 230.291 -1523 50 66 107
34.288 230.298 -1523 50 66 106
37.3584 230.456 -1524 53 70 110
40.4332 230.616 -1525 53 71 111
43.5124 230.775 -1526 54 72 112
46.5347 230.633 -1525 55 73 113
49.586 230.643 -1525 55 73 111
52.6378 230.654 -1525 54 72 110
55.6898 230.665 -1525 53 71 110
58.6269 230.223 -1522 49 68 108
61.7145 230.386 -1523 50 70 110
64.8065 230.551 -1524 51 72 109
67.8586 230.564 -1524 50 72 110
70.9112 230.578 -1524 49 71 110
74.013 230.745 -1525 49 71 110
77.0688 230.76 -1525 47 69 108
80.1254 230.776 -1525 50 72 111
83.2915 231.096 -1527 52 74 115
86.4099 231.264 -1528 48 70 111
89.5329 231.434 -1529 49 69 109
92.6607 231.604 -1530 49 70 110
95.7307 231.623 -1530 46 68 109
98.7369 231.492 -1529 45 67 108
101.94 231.815 -1531 48 70 111
105.22 232.291 -1534 46 67 109
108.442 232.615 -1536 42 64 107
111.674 232.941 -1538 39 61 104
114.616 232.661 -1536 37 57 101
117.704 232.685 -1536 41 61 103
120.557 232.255 -1533 49 69 111
123.56 232.129 -1532 56 74 118
126.643 232.154 -1532 56 73 117
129.812 232.332 -1533 57 73 118
132.899 232.359 -1533 54 72 116
136.076 232.539 -1534 51 69 114
139.439 233.022 -1537 51 68 114
142.909 233.657 -1541 52 71 116
146.206 233.99 -1543 50 70 114
149.706 234.627 -1547 48 66 108
152.828 234.659 -1547 39 56 96
155.952 234.69 -1547 26 43 79
158.871 234.419 -1545 29 44 78
161.888 234.301 -1544 46 62 97
164.796 234.031 -1542 47 65 102
168.023 234.217 -1543 47 65 103
171.146 234.252 -1543 46 64 101
174.382 234.44 -1544 41 59 95
177.624 234.628 -1545 38 53 90
180.872 234.817 -1546 43 58 95
184.125 235.006 -1547 47 65 103
187.383 235.197 -1548 49 71 108
190.648 235.388 -1549 42 65 101
193.917 235.579 -1550 50 62 98
196.684 235.164 -1547 50 64 101
199.957 235.357 -1548 47 64 100
202.974 235.246 -1547 51 67 106
205.988 235.137 -1546 52 70 111
208.999 235.028 -1545 44 64 109
212.558 235.528 -1548 46 62 96
215.852 235.724 -1549 50 67 105
219.01 235.769 -1549 55 73 116
222.457 236.12 -1551 53 73 116
225.769 236.318 -1552 50 68 111
228.791 236.213 -1551 50 65 110
231.812 236.109 -1550 48 68 114
234.982 236.157 -1550 54 73 119
238.307 236.359 -1551 54 74 119
241.794 236.714 -1553 54 72 116
245.134 236.917 -1554 50 68 112
248.48 237.121 -1555 52 72 116
251.508 237.02 -1554 57 74 120
254.698 237.073 -1554 55 72 118
257.559 236.821 -1552 56 72 118
260.917 237.028 -1553 54 71 119
264.282 237.235 -1554 51 68 115
267.653 237.443 -1555 51 69 114
271.031 237.652 -1556 53 72 112
274.591 238.015 -1558 60 79 122
277.805 238.073 -1558 58 79 128
280.661 237.825 -1556 57 77 123
284.24 238.19 -1558 54 74 121
286.908 237.791 -1555 52 73 119
290.312 238.005 -1556 54 72 117
293.723 238.219 -1557 55 74 119
296.759 238.128 -1556 55 73 118
300.179 238.343 -1557 54 69 113
303.605 238.56 -1558 54 70 112
306.842 238.624 -1558 59 77 118
309.683 238.382 -1556 52 70 113
312.92 238.448 -1556 49 68 110
315.754 238.208 -1554 51 69 111
319.403 238.581 -1556 49 66 113
322.856 238.802 -1557 47 64 111
326.526 239.177 -1559 60 77 124
329.572 239.093 -1558 64 82 132
332.83 239.163 -1558 68 87 136
336.091 239.233 -1558 71 92 140
338.919 238.997 -1556 63 85 137
342.842 239.53 -1559 63 89 137
346.114 239.603 -1559 63 91 136
349.165 239.523 -1558 60 89 132
352.667 239.751 -1559 53 85 131
356.176 239.98 -1560 55 85 129
359.923 240.364 -1562 64 90 131
362.752 240.133 -1560 74 92 136
366.748 240.672 -1563 99 103 127
370.051 240.75 -1563 218 211 216
373.595 240.983 -1564 249 225 206
377.387 241.371 -1566 253 223 202
382.651 242.685 -1574 255 223 201
386.97 243.384 -1578 255 221 199
390.815 243.775 -1580 255 222 198
393.175 243.242 -1576 255 220 196
395.774 242.863 -1573 255 218 193
397.602 242.021 -1567 255 215 189
400.687 241.952 -1566 254 216 192
404.545 242.347 -1568 253 215 192
408.415 242.743 -1570 249 213 187
412.298 243.14 -1572 249 209 181
416.986 244.003 -1577 251 209 181
420.1 243.938 -1576 253 208 178
423.482 244.028 -1576 249 204 180
426.597 243.964 -1575 246 201 177
431.35 244.831 -1580 244 199 175
434.477 244.769 -1579 243 201 176
437.326 244.553 -1577 246 201 176
440.729 244.648 -1577 248 204 178
443.01 244.122 -1573 252 209 182
446.129 244.063 -1572 253 213 190
448.962 243.849 -1570 255 220 198
452.654 244.102 -1571 255 223 202
455.775 244.044 -1570 255 224 204
458.895 243.988 -1569 255 228 207
461.72 243.776 -1567 255 232 207
465.431 244.033 -1568 255 234 207
480.362 245.066 -1572 255 239 214
486.021 244.653 -1568 254 240 217
486.97 243.51 -1560 254 240 218
488.203 242.524 -1553 252 238 217
490.677 242.162 -1550 237 233 214
491.229 240.863 -1541 230 225 212
499.337 241.705 -1545 210 206 205
-470.362 249.451 -1627 216 195 189
-430.708 247.788 -1623 215 197 196
-425.126 246.476 -1615 221 203 202
-382.476 244.543 -1609 76 112 159
-379.312 244.615 -1610 70 101 145
-374.979 243.929 -1606 63 92 133
-372.055 244.154 -1608 51 70 103
-369.355 244.532 -1611 35 54 86
-365.736 244.304 -1610 45 63 95
-361.9 243.924 -1608 64 87 123
-359.191 244.304 -1611 69 95 133
-355.588 244.078 -1610 62 92 134
-352.212 244.004 -1610 64 93 139
-348.621 243.779 -1609 65 94 141
-345.253 243.707 -1609 67 94 143
-341.888 243.636 -1609 67 94 142
-337.894 243.111 -1606 69 95 143
-334.749 243.192 -1607 70 97 145
-330.778 242.669 -1604 50 75 120
-327.23 242.45 -1603 45 62 103
-323.286 241.929 -1600 49 65 102
-320.156 242.013 -1601 53 68 104
-316.431 241.645 -1599 64 80 118
-313.501 241.882 -1601 54 69 106
-309.596 241.364 -1598 41 56 94
-306.09 241.149 -1597 47 60 101
-302.78 241.086 -1597 49 63 103
-299.473 241.024 -1597 50 64 103
-296.168 240.963 -1597 50 66 105
-292.499 240.6 -1595 53 71 109
-289.022 240.389 -1594 55 72 112
-285.372 240.028 -1592 53 70 109
-281.556 239.518 -1589 53 67 107
-278.105 239.309 -1588 53 67 105
-274.833 239.253 -1588 51 64 102
-271.393 239.046 -1587 47 62 95
-267.959 238.84 -1586 47 63 96
-264.699 238.785 -1586 48 65 98
-261.111 238.43 -1584 50 65 101
-257.533 238.075 -1582 46 60 96
-254.126 237.872 -1581 39 52 84
-250.885 237.82 -1581 35 49 80
-247.332 237.469 -1579 41 55 86
-243.944 237.268 -1578 42 55 88
-240.867 237.368 -1579 40 53 86
-237.638 237.32 -1579 46 59 94
-234.262 237.121 -1578 45 58 95
-230.746 236.773 -1576 47 61 98
-227.384 236.576 -1575 47 64 102
-223.886 236.229 -1573 43 59 97
-220.398 235.883 -1571 41 55 94
-217.335 235.989 -1572 39 53 92
-214.133 235.945 -1572 42 56 94
-211.47 236.501 -1576 37 51 88
-208.396 236.609 -1577 38 52 88
-205.059 236.416 -1576 40 54 91
-201.728 236.225 -1575 43 57 94
-198.403 236.034 -1574 42 56 93
-194.835 235.544 -1571 38 53 87
-191.403 235.205 -1569 40 51 82
-188.221 235.166 -1569 41 50 78
-185.276 235.428 -1571 39 48 74
-182.093 235.391 -1571 36 46 73
-179.139 235.654 -1573 32 43 75
-175.955 235.617 -1573 37 45 76
-172.772 235.582 -1573 44 51 82
-169.483 235.397 -1572 45 54 86
-165.776 234.615 -1567 46 55 87
-161.987 233.683 -1561 48 57 89
-158.02 232.453 -1553 50 60 93
-154.186 231.374 -1546 52 63 96
-150.675 230.744 -1542 54 65 98
-147.182 230.115 -1538 52 64 98
-143.893 229.787 -1536 49 62 97
-140.888 229.907 -1537 48 63 97
-137.791 229.879 -1537 49 64 98
-134.695 229.851 -1537 47 61 98
-131.685 229.974 -1538 43 57 94
-128.506 229.798 -1537 44 58 95
-125.331 229.623 -1536 46 63 99
-122.162 229.448 -1535 48 65 101
-118.998 229.275 -1534 51 65 102
-115.989 229.4 -1535 50 66 103
-112.831 229.228 -1534 52 69 105
-109.749 229.205 -1534 50 68 106
-106.668 229.183 -1534 47 65 103
-103.588 229.162 -1534 49 67 105
-100.312 228.693 -1531 49 68 106
-97.1758 228.524 -1530 49 70 107
-94.0446 228.355 -1529 46 67 104
-90.9181 228.187 -1528 49 69 105
-87.8539 228.169 -1528 50 68 104
-84.7905 228.151 -1528 45 65 102
-81.7277 228.135 -1528 41 62 99
-78.6141 227.969 -1527 45 66 101
-75.6041 228.103 -1528 50 70 106
-72.5432 228.088 -1528 50 68 106
-69.6194 228.521 -1531 47 65 101
-66.6406 228.806 -1533 46 64 100
-63.6543 229.092 -1535 48 66 104
-60.6211 229.228 -1536 48 68 105
-57.6219 229.515 -1538 45 66 103
-54.5087 229.354 -1537 45 63 103
-51.4668 229.493 -1538 31 49 88
-48.4215 229.632 -1539 37 55 93
-45.3135 229.473 -1538 48 65 103
-42.2649 229.614 -1539 46 63 101
-39.289 230.202 -1543 43 60 98
-36.2271 230.344 -1544 43 60 98
-33.1614 230.486 -1545 38 56 94
-30.053 230.33 -1544 37 50 89
-26.9489 230.176 -1543 44 57 95
-23.849 230.021 -1542 48 62 99
-20.7533 229.868 -1541 53 67 101
-17.6619 229.715 -1540 44 58 89
-14.5934 229.861 -1541 52 61 93
-11.4911 229.41 -1538 51 61 93
-8.41748 229.408 -1538 47 60 95
-5.34032 229.258 -1537 49 62 98
-2.27016 229.406 -1538 45 58 95
0.801708 228.959 -1535 45 58 95
3.87186 229.108 -1536 48 61 98
6.93249 228.811 -1534 47 61 98
9.99169 228.664 -1533 46 61 99
13.0214 228.069 -1529 45 60 99
16.0666 227.923 -1528 42 59 97
19.1082 227.777 -1527 44 61 98
22.1458 227.632 -1526 45 63 99
25.1632 227.339 -1524 45 63 101
28.2097 227.344 -1524 48 65 104
31.236 227.201 -1523 48 64 107
34.2811 227.208 -1523 49 66 106
37.3019 227.066 -1522 54 71 109
40.319 226.924 -1521 52 70 110
43.3894 227.082 -1522 53 71 111
46.4337 227.091 -1522 53 71 111
49.4785 227.101 -1522 53 72 110
52.558 227.26 -1523 53 73 110
55.6419 227.421 -1524 52 70 108
58.615 227.134 -1522 51 69 108
61.6208 226.997 -1521 51 69 109
64.7083 227.159 -1522 50 72 110
67.7558 227.172 -1522 47 69 107
70.8504 227.335 -1523 47 69 108
73.998 227.649 -1525 50 72 112
77.0532 227.664 -1525 51 73 113
80.1616 227.829 -1526 51 73 113
83.3836 228.293 -1529 51 73 113
86.4489 228.311 -1529 49 71 111
89.5732 228.478 -1530 48 70 110
92.6419 228.496 -1530 51 73 113
95.7113 228.515 -1530 47 69 109
98.8458 228.684 -1531 44 66 108
101.986 228.854 -1532 45 67 109
105.267 229.323 -1535 47 69 111
108.491 229.644 -1537 45 67 109
111.578 229.666 -1537 36 57 100
114.443 229.241 -1534 36 57 101
117.603 229.413 -1535 39 59 102
120.454 228.989 -1532 44 63 106
123.535 229.014 -1532 52 70 114
126.287 228.441 -1528 58 76 120
129.785 229.215 -1533 60 76 121
132.699 228.942 -1531 56 73 118
135.959 229.269 -1533 54 71 116
139.502 230.044 -1538 56 73 118
142.88 230.522 -1541 52 71 116
146.366 231.15 -1545 49 69 113
149.869 231.778 -1549 51 69 111
152.995 231.809 -1549 41 58 98
156.122 231.84 -1549 28 45 82
159.044 231.573 -1547 28 43 77
162.065 231.456 -1546 40 56 91
164.976 231.19 -1544 48 66 103
168.098 231.224 -1544 49 67 105
171.222 231.258 -1544 52 70 107
174.459 231.443 -1545 48 66 101
177.703 231.629 -1546 40 56 92
180.952 231.815 -1547 39 54 91
184.206 232.002 -1548 48 65 103
187.466 232.19 -1549 50 72 108
190.731 232.379 -1550 43 68 102
194.003 232.568 -1551 51 62 97
197.025 232.458 -1550 49 62 98
200.175 232.498 -1550 48 62 99
203.194 232.389 -1549 51 65 104
206.212 232.281 -1548 51 67 109
209.092 232.023 -1546 44 64 108
212.24 232.067 -1546 44 58 90
215.39 232.11 -1546 47 63 98
218.683 232.305 -1547 50 68 109
222.125 232.65 -1549 50 70 108
225.432 232.846 -1550 49 69 109
228.597 232.893 -1550 48 65 109
231.914 233.09 -1551 48 68 116
235.085 233.138 -1551 51 70 117
238.412 233.337 -1552 51 69 115
241.744 233.537 -1553 56 71 117
245.083 233.737 -1554 50 66 111
248.269 233.788 -1554 50 71 110
251.456 233.839 -1554 54 71 114
254.482 233.741 -1553 54 70 113
257.506 233.643 -1552 57 71 116
260.863 233.847 -1553 56 72 119
264.057 233.901 -1553 50 67 113
267.254 233.955 -1553 47 64 111
270.626 234.161 -1554 51 67 110
274.182 234.519 -1556 62 79 122
277.391 234.576 -1556 59 80 127
280.603 234.633 -1556 61 79 124
283.999 234.842 -1557 57 75 120
286.849 234.6 -1555 51 72 116
290.065 234.659 -1555 53 71 113
293.285 234.72 -1555 56 73 117
296.507 234.781 -1555 54 71 116
299.731 234.842 -1555 52 66 110
303.152 235.056 -1556 50 65 108
306.384 235.119 -1556 52 68 109
309.618 235.183 -1556 50 69 112
313.056 235.398 -1557 49 67 110
316.094 235.312 -1556 47 64 107
319.747 235.681 -1558 46 62 108
323.411 236.05 -1560 48 64 110
326.457 235.967 -1559 56 72 117
329.714 236.035 -1559 56 73 122
332.76 235.952 -1558 62 79 128
335.805 235.87 -1557 67 84 133
338.848 235.789 -1556 61 82 135
342.33 236.012 -1557 60 82 132
345.375 235.932 -1556 59 82 130
348.867 236.156 -1557 58 82 128
352.14 236.229 -1557 55 82 130
355.873 236.607 -1559 58 83 130
359.617 236.985 -1561 64 85 128
362.675 236.909 -1560 69 87 128
366.437 237.289 -1562 95 100 122
369.026 236.91 -1559 216 208 210
373.277 237.596 -1563 249 225 207
377.308 238.131 -1566 253 224 204
382.57 239.427 -1574 254 222 200
386.398 239.812 -1576 255 219 194
389.99 240.046 -1577 254 218 193
392.593 239.671 -1574 254 217 191
394.935 239.145 -1570 254 213 187
397.517 238.772 -1567 252 211 184
400.857 238.856 -1567 251 209 185
404.717 239.246 -1569 247 205 183
409.109 239.941 -1573 241 201 176
412.735 240.181 -1574 239 197 168
416.369 240.421 -1575 239 196 165
420.544 240.968 -1578 242 195 163
423.661 240.904 -1577 242 194 168
427.319 241.147 -1578 243 195 169
430.985 241.391 -1579 244 196 171
434.109 241.33 -1578 244 198 172
437.51 241.422 -1578 248 200 175
440.076 241.056 -1575 249 202 176
443.197 240.997 -1574 251 205 178
446.318 240.939 -1573 251 209 185
448.866 240.574 -1570 254 216 195
452.269 240.67 -1570 255 220 201
454.806 240.307 -1567 255 222 204
457.919 240.251 -1566 255 223 203
461.031 240.196 -1565 255 226 203
464.441 240.295 -1565 255 229 203
473.681 241.724 -1573 255 239 217
476.817 241.672 -1572 255 242 218
480.869 242.083 -1574 255 242 217
483.397 241.724 -1571 255 242 218
486.845 241.829 -1571 255 243 217
488.113 240.856 -1564 255 244 219
490.298 240.345 -1560 255 244 220
496.859 240.403 -1559 251 241 220
-491.407 241.668 -1592 169 147 150
-491.901 243.537 -1605 200 176 173
-490.516 244.495 -1612 226 202 196
-489.407 245.605 -1620 236 210 202
-486.204 247.369 -1633 246 218 206
-481.463 246.661 -1629 251 221 206
-473.504 246.006 -1626 254 223 208
-469.684 245.756 -1625 255 225 205
-465.874 245.506 -1624 255 226 210
-462.641 245.56 -1625 255 226 213
-458.843 245.312 -1624 255 226 212
-455.614 245.367 -1625 255 227 213
-452.385 245.423 -1626 255 227 214
-442.163 247.161 -1640 255 226 221
-435.969 245.562 -1630 255 227 221
-431.679 245.02 -1627 255 226 218
-426.616 244.027 -1621 255 225 219
-422.887 243.788 -1620 254 226 221
-419.167 243.55 -1619 246 227 228
-412.005 243.227 -1618 151 148 154
-404.866 242.907 -1617 82 117 155
-397.504 242.44 -1615 74 116 163
-382.634 241.367 -1610 51 85 132
-378.762 240.989 -1608 52 80 123
-374.901 240.611 -1606 51 77 117
-371.746 240.684 -1607 40 60 93
-368.82 240.907 -1609 42 61 93
-365.661 240.981 -1610 55 74 106
-362.05 240.757 -1609 64 87 124
-359.116 240.982 -1611 66 91 130
-355.073 240.46 -1608 60 88 130
-351.483 240.237 -1607 54 82 125
-347.466 239.717 -1604 60 87 131
-344.967 240.244 -1608 63 89 136
-340.967 239.725 -1605 67 93 140
-337.404 239.506 -1604 71 97 144
-334.055 239.438 -1604 61 87 132
-330.71 239.37 -1604 41 63 106
-327.367 239.302 -1604 44 59 98
-323.219 238.639 -1600 47 61 99
-320.29 238.871 -1602 62 76 114
-316.366 238.359 -1599 59 73 112
-313.045 238.295 -1599 47 60 98
-309.339 237.933 -1597 45 57 93
-305.836 237.722 -1596 46 59 99
-302.339 237.511 -1595 51 64 104
-299.224 237.598 -1596 51 65 104
-295.922 237.538 -1596 50 67 106
-292.439 237.329 -1595 53 71 110
-289.144 237.27 -1595 52 68 105
-285.314 236.765 -1592 47 62 99
-281.499 236.261 -1589 47 60 97
-277.873 235.907 -1587 48 61 97
-274.777 236 -1588 47 60 96
-271.338 235.796 -1587 45 60 92
-267.905 235.592 -1586 43 59 92
-264.811 235.687 -1587 44 61 95
-261.552 235.634 -1587 51 65 102
-257.643 234.987 -1583 44 58 94
-254.235 234.787 -1582 35 49 80
-251.151 234.884 -1583 33 47 78
-247.595 234.537 -1581 42 56 87
-244.203 234.339 -1580 41 54 87
-240.971 234.29 -1580 39 52 85
-237.89 234.39 -1581 42 55 90
-234.214 233.897 -1578 41 55 91
-230.992 233.85 -1578 48 62 98
-227.194 233.211 -1574 46 61 100
-223.841 233.018 -1573 42 57 96
-220.634 232.973 -1573 44 58 98
-217.429 232.929 -1573 45 59 98
-214.226 232.885 -1573 44 58 97
-211.427 233.286 -1576 36 50 87
-208.353 233.392 -1577 37 51 88
-205.148 233.351 -1577 42 56 93
-201.431 232.718 -1573 49 62 99
-198.236 232.678 -1573 46 59 96
-194.548 232.046 -1569 41 55 91
-191.365 232.008 -1569 41 52 84
-188.303 232.117 -1570 42 51 80
-185.357 232.376 -1572 36 45 71
-182.172 232.339 -1572 32 41 68
-179.331 232.746 -1575 28 39 70
-176.031 232.562 -1574 34 42 73
-172.847 232.527 -1574 44 51 82
-169.557 232.345 -1573 46 55 87
-165.954 231.721 -1569 46 55 87
-161.954 230.507 -1561 48 57 89
-157.988 229.293 -1553 50 60 93
-154.255 228.376 -1547 53 64 97
-150.547 227.46 -1541 53 64 97
-147.056 226.84 -1537 52 64 98
-143.864 226.663 -1536 50 63 98
-140.768 226.635 -1536 49 63 97
-137.674 226.607 -1536 48 63 97
-134.58 226.58 -1536 47 61 98
-131.659 226.848 -1538 45 59 96
-128.564 226.822 -1538 45 59 96
-125.469 226.797 -1538 43 60 96
-122.217 226.477 -1536 46 62 99
-119.051 226.305 -1535 51 65 102
-115.891 226.135 -1534 50 66 102
-112.661 225.817 -1532 50 67 103
-109.512 225.647 -1531 49 67 105
-106.438 225.626 -1531 48 66 104
-103.432 225.752 -1532 50 68 106
-100.226 225.437 -1530 50 68 106
-97.0929 225.27 -1529 49 68 106
-93.9642 225.104 -1528 48 69 106
-90.8404 224.938 -1527 50 69 106
-87.7788 224.92 -1527 50 68 104
-84.607 224.609 -1525 47 67 104
-81.6578 224.887 -1527 43 64 101
-78.5469 224.723 -1526 45 64 100
-75.5395 224.855 -1527 49 67 104
-72.4812 224.841 -1527 50 68 106
-69.56 225.268 -1530 49 69 105
-66.5838 225.549 -1532 48 68 103
-63.5172 225.536 -1532 50 68 106
-60.53 225.818 -1534 49 68 106
-57.5354 226.101 -1536 46 67 104
-54.4623 226.09 -1536 44 62 102
-51.4231 226.226 -1537 33 51 90
-48.3489 226.216 -1537 40 58 96
-45.2751 226.207 -1537 48 65 104
-42.229 226.346 -1538 46 63 102
-39.2048 226.632 -1540 43 60 98
-36.1964 227.066 -1543 43 60 98
-33.1333 227.206 -1544 39 56 93
-30.047 227.2 -1544 35 49 88
-26.9435 227.047 -1543 41 54 93
-23.8443 226.895 -1542 48 62 99
-20.7357 226.596 -1540 53 66 101
-17.6468 226.445 -1539 45 57 89
-14.581 226.589 -1540 53 63 94
-11.4888 226.292 -1538 52 62 94
-8.41038 226.143 -1537 46 59 94
-5.3393 226.142 -1537 47 60 96
-2.26973 226.288 -1538 43 56 93
0.80154 225.847 -1535 46 59 96
3.8711 225.994 -1536 51 64 101
6.93113 225.701 -1534 50 64 101
9.98322 225.409 -1532 47 62 101
13.0187 224.969 -1529 45 60 99
16.0635 224.825 -1528 45 62 99
19.0794 224.387 -1525 46 63 100
22.1268 224.391 -1525 47 64 101
25.1416 224.102 -1523 46 64 103
28.167 223.96 -1522 46 63 103
31.1887 223.819 -1521 48 64 107
34.1842 223.531 -1519 50 67 106
37.2209 223.538 -1519 51 68 106
40.2579 223.546 -1519 51 69 109
43.3523 223.848 -1521 53 71 111
46.4244 224.005 -1522 54 72 112
49.4685 224.014 -1522 51 72 109
52.4784 223.877 -1521 53 74 111
55.5579 224.035 -1522 54 72 110
58.4877 223.605 -1519 51 69 108
61.5679 223.764 -1520 51 69 109
64.6103 223.777 -1520 48 70 109
67.6977 223.937 -1521 43 65 104
70.7895 224.098 -1522 46 68 107
73.9346 224.407 -1524 51 73 113
76.9872 224.422 -1524 50 72 113
80.0929 224.585 -1525 51 73 114
83.3123 225.043 -1528 50 72 112
86.4315 225.207 -1529 49 71 110
89.4382 225.078 -1528 49 71 112
92.6231 225.39 -1530 51 73 113
95.7545 225.556 -1531 50 71 111
98.7615 225.429 -1530 48 70 113
101.965 225.743 -1532 49 71 113
105.177 226.059 -1534 49 71 114
108.328 226.227 -1535 49 69 111
111.483 226.397 -1536 43 63 105
114.42 226.124 -1534 40 62 105
117.426 226 -1533 38 58 101
120.351 225.729 -1531 39 57 101
123.268 225.459 -1529 45 63 107
126.344 225.484 -1529 54 72 116
129.59 225.804 -1531 61 79 123
132.585 225.683 -1530 61 77 122
135.932 226.152 -1533 59 75 120
139.473 226.917 -1538 57 73 116
142.851 227.388 -1541 51 70 114
146.336 228.008 -1545 49 69 113
149.742 228.48 -1548 51 69 111
152.964 228.658 -1549 42 60 100
155.989 228.541 -1548 29 47 86
159.012 228.425 -1547 28 43 77
162.137 228.457 -1547 35 50 85
165.156 228.343 -1546 46 62 97
168.282 228.376 -1546 47 64 99
171.409 228.41 -1546 45 62 96
174.65 228.593 -1547 46 61 96
177.782 228.628 -1547 41 57 94
180.915 228.664 -1547 39 55 92
184.169 228.849 -1548 49 62 100
187.549 229.182 -1550 49 65 102
190.816 229.368 -1551 44 62 99
194.088 229.554 -1552 49 60 95
197.239 229.594 -1552 47 60 95
200.392 229.634 -1552 47 61 96
203.415 229.526 -1551 50 63 99
206.436 229.419 -1550 50 65 104
209.455 229.313 -1549 44 62 103
212.471 229.208 -1548 46 58 88
215.624 229.251 -1548 47 61 95
218.921 229.443 -1549 46 64 105
221.936 229.339 -1548 47 67 109
225.386 229.681 -1550 49 67 108
228.698 229.875 -1551 52 66 104
232.016 230.07 -1552 51 68 113
235.34 230.265 -1553 50 68 113
238.517 230.313 -1553 48 65 110
241.851 230.51 -1554 50 65 110
244.876 230.411 -1553 48 64 107
248.218 230.609 -1554 49 68 103
251.243 230.511 -1553 52 69 109
254.43 230.563 -1553 52 69 110
257.453 230.466 -1552 57 70 117
260.81 230.667 -1553 58 73 118
264.004 230.72 -1553 51 67 113
267.199 230.774 -1553 48 65 112
270.571 230.978 -1554 52 66 108
273.773 231.033 -1554 59 73 115
277.156 231.238 -1555 58 78 122
280.365 231.294 -1555 61 78 121
283.759 231.501 -1556 57 74 117
286.974 231.559 -1556 53 72 114
290.192 231.617 -1556 55 72 110
293.79 231.975 -1558 57 74 113
297.018 232.035 -1558 54 71 111
300.247 232.096 -1558 54 68 111
303.09 231.86 -1556 56 70 111
306.715 232.22 -1558 54 67 104
309.554 231.985 -1556 48 64 107
312.991 232.198 -1557 47 62 105
316.435 232.411 -1558 47 62 103
319.681 232.476 -1558 50 61 104
323.137 232.691 -1559 53 66 108
326.39 232.758 -1559 55 70 110
329.223 232.526 -1557 51 67 111
332.478 232.594 -1557 55 73 117
335.735 232.663 -1557 56 75 119
338.56 232.433 -1555 51 75 122
341.82 232.503 -1555 56 77 123
345.082 232.574 -1555 52 73 118
348.571 232.795 -1556 55 75 120
352.067 233.017 -1557 54 77 123
355.571 233.239 -1558 57 78 124
359.312 233.613 -1560 64 80 124
362.832 233.837 -1561 66 84 119
365.891 233.762 -1560 96 101 121
369.422 233.988 -1561 217 205 205
372.244 233.765 -1559 252 223 205
376.747 234.592 -1564 254 223 202
381.032 235.271 -1568 253 220 197
384.846 235.65 -1570 254 217 191
388.673 236.031 -1572 251 214 188
391.514 235.811 -1570 250 212 185
395.356 236.193 -1572 250 209 182
397.941 235.825 -1569 246 205 178
401.029 235.758 -1568 247 203 179
404.632 235.992 -1569 247 201 179
408.503 236.377 -1571 240 196 172
412.386 236.764 -1573 234 191 163
416.017 237 -1574 231 189 159
419.39 237.088 -1574 232 189 157
422.766 237.175 -1574 238 189 158
426.687 237.566 -1576 240 191 160
429.802 237.504 -1575 243 194 163
433.192 237.595 -1575 245 196 168
436.032 237.384 -1573 247 198 168
439.425 237.476 -1573 247 199 169
442.259 237.266 -1571 248 201 172
445.372 237.208 -1570 250 207 181
448.199 237 -1568 253 213 191
451.598 237.094 -1568 255 218 197
454.71 237.038 -1567 254 222 201
457.822 236.983 -1566 255 223 199
460.639 236.777 -1564 255 224 198
464.342 237.026 -1565 255 227 200
467.755 237.124 -1565 255 230 203
471.473 237.375 -1566 255 234 210
476.109 238.081 -1570 255 238 215
480.462 238.638 -1573 255 240 219
483.294 238.436 -1571 255 241 220
486.741 238.539 -1571 255 244 219
488.009 237.579 -1564 255 245 220
490.822 237.379 -1562 253 244 219
515.006 238.128 -1562 228 224 216
-507.16 241.197 -1609 172 159 163
-504.558 241.541 -1612 193 173 174
-498.839 240.387 -1605 228 205 204
-496.859 241.032 -1610 248 223 221
-495.168 241.827 -1616 253 228 220
-492.238 242.023 -1618 253 227 218
-489.908 242.519 -1622 253 226 215
-488.165 243.314 -1628 253 225 211
-486.102 243.96 -1633 253 223 209
-481.658 243.411 -1630 253 222 207
-477.232 242.864 -1627 254 221 206
-472.822 242.317 -1624 253 222 207
-470.164 242.667 -1627 253 221 203
-465.777 242.123 -1624 251 219 201
-462.26 242.027 -1624 252 219 202
-459.03 242.08 -1625 253 221 203
-455.8 242.135 -1626 253 220 202
-452.291 242.041 -1626 253 219 201
-448.787 241.948 -1626 253 218 204
-446.656 242.599 -1631 253 219 206
-443.149 242.508 -1631 253 220 209
-439.376 242.268 -1630 253 220 208
-434.542 241.435 -1625 253 221 209
-431.059 241.346 -1625 255 223 209
-427.054 240.961 -1623 255 223 211
-423.061 240.577 -1621 255 223 211
-419.081 240.194 -1619 248 222 217
-415.883 240.257 -1620 198 181 183
-411.92 239.875 -1618 114 110 121
-407.718 239.347 -1615 74 103 140
-404.282 239.263 -1615 69 100 140
-401.099 239.329 -1616 63 95 138
-397.422 239.1 -1615 54 89 135
-393.998 239.019 -1615 52 88 135
-390.093 238.643 -1613 55 87 130
-386.919 238.711 -1614 55 85 127
-382.318 237.894 -1609 54 82 123
-378.684 237.668 -1608 56 78 116
-375.291 237.592 -1608 51 73 110
-372.364 237.811 -1610 36 56 91
-368.973 237.736 -1610 41 60 94
-365.586 237.661 -1610 53 72 105
-362.201 237.587 -1610 55 76 113
-358.597 237.367 -1609 53 75 114
-354.559 236.852 -1606 49 72 113
-350.974 236.633 -1605 47 71 112
-346.962 236.12 -1602 48 72 114
-344.253 236.492 -1605 54 78 124
-340.898 236.423 -1605 67 93 139
-337.335 236.207 -1604 67 93 139
-333.571 235.845 -1602 50 74 118
-330.024 235.63 -1601 37 59 101
-326.892 235.711 -1602 43 60 98
-322.75 235.057 -1598 48 62 101
-319.825 235.287 -1600 62 76 115
-316.5 235.222 -1600 46 60 99
-312.786 234.865 -1598 40 53 90
-309.276 234.656 -1597 47 58 93
-305.965 234.594 -1597 47 61 100
-302.278 234.239 -1595 50 64 103
-298.601 233.885 -1593 50 64 103
-295.306 233.825 -1593 51 67 107
-291.647 233.473 -1591 53 70 110
-288.361 233.414 -1591 49 63 99
-285.077 233.357 -1591 43 57 93
-281.088 232.713 -1587 43 56 90
-278.167 232.951 -1589 44 57 91
-274.895 232.895 -1589 45 58 92
-271.454 232.694 -1588 42 57 89
-268.019 232.494 -1587 40 57 91
-264.925 232.587 -1588 44 61 97
-261.499 232.388 -1587 50 64 101
-257.917 232.043 -1585 45 59 94
-254.827 232.138 -1586 33 47 78
-251.576 232.088 -1586 31 45 76
-247.702 231.453 -1582 43 57 88
-244.309 231.257 -1581 40 53 86
-240.922 231.063 -1580 37 50 84
-237.692 231.015 -1580 45 58 92
-234.316 230.822 -1579 44 58 92
-231.092 230.775 -1579 50 64 99
-227.293 230.145 -1575 46 60 99
-223.796 229.808 -1573 43 57 97
-220.45 229.618 -1572 46 60 101
-217.109 229.428 -1571 49 63 102
-213.911 229.385 -1571 45 59 98
-211.251 229.927 -1575 35 49 86
-208.18 230.032 -1576 35 49 86
-204.976 229.991 -1576 43 57 94
-201.519 229.658 -1574 50 63 100
-198.197 229.473 -1573 47 60 97
-194.509 228.85 -1569 41 55 92
-191.204 228.666 -1568 41 52 84
-188.026 228.629 -1568 39 48 78
-185.202 229.029 -1571 33 42 68
-182.252 229.284 -1573 31 40 67
-179.181 229.394 -1574 30 41 71
-175.884 229.214 -1573 35 44 74
-172.703 229.179 -1573 45 52 82
-169.307 228.854 -1571 47 56 88
-165.921 228.529 -1569 47 56 88
-162.13 227.623 -1563 49 58 90
-158.364 226.718 -1557 50 61 93
-154.424 225.522 -1549 53 64 96
-150.713 224.618 -1543 53 64 97
-147.314 224.152 -1540 51 63 96
-144.022 223.833 -1538 48 61 96
-140.649 223.368 -1535 49 64 98
-137.557 223.34 -1535 48 63 97
-134.553 223.459 -1536 47 61 98
-131.547 223.578 -1537 48 62 99
-128.371 223.407 -1536 49 63 100
-125.281 223.382 -1536 47 64 100
-122.034 223.067 -1534 47 63 99
-118.873 222.898 -1533 49 63 100
-115.717 222.729 -1532 48 64 100
-112.492 222.416 -1530 47 64 100
-109.348 222.249 -1529 49 67 105
-106.347 222.373 -1530 49 67 105
-103.276 222.353 -1530 49 67 105
-100.141 222.187 -1529 49 67 105
-97.0736 222.168 -1529 50 68 106
-94.0071 222.149 -1529 49 70 107
-90.8819 221.986 -1528 49 69 106
-87.7615 221.823 -1527 51 69 105
-84.7013 221.806 -1527 47 67 104
-81.6952 221.935 -1528 44 65 102
-78.5828 221.774 -1527 46 64 100
-75.4751 221.613 -1526 48 66 103
-72.4669 221.744 -1527 50 68 105
-69.5007 222.021 -1529 49 70 105
-66.4837 222.152 -1530 47 68 103
-63.4632 222.285 -1531 50 68 106
-60.4786 222.563 -1533 49 69 106
-57.4492 222.697 -1534 47 68 105
-54.4161 222.831 -1535 41 59 99
-51.413 223.111 -1537 34 52 92
-48.3393 223.101 -1537 44 62 100
-45.2956 223.237 -1538 49 66 105
-42.2481 223.374 -1539 46 63 103
-39.2225 223.656 -1541 42 59 97
-36.1657 223.794 -1542 42 59 96
-33.1053 223.932 -1543 40 57 93
-30.0022 223.781 -1542 37 51 89
-26.9208 223.775 -1542 41 54 92
-23.8241 223.625 -1541 47 61 98
-20.7182 223.331 -1539 52 64 99
-17.6318 223.182 -1538 41 52 84
-14.5686 223.324 -1539 47 56 86
-11.4792 223.031 -1537 51 61 91
-8.40859 223.029 -1537 46 59 94
-5.33828 223.028 -1537 47 60 96
-2.26783 223.027 -1537 47 60 97
0.801374 222.737 -1535 49 62 99
3.86782 222.737 -1535 50 64 101
6.91623 222.158 -1531 49 63 100
9.96156 221.869 -1529 47 63 101
12.9992 221.581 -1527 46 63 101
16.0392 221.439 -1526 48 65 101
19.0755 221.297 -1525 46 63 100
22.1226 221.301 -1525 46 63 101
25.1532 221.161 -1524 49 66 106
28.1799 221.021 -1523 46 63 103
31.1826 220.737 -1521 46 62 104
34.1999 220.598 -1520 51 67 107
37.2136 220.46 -1519 52 69 107
40.25 220.467 -1519 50 68 108
43.2867 220.476 -1519 51 69 109
46.3238 220.484 -1519 50 67 107
49.4263 220.784 -1521 49 70 107
52.4681 220.794 -1521 51 71 108
55.4739 220.66 -1520 55 73 111
58.4761 220.526 -1519 53 70 109
61.5559 220.683 -1520 52 69 109
64.5975 220.695 -1520 48 68 108
67.6397 220.708 -1520 43 64 102
70.7756 221.012 -1522 46 68 105
73.8715 221.171 -1523 52 74 112
76.972 221.331 -1524 51 73 112
80.077 221.492 -1525 50 72 113
83.1867 221.653 -1526 48 70 111
86.3579 221.961 -1528 48 70 111
89.3619 221.833 -1527 49 71 112
92.4838 221.996 -1528 50 72 113
95.548 222.014 -1528 50 72 113
98.6775 222.179 -1529 49 71 112
101.878 222.489 -1531 49 70 112
105.088 222.8 -1533 47 68 110
108.165 222.821 -1533 47 67 109
111.316 222.988 -1534 46 66 108
114.323 222.865 -1533 42 64 106
117.403 222.888 -1533 37 57 100
120.248 222.475 -1530 36 54 98
123.244 222.354 -1529 42 60 104
126.154 222.087 -1527 50 68 112
129.48 222.549 -1530 58 76 120
132.559 222.575 -1530 59 75 121
135.816 222.892 -1532 58 74 119
139.355 223.647 -1537 57 73 117
142.73 224.111 -1540 53 71 115
146.307 224.867 -1545 53 73 116
149.616 225.188 -1547 53 72 114
153.032 225.654 -1550 47 66 107
155.958 225.394 -1548 35 53 93
158.98 225.279 -1547 28 43 77
162.209 225.457 -1548 27 42 76
165.23 225.343 -1547 38 53 87
168.357 225.376 -1547 42 58 93
171.485 225.41 -1547 41 57 92
174.615 225.444 -1547 45 60 94
177.746 225.479 -1547 42 59 95
180.879 225.515 -1547 38 54 92
184.251 225.843 -1549 45 58 94
187.511 226.025 -1550 45 59 98
190.901 226.354 -1552 41 55 95
194.3 226.684 -1554 47 58 93
197.454 226.723 -1554 49 62 96
200.61 226.763 -1554 46 61 95
203.637 226.657 -1553 50 61 95
206.661 226.552 -1552 51 63 100
209.548 226.301 -1550 48 61 101
212.703 226.343 -1550 47 59 86
215.86 226.386 -1550 47 60 93
219.018 226.429 -1550 49 65 108
222.178 226.473 -1550 48 67 112
225.631 226.81 -1552 48 65 106
228.947 227.001 -1553 51 62 94
232.119 227.047 -1553 51 67 106
235.141 226.947 -1552 52 69 110
238.469 227.141 -1553 47 63 106
241.491 227.042 -1552 47 63 106
244.511 226.945 -1551 48 64 105
247.689 226.994 -1551 50 65 97
250.869 227.044 -1551 50 67 106
254.379 227.387 -1553 51 68 110
257.567 227.438 -1553 55 70 120
260.925 227.636 -1554 58 72 117
264.12 227.689 -1554 54 68 112
267.489 227.889 -1555 49 64 109
270.517 227.796 -1554 50 64 100
273.894 227.997 -1555 54 67 103
277.1 228.052 -1555 57 72 115
280.308 228.108 -1555 55 72 113
283.519 228.165 -1555 53 70 111
286.732 228.222 -1555 55 72 115
290.134 228.427 -1556 57 71 110
293.731 228.779 -1558 57 70 109
296.767 228.692 -1557 58 71 110
299.994 228.752 -1557 57 70 114
303.418 228.959 -1558 56 70 112
306.456 228.874 -1557 48 62 99
309.691 228.936 -1557 46 61 104
313.129 229.146 -1558 48 63 107
316.168 229.062 -1557 46 61 105
319.411 229.126 -1557 50 63 105
323.071 229.486 -1559 53 66 106
326.323 229.551 -1559 57 71 109
329.156 229.323 -1557 53 69 112
332.624 229.537 -1558 54 71 113
335.882 229.605 -1558 48 66 108
338.709 229.378 -1556 45 67 111
342.189 229.595 -1557 52 73 117
345.455 229.665 -1557 54 73 117
348.724 229.735 -1557 57 74 119
352.221 229.954 -1558 57 77 123
355.955 230.321 -1560 57 76 121
359.008 230.246 -1559 65 79 120
362.293 230.319 -1559 66 82 115
366.051 230.689 -1561 104 107 124
369.346 230.764 -1561 225 209 205
372.884 230.988 -1562 253 221 203
376.188 231.064 -1562 254 220 197
380.468 231.733 -1566 255 220 194
384.032 231.959 -1567 253 217 191
387.357 232.038 -1567 248 212 186
390.187 231.821 -1565 247 211 185
394.52 232.494 -1569 246 209 183
397.098 232.131 -1566 242 205 179
401.202 232.657 -1569 245 203 177
404.807 232.888 -1570 247 201 177
407.379 232.526 -1567 240 197 170
410.99 232.759 -1568 235 191 163
415.138 233.289 -1571 233 189 161
419.569 233.969 -1575 234 189 161
422.41 233.758 -1573 238 190 162
426.328 234.143 -1575 238 191 163
429.44 234.083 -1574 241 193 165
432.277 233.874 -1572 246 196 170
435.109 233.666 -1570 247 198 169
438.216 233.607 -1569 244 195 166
440.759 233.251 -1566 242 194 165
444.145 233.343 -1566 248 201 173
447.248 233.286 -1565 253 209 184
450.639 233.379 -1565 255 216 191
453.744 233.324 -1564 253 220 195
456.849 233.269 -1563 255 222 197
459.365 232.916 -1560 255 223 197
464.245 233.759 -1565 255 226 199
467.059 233.557 -1563 255 229 198
472.578 234.701 -1570 255 233 205
475.706 234.65 -1569 255 235 210
480.055 235.199 -1572 255 236 214
482.27 234.7 -1568 255 240 217
486.019 234.951 -1569 255 241 217
487.282 234.005 -1562 255 244 219
490.718 234.107 -1562 254 245 221
493.209 233.76 -1559 255 245 225
497.603 234.314 -1562 255 245 222
526.787 234.382 -1556 155 147 143
-510.304 234.741 -1586 205 199 202
-511.274 236.707 -1600 215 202 202
-507.744 236.602 -1600 235 215 210
-510.206 239.306 -1619 244 222 216
-506.644 239.201 -1619 248 223 218
-500.911 238.063 -1612 251 225 218
-497.99 238.256 -1614 251 223 215
-495.985 238.892 -1619 253 225 214
-492.745 238.938 -1620 253 225 213
-489.505 238.984 -1621 251 223 210
-488.064 239.916 -1628 249 221 207
-485.704 240.405 -1632 247 219 204
-481.559 240.011 -1630 247 218 202
-477.427 239.619 -1628 248 217 201
-473.016 239.08 -1625 247 216 200
-468.623 238.543 -1622 246 212 195
-465.107 238.447 -1622 245 211 190
-461.596 238.353 -1622 244 211 187
-458.936 238.7 -1625 246 211 188
-455.987 238.9 -1627 246 209 187
-452.477 238.808 -1627 246 208 186
-448.971 238.716 -1627 246 208 188
-445.469 238.625 -1627 245 208 189
-442.243 238.681 -1628 246 209 193
-439.555 239.032 -1631 246 210 195
-434.987 238.357 -1627 247 211 195
-430.971 237.976 -1625 250 213 195
-427.23 237.743 -1624 250 213 196
-423.497 237.51 -1623 251 214 197
-420.548 237.718 -1625 242 208 196
-416.568 237.34 -1623 168 148 146
-412.855 237.11 -1622 90 88 99
-408.644 236.589 -1619 71 96 129
-404.701 236.215 -1617 56 82 117
