ply
format ascii 1.0
comment Created by Open3D
element vertex 1452
property double x
property double y
property double z
property uchar red
property uchar green
property uchar blue
end_header
-280.163 219.009 -1893 48 62 99
-276.016 218.734 -1891 48 62 99
-272.312 218.807 -1892 46 60 97
-267.896 218.302 -1888 45 59 98
-264.339 218.491 -1890 48 62 101
-259.672 217.757 -1884 49 63 102
-255.575 217.485 -1882 46 60 99
-251.623 217.33 -1881 48 62 101
-247.544 217.059 -1879 51 65 104
-243.346 216.674 -1876 54 68 107
-239.546 216.637 -1876 48 62 101
-235.496 216.369 -1874 44 59 98
-232.074 216.678 -1877 44 61 99
-228.034 216.411 -1875 45 63 103
-224.123 216.261 -1874 44 62 102
-219.866 215.764 -1870 45 62 102
-215.973 215.615 -1869 48 65 105
-211.859 215.235 -1866 51 68 108
-208.316 215.433 -1868 50 66 108
-204.548 215.401 -1868 47 63 105
-200.89 215.485 -1869 45 62 102
-196.912 215.223 -1867 48 65 103
-193.358 215.423 -1869 48 65 103
-189.392 215.163 -1867 46 63 101
-185.335 214.788 -1864 47 64 102
-181.195 214.299 -1860 44 61 99
-177.55 214.386 -1861 41 58 96
-173.715 214.243 -1860 43 60 98
-170.16 214.447 -1862 39 56 94
-166.062 213.96 -1858 37 54 91
-162.243 213.819 -1857 38 55 91
-158.259 213.449 -1854 38 56 95
-154.455 213.31 -1853 37 55 95
-150.494 212.941 -1850 37 54 92
-146.546 212.572 -1847 38 56 93
-142.689 212.32 -1845 35 53 91
-138.916 212.183 -1844 31 49 87
-135.001 211.816 -1841 31 49 87
-131.171 211.565 -1839 38 56 98
-127.558 211.66 -1840 46 64 107
-123.942 211.756 -1841 52 69 114
-120.323 211.852 -1842 53 71 115
-116.637 211.833 -1842 50 68 111
-113.014 211.931 -1843 47 65 102
-109.329 211.913 -1843 49 63 99
-105.644 211.897 -1843 50 61 96
-101.905 211.766 -1842 46 58 91
-98.2775 211.865 -1843 46 57 89
-94.6467 211.965 -1844 42 51 81
-90.9633 211.951 -1844 36 45 73
-87.186 211.707 -1842 42 51 79
-83.5081 211.694 -1842 52 61 89
-79.6141 211.107 -1837 54 63 92
-75.9475 211.095 -1837 58 68 98
-72.2027 210.853 -1835 57 67 97
-68.6533 211.187 -1838 56 65 95
-64.9864 211.177 -1838 54 63 93
-61.3867 211.397 -1840 57 65 97
-57.6541 211.158 -1838 60 68 102
-53.9593 211.034 -1837 58 66 100
-50.2689 210.911 -1836 60 68 102
-46.5576 210.674 -1834 55 69 101
-42.9248 210.782 -1835 50 63 97
-39.2455 210.661 -1834 55 68 103
-35.6287 210.885 -1836 53 66 101
-31.9695 210.879 -1836 51 64 99
-28.3567 211.219 -1839 52 63 98
-24.7054 211.33 -1840 54 62 96
-21.1074 212.016 -1846 51 58 91
-17.448 212.242 -1848 46 53 86
-13.7806 212.47 -1850 46 53 86
-10.1056 212.698 -1852 45 52 85
-6.40862 212.467 -1850 45 53 85
-2.7182 212.121 -1847 45 54 86
0.960031 211.777 -1844 50 57 91
4.63156 211.662 -1843 59 66 100
8.28991 211.319 -1840 58 66 100
11.9756 211.665 -1843 56 69 102
15.6393 211.552 -1842 54 67 101
19.3514 212.014 -1846 53 66 103
23.0299 212.018 -1846 50 63 100
26.781 212.596 -1851 50 63 100
30.4202 212.256 -1848 51 65 102
34.1218 212.376 -1849 51 65 102
37.8072 212.381 -1849 51 65 102
41.5378 212.617 -1851 51 64 103
45.2034 212.509 -1850 50 63 102
48.9179 212.631 -1851 47 60 101
52.6655 212.869 -1853 45 58 98
56.3911 212.992 -1854 45 58 97
60.1211 213.116 -1855 44 57 97
63.7868 213.011 -1854 45 58 98
67.5946 213.366 -1857 47 60 99
71.3381 213.491 -1858 49 63 102
75.1265 213.732 -1860 47 61 100
78.9659 214.089 -1863 45 62 102
82.7737 214.332 -1865 47 64 104
86.4972 214.345 -1865 48 65 105
90.3182 214.588 -1867 47 64 104
94.2488 215.062 -1871 47 64 104
97.8293 214.732 -1868 47 64 104
101.779 215.208 -1872 45 62 102
105.577 215.339 -1873 47 64 104
109.38 215.47 -1874 46 63 101
113.127 215.488 -1874 44 61 99
116.875 215.506 -1874 46 63 101
120.624 215.524 -1874 52 69 109
124.374 215.543 -1874 43 60 100
128.125 215.563 -1874 42 59 99
132.088 215.928 -1877 47 64 103
136.136 216.409 -1881 49 65 104
140.053 216.661 -1883 47 65 103
144.056 217.028 -1886 51 68 106
147.993 217.281 -1888 47 64 102
151.538 216.959 -1885 45 62 102
155.319 216.983 -1885 47 64 104
159.27 217.237 -1887 44 61 101
162.884 217.032 -1885 42 60 99
166.846 217.288 -1887 42 59 97
170.998 217.775 -1891 44 58 97
174.89 217.917 -1892 44 58 97
178.504 217.714 -1890 40 54 93
182.305 217.743 -1890 41 54 93
186.107 217.771 -1890 46 59 98
189.81 217.685 -1889 48 61 100
193.613 217.715 -1889 46 59 100
197.417 217.746 -1889 46 57 98
201.33 217.892 -1890 49 57 97
205.14 217.924 -1890 49 59 102
208.73 217.726 -1888 49 59 101
212.427 217.643 -1887 53 61 101
216.465 217.907 -1889 55 63 102
220.397 218.057 -1890 60 68 107
224.69 218.553 -1894 54 64 102
228.88 218.935 -1897 47 56 95
232.594 218.856 -1896 38 47 85
236.68 219.123 -1898 36 46 84
240.522 219.161 -1898 46 55 91
244.238 219.083 -1897 50 58 92
247.952 219.006 -1896 49 56 89
251.663 218.93 -1895 48 56 86
255.103 218.623 -1892 48 57 82
258.67 218.432 -1890 54 61 90
262.647 218.589 -1891 54 61 91
266.49 218.63 -1891 53 60 91
270.478 218.788 -1892 50 59 89
274.762 219.178 -1895 48 58 88
278.767 219.337 -1896 46 58 90
282.48 219.265 -1895 49 62 97
286.191 219.194 -1894 49 62 99
290.053 219.24 -1894 54 66 106
294.384 219.633 -1897 62 72 103
298.572 219.911 -1899 72 79 104
303.408 220.654 -1905 158 148 146
307.948 221.165 -1909 203 183 168
312.017 221.33 -1910 212 187 169
316.258 221.611 -1912 223 188 160
320.343 221.778 -1913 227 186 156
324.434 221.944 -1914 232 189 158
328.189 221.88 -1913 231 187 150
331.943 221.816 -1912 227 186 150
335.695 221.753 -1911 224 184 148
339.624 221.806 -1911 225 186 147
343.196 221.628 -1909 224 186 145
347.127 221.683 -1909 226 186 146
351.428 221.971 -1911 227 184 146
355.368 222.027 -1911 229 184 146
358.56 221.619 -1907 230 185 148
362.688 221.792 -1908 228 185 150
365.671 221.269 -1903 225 183 152
369.607 221.327 -1903 226 184 153
373.35 221.27 -1902 229 184 150
377.687 221.562 -1904 231 190 155
381.234 221.39 -1902 234 193 158
385.18 221.451 -1902 238 197 162
388.517 221.163 -1899 240 199 164
392.051 220.992 -1897 239 201 167
395.58 220.822 -1895 239 206 174
399.525 220.886 -1895 245 209 178
403.474 220.95 -1895 244 209 178
407.857 221.248 -1897 240 207 176
412.034 221.43 -1898 243 210 175
416.438 221.73 -1900 243 211 175
420.854 222.03 -1902 242 211 175
425.059 222.215 -1903 244 211 175
427.919 221.699 -1898 246 211 174
432.354 222.002 -1900 247 211 174
436.113 221.955 -1899 247 209 175
440.103 222.025 -1899 245 210 178
443.628 221.862 -1897 247 212 181
448.094 222.168 -1899 249 214 185
452.333 222.357 -1900 249 215 184
456.101 222.313 -1899 251 216 187
460.352 222.504 -1900 254 218 190
463.879 222.344 -1898 253 220 191
468.141 222.537 -1899 252 221 194
472.162 222.613 -1899 250 221 194
476.689 222.924 -1901 252 221 196
480.976 223.119 -1902 253 222 195
485.272 223.314 -1903 252 221 194
490.09 223.745 -1906 248 220 192
494.407 223.942 -1907 247 219 194
497.948 223.788 -1905 248 220 194
502.012 223.869 -1905 249 221 195
506.081 223.951 -1905 248 220 194
510.154 224.033 -1905 251 223 198
514.501 224.234 -1906 252 224 200
517.769 223.965 -1903 251 222 200
522.125 224.168 -1904 253 222 199
525.662 224.017 -1902 253 222 199
529.473 223.986 -1901 251 221 198
534.126 224.308 -1903 254 222 197
538.794 224.631 -1905 253 221 197
543.189 224.838 -1906 253 220 197
547.306 224.927 -1906 253 219 196
550.85 224.781 -1904 251 219 198
554.681 224.753 -1903 252 219 197
558.513 224.726 -1902 253 219 196
563.529 225.173 -1905 253 219 194
567.968 225.384 -1906 251 218 190
572.716 225.714 -1908 250 219 193
575.966 225.454 -1905 249 218 193
580.731 225.786 -1907 253 215 189
584.896 225.882 -1907 254 214 188
588.758 225.86 -1906 249 213 186
592.309 225.72 -1904 246 213 186
595.545 225.463 -1901 248 215 187
599.087 225.324 -1899 249 216 184
601.992 224.949 -1895 249 215 181
633.176 224.937 -1888 255 250 242
638.053 225.281 -1890 254 249 241
642.945 225.626 -1892 238 225 219
644.774 224.899 -1885 239 214 195
650.02 225.365 -1888 243 213 188
652.513 224.877 -1883 251 219 190
656.385 224.867 -1882 251 217 187
660.259 224.858 -1881 253 220 193
691.626 222.402 -1851 240 207 186
697.731 223.12 -1856 241 209 184
701.975 223.239 -1856 241 209 181
707.367 223.719 -1859 245 212 182
712.779 224.201 -1862 247 217 189
717.057 224.323 -1862 251 222 195
720.954 224.324 -1861 252 228 201
725.243 224.448 -1861 255 236 208
729.54 224.572 -1861 255 241 215
734.632 224.938 -1863 255 240 212
744.467 225.553 -1866 255 241 213
749.205 225.802 -1867 255 237 212
759.936 226.666 -1872 253 234 208
765.125 227.039 -1874 255 229 205
771.564 227.777 -1879 255 229 206
779.272 228.881 -1887 254 227 206
785.78 229.622 -1892 255 226 206
792.319 230.365 -1897 255 230 212
798.889 231.11 -1902 253 225 207
803.802 231.37 -1903 245 212 196
808.727 231.631 -1904 231 193 177
812.811 231.65 -1903 235 196 178
821.623 233.009 -1913 244 205 187
826.603 233.274 -1914 251 216 195
830.294 233.175 -1912 254 218 196
836.167 233.685 -1915 250 213 196
839.868 233.587 -1913 251 214 199
-731.004 226.594 -1916 224 201 190
-727.373 226.709 -1918 231 207 195
-721.478 226.116 -1914 237 212 199
-716.732 225.878 -1913 245 213 196
-712.369 225.759 -1913 246 214 194
-708.384 225.759 -1914 248 214 193
-703.666 225.524 -1913 241 213 198
-699.689 225.526 -1914 246 215 197
-697.168 225.999 -1919 249 215 196
-692.104 225.649 -1917 250 216 194
-687.414 225.417 -1916 250 214 195
-682.022 224.951 -1913 251 214 197
-679.13 225.309 -1917 245 214 194
-673.058 224.61 -1912 243 212 192
-669.464 224.735 -1914 242 211 191
-664.824 224.508 -1913 243 210 190
-660.195 224.281 -1912 241 208 188
-656.605 224.408 -1914 238 205 185
-653.695 224.769 -1918 241 203 176
-649.418 224.662 -1918 239 201 174
-646.493 225.025 -1922 238 200 172
-643.222 225.27 -1925 238 200 172
-638.616 225.049 -1924 236 198 171
-634.021 224.828 -1923 233 197 172
-629.763 224.725 -1923 229 197 174
-624.209 224.155 -1919 227 195 174
-619.649 223.937 -1918 227 195 179
-615.099 223.72 -1917 228 196 181
-611.195 223.737 -1918 229 197 183
-606.977 223.638 -1918 227 197 181
-602.136 223.307 -1916 226 195 176
-597.621 223.093 -1915 225 193 172
-594.355 223.345 -1918 227 195 172
-590.467 223.366 -1919 231 196 172
-585.662 223.038 -1917 233 196 169
-581.479 222.944 -1917 236 196 171
-577 222.734 -1916 238 197 171
-572.829 222.641 -1916 242 199 171
-568.96 222.665 -1917 243 200 171
-565.387 222.806 -1919 243 200 172
-561.81 222.947 -1921 245 202 175
-557.358 222.741 -1920 246 202 177
-553.493 222.768 -1921 247 203 179
-548.197 222.216 -1917 249 208 179
-544.627 222.36 -1919 251 210 182
-538.801 221.578 -1913 252 210 183
-533.843 221.144 -1910 254 212 182
-529.457 220.943 -1909 254 213 183
-525.081 220.743 -1908 253 212 182
-520.713 220.544 -1907 252 211 185
-517.168 220.692 -1909 251 209 185
-512.274 220.263 -1906 250 209 187
-508.731 220.413 -1908 251 210 191
-504.126 220.101 -1906 252 212 194
-499.796 219.906 -1905 252 213 198
-497.036 220.404 -1910 251 213 198
-492.453 220.094 -1908 249 210 196
-489.674 220.593 -1913 247 208 189
-485.609 220.515 -1913 245 206 186
-482.304 220.784 -1916 242 203 180
-478.49 220.823 -1917 237 198 171
-475.42 221.208 -1921 232 195 166
-470.864 220.903 -1919 234 193 168
-466.564 220.714 -1918 233 192 167
-462.754 220.755 -1919 229 188 162
-458.467 220.567 -1918 224 183 154
-453.713 220.15 -1915 222 182 154
-449.446 219.964 -1914 217 180 154
-445.886 220.123 -1916 208 176 150
-441.398 219.823 -1914 202 171 146
-437.379 219.754 -1914 182 159 146
-431.553 218.767 -1906 134 119 117
-427.11 218.47 -1904 74 72 85
-421.568 217.6 -1897 55 69 106
-416.939 217.19 -1894 57 72 112
-412.763 217.01 -1893 56 69 106
-408.379 216.717 -1891 55 68 106
-405.075 216.997 -1894 55 68 107
-401.127 216.933 -1894 52 65 102
-397.603 217.1 -1896 49 62 97
-393.657 217.038 -1896 47 60 93
-390.538 217.434 -1900 49 58 89
-386.591 217.373 -1900 41 49 80
-382.648 217.313 -1900 41 51 82
-378.508 217.139 -1899 36 46 78
-374.573 217.081 -1899 39 50 83
-370.251 216.794 -1897 37 52 85
-366.134 216.622 -1896 45 61 95
-362.023 216.451 -1895 58 75 115
-357.92 216.281 -1894 68 83 124
-353.824 216.111 -1893 65 79 120
-349.92 216.056 -1893 54 68 107
-346.75 216.458 -1897 48 62 100
-342.483 216.177 -1895 44 58 95
-338.941 216.352 -1897 42 58 96
-335.393 216.527 -1899 42 59 97
-331.317 216.362 -1898 39 53 90
-327.42 216.311 -1898 34 49 84
-323.525 216.26 -1898 36 51 85
-319.297 215.982 -1896 39 55 89
-315.079 215.705 -1894 40 57 92
-311.366 215.771 -1895 47 64 100
-306.839 215.267 -1891 61 78 114
-303.613 215.675 -1895 57 74 110
-299.424 215.401 -1893 43 57 94
-295.558 215.355 -1893 43 57 93
-291.079 214.855 -1889 42 57 91
-287.378 214.924 -1890 44 59 93
-283.375 214.766 -1889 42 57 91
-279.231 214.495 -1887 42 56 93
-275.244 214.339 -1886 46 60 97
-272.126 214.865 -1891 47 61 98
-267.429 214.141 -1885 44 58 97
-263.738 214.214 -1886 44 58 97
-259.494 213.833 -1883 49 63 102
-255.536 213.68 -1882 44 58 97
-251.45 213.414 -1880 47 61 100
-247.769 213.489 -1881 49 63 102
-243.438 212.997 -1877 51 65 104
-239.253 212.619 -1874 50 64 103
-235.082 212.243 -1871 42 58 96
-231.667 212.547 -1874 41 58 96
-227.877 212.512 -1874 44 62 102
-224.088 212.477 -1874 44 62 102
-219.949 212.103 -1871 46 63 103
-216.055 211.956 -1870 49 66 106
-211.826 211.47 -1866 53 70 110
-208.061 211.438 -1866 51 68 108
-204.188 211.293 -1865 47 64 104
-200.429 211.262 -1865 46 63 103
-196.776 211.345 -1866 49 66 105
-193.018 211.315 -1866 48 65 103
-188.855 210.832 -1862 47 64 102
-185.108 210.804 -1862 49 66 104
-181.167 210.549 -1860 46 63 101
-177.427 210.522 -1860 45 62 100
-173.408 210.156 -1857 44 61 99
-169.768 210.243 -1858 40 57 95
-165.947 210.104 -1857 39 56 93
-162.131 209.965 -1856 39 56 92
-158.15 209.602 -1853 37 55 94
-154.432 209.578 -1853 38 56 96
-150.552 209.328 -1851 40 57 93
-146.603 208.966 -1848 39 56 93
-142.667 208.605 -1845 36 54 92
-138.97 208.584 -1845 34 52 90
-134.98 208.11 -1841 35 53 91
-131.222 207.977 -1840 35 53 93
-127.677 208.183 -1842 39 56 98
-123.99 208.164 -1842 44 60 103
-120.435 208.372 -1844 49 67 109
-116.809 208.466 -1845 51 69 110
-113.058 208.336 -1844 49 66 102
-109.371 208.319 -1844 50 63 98
-105.628 208.19 -1843 51 62 97
-101.889 208.061 -1842 46 59 92
-98.1558 207.933 -1841 47 59 91
-94.5808 208.144 -1843 43 54 84
-90.9493 208.243 -1844 37 46 75
-87.1253 207.891 -1841 39 48 76
-83.4499 207.877 -1841 53 62 90
-79.5586 207.3 -1836 53 63 92
-75.8945 207.289 -1836 56 67 97
-72.1129 206.939 -1833 55 65 95
-68.5307 207.154 -1835 55 64 94
-64.835 207.031 -1834 51 60 90
-61.2439 207.247 -1836 58 67 99
-57.5199 207.012 -1834 61 69 103
-53.8336 206.891 -1833 61 69 103
-50.1244 206.657 -1831 60 68 102
-46.4744 206.65 -1831 55 70 102
-42.8246 206.643 -1831 53 67 101
-39.1967 206.75 -1832 56 69 104
-35.5845 206.97 -1834 55 68 103
-31.982 207.303 -1837 52 64 99
-28.3369 207.411 -1838 52 63 98
-24.7016 207.633 -1840 55 63 97
-21.0699 207.968 -1843 49 56 90
-17.417 208.191 -1845 46 53 86
-13.7562 208.414 -1847 48 55 88
-10.0823 208.525 -1848 48 55 89
-6.40421 208.637 -1849 49 58 90
-2.71486 208.185 -1845 49 58 90
0.959875 208.072 -1844 51 58 92
4.62583 207.734 -1841 58 65 99
8.28415 207.509 -1839 61 69 103
11.9608 207.736 -1841 55 68 103
15.62 207.626 -1840 50 63 99
19.3275 208.08 -1844 49 62 99
23.014 208.196 -1845 50 63 100
26.7478 208.651 -1849 51 64 101
30.3663 208.204 -1845 48 62 99
34.0982 208.547 -1848 45 59 96
37.7811 208.553 -1848 44 57 94
41.464 208.559 -1848 43 56 95
45.1719 208.678 -1849 43 56 95
48.937 209.024 -1852 42 55 94
52.6576 209.145 -1853 41 54 94
56.3824 209.266 -1854 44 57 96
60.1118 209.388 -1855 43 56 95
63.7769 209.284 -1854 45 58 98
67.5477 209.52 -1856 47 60 99
71.2503 209.531 -1856 49 63 102
75.0342 209.767 -1858 47 61 100
78.8266 210.005 -1860 48 65 105
82.6279 210.243 -1862 48 65 104
86.3912 210.369 -1863 48 65 104
90.2076 210.608 -1865 48 65 104
93.9322 210.622 -1865 49 66 105
97.6573 210.637 -1865 48 65 104
101.546 210.991 -1868 46 63 101
105.335 211.12 -1869 47 64 103
109.13 211.249 -1870 44 61 99
112.868 211.266 -1870 45 62 100
116.67 211.396 -1871 46 63 101
120.412 211.415 -1871 52 69 107
124.288 211.659 -1873 44 61 100
128.173 211.904 -1875 43 60 100
132.138 212.263 -1878 48 65 104
136.115 212.623 -1881 49 66 104
140.032 212.87 -1883 45 63 101
144.11 213.344 -1887 48 65 103
147.735 213.14 -1885 46 63 101
151.514 213.163 -1885 46 63 103
155.13 212.96 -1883 47 64 104
158.992 213.097 -1884 45 62 102
162.686 213.009 -1883 45 63 101
166.732 213.374 -1886 44 61 99
170.791 213.739 -1889 44 58 97
174.678 213.878 -1890 44 58 97
178.476 213.905 -1890 44 58 97
182.276 213.933 -1890 45 58 97
185.979 213.848 -1889 45 58 97
189.78 213.877 -1889 45 58 97
193.685 214.019 -1890 44 56 97
197.596 214.163 -1891 46 56 97
201.512 214.307 -1892 49 57 97
205 213.998 -1889 49 58 101
208.809 214.03 -1889 48 58 100
212.507 213.949 -1888 53 61 101
216.317 213.982 -1888 55 63 101
220.596 214.469 -1892 55 63 101
224.774 214.843 -1895 44 54 92
228.966 215.218 -1898 37 47 85
232.681 215.14 -1897 37 47 85
236.768 215.403 -1899 41 52 89
240.358 215.213 -1897 47 56 92
243.943 215.023 -1895 47 55 89
247.652 214.947 -1894 48 55 88
251.491 214.986 -1894 52 59 89
254.929 214.684 -1891 54 63 89
258.63 214.61 -1890 54 61 90
262.606 214.764 -1891 48 55 84
266.589 214.919 -1892 48 55 86
270.722 215.187 -1894 50 59 89
274.719 215.343 -1895 49 59 89
278.87 215.613 -1897 46 57 90
282.734 215.656 -1897 45 56 88
286.448 215.587 -1896 49 61 94
290.315 215.631 -1896 53 67 104
294.648 216.018 -1899 62 71 99
298.997 216.405 -1902 90 95 118
303.52 216.907 -1906 176 160 155
308.222 217.523 -1911 197 175 162
312.458 217.799 -1913 201 177 160
316.87 218.189 -1916 209 178 152
320.795 218.239 -1916 215 175 144
324.892 218.403 -1917 218 175 141
328.995 218.568 -1918 221 176 136
332.932 218.619 -1918 217 173 135
336.345 218.329 -1915 214 171 133
340.282 218.382 -1915 215 171 132
344.041 218.321 -1914 215 171 132
348.345 218.603 -1916 214 171 131
352.108 218.543 -1915 213 168 130
355.87 218.484 -1914 212 166 128
359.443 218.312 -1912 211 165 128
363.771 218.596 -1914 208 164 128
366.574 217.968 -1908 206 162 130
370.325 217.911 -1907 207 163 131
374.468 218.084 -1908 212 167 135
378.222 218.028 -1907 211 169 135
381.775 217.859 -1905 211 169 135
385.525 217.805 -1904 214 172 139
388.66 217.408 -1900 219 177 144
392.195 217.24 -1898 220 179 146
395.934 217.187 -1897 220 181 147
400.094 217.364 -1898 227 186 151
403.836 217.313 -1897 229 190 156
408.437 217.72 -1900 227 190 156
412.403 217.785 -1900 229 192 155
416.81 218.079 -1902 230 194 156
420.787 218.145 -1902 230 194 155
424.545 218.097 -1901 231 194 155
428.752 218.279 -1902 233 194 154
432.74 218.347 -1902 235 195 155
435.814 217.956 -1898 238 196 157
440.496 218.369 -1901 236 194 159
443.792 218.095 -1898 237 195 160
448.966 218.74 -1903 243 200 167
452.737 218.696 -1902 245 204 167
456.988 218.883 -1903 247 205 169
461.005 218.956 -1903 249 205 171
464.782 218.914 -1902 245 210 174
468.805 218.988 -1902 246 212 178
472.087 218.717 -1899 246 212 180
476.613 219.023 -1901 248 211 179
481.152 219.329 -1903 247 210 177
485.449 219.521 -1904 246 210 176
490.011 219.829 -1906 246 210 177
494.587 220.138 -1908 247 211 180
498.652 220.217 -1908 247 212 181
502.195 220.066 -1906 245 212 181
506.53 220.262 -1907 245 212 179
510.607 220.343 -1907 244 213 186
514.418 220.31 -1906 245 214 190
518.501 220.392 -1906 246 216 193
521.493 220.013 -1902 249 217 193
525.301 219.981 -1901 248 216 193
529.666 220.181 -1902 247 215 192
534.601 220.614 -1905 249 217 194
538.706 220.7 -1905 249 217 190
543.956 221.25 -1909 248 215 190
548.079 221.338 -1909 248 216 191
551.918 221.311 -1908 244 214 193
556.048 221.4 -1908 248 212 189
559.304 221.141 -1905 248 209 186
563.142 221.116 -1904 247 207 179
567.279 221.207 -1904 247 208 173
572.022 221.531 -1906 248 209 175
576.174 221.624 -1906 247 209 175
580.636 221.834 -1907 249 206 173
585.414 222.161 -1909 246 205 174
589.897 222.372 -1910 245 206 174
594.079 222.468 -1910 243 205 173
597.326 222.215 -1907 244 206 171
599.936 221.73 -1902 247 206 167
602.528 221.245 -1897 250 208 168
604.465 220.526 -1890 250 207 166
628.21 220.662 -1886 255 252 247
634.748 221.584 -1893 255 251 245
639.298 221.806 -1894 255 250 241
642.159 221.442 -1890 238 222 209
645.351 221.196 -1887 230 201 177
649.912 221.42 -1888 238 204 173
652.751 221.058 -1884 244 208 173
656.973 221.165 -1884 250 214 177
661.553 221.391 -1885 250 217 188
664.024 220.913 -1880 253 219 189
693.005 218.98 -1855 249 217 197
697.99 219.332 -1857 252 221 198
702.613 219.567 -1858 252 222 194
707.248 219.802 -1859 255 228 199
711.894 220.039 -1860 255 231 201
715.396 219.922 -1858 255 231 206
719.671 220.042 -1858 255 236 212
723.562 220.044 -1857 255 238 213
729.025 220.521 -1860 255 240 214
733.719 220.762 -1861 255 235 206
739.219 221.242 -1864 255 234 206
745.138 221.841 -1868 255 234 208
749.88 222.086 -1869 255 231 208
755.845 222.688 -1873 254 230 207
761.835 223.292 -1877 250 224 203
767.444 223.778 -1880 255 222 195
773.895 224.503 -1885 254 220 194
782.029 225.707 -1894 255 220 195
788.137 226.317 -1898 255 219 195
795.106 227.167 -1904 248 213 193
800.432 227.541 -1906 222 184 166
806.198 228.035 -1909 190 152 133
809.862 227.934 -1907 181 141 122
813.952 227.952 -1906 183 142 122
821.911 229.049 -1914 199 157 137
826.893 229.309 -1915 206 168 149
830.585 229.211 -1913 208 168 147
836.46 229.713 -1916 212 169 150
841.04 229.857 -1916 226 180 159
-738.524 222.451 -1913 236 211 202
-735.663 222.795 -1917 240 214 203
-732.409 223.023 -1920 243 215 203
-729.149 223.252 -1923 243 215 202
-723.997 222.901 -1921 243 214 200
-718.861 222.551 -1919 246 212 193
-713.742 222.202 -1917 247 211 191
-709.748 222.202 -1918 247 210 189
-705.021 221.971 -1917 243 212 191
-701.036 221.972 -1918 245 213 190
-698.507 222.437 -1923 247 213 189
-692.713 221.861 -1919 248 212 188
-688.736 221.865 -1920 246 209 187
-684.049 221.638 -1919 245 207 186
-679.019 221.297 -1917 243 207 184
-674.356 221.072 -1916 243 207 182
-671.453 221.424 -1920 241 205 179
-667.148 221.316 -1920 240 203 177
-662.849 221.209 -1920 239 202 176
-658.557 221.102 -1920 236 199 173
-654.952 221.227 -1922 236 195 162
-650.329 221.007 -1921 234 194 161
-647.734 221.477 -1926 233 194 163
-644.789 221.833 -1930 235 194 159
-640.504 221.73 -1930 232 192 159
-635.896 221.513 -1929 229 192 163
-629.661 220.723 -1923 226 193 169
-626.385 220.966 -1926 224 192 170
-619.549 219.949 -1918 223 190 173
-614.999 219.736 -1917 224 191 175
-610.46 219.523 -1916 224 191 176
-606.247 219.426 -1916 222 191 173
-601.725 219.216 -1915 222 190 171
-597.213 219.006 -1914 222 189 168
-594.26 219.368 -1918 224 192 169
-590.68 219.503 -1920 229 195 169
-586.18 219.295 -1919 231 195 168
-581.083 218.86 -1916 232 195 169
-577.51 218.996 -1918 234 195 169
-572.438 218.563 -1915 238 196 170
-568.276 218.472 -1915 241 198 171
-565.297 218.839 -1919 242 199 172
-561.428 218.864 -1920 243 201 175
-557.56 218.889 -1921 245 202 177
-554.269 219.143 -1924 247 203 179
-548.968 218.601 -1920 246 207 178
-543.69 218.059 -1916 247 208 179
-539.278 217.86 -1915 248 208 180
-534.876 217.662 -1914 249 207 178
-529.651 217.123 -1910 248 207 178
-525.823 217.154 -1911 245 206 176
-521.723 217.072 -1911 244 206 179
-517.898 217.104 -1912 243 204 178
-512.73 216.569 -1908 240 202 177
-508.917 216.602 -1909 240 202 179
-504.839 216.523 -1909 242 204 182
-501.028 216.557 -1910 240 204 185
-497.738 216.819 -1913 242 203 184
-492.891 216.402 -1910 243 202 183
-489.853 216.779 -1914 242 201 178
-486.548 217.042 -1917 239 198 174
-483.486 217.419 -1921 235 194 167
-478.914 217.118 -1919 229 187 158
-475.345 217.27 -1921 224 183 152
-470.79 216.97 -1919 221 179 150
-466.491 216.784 -1918 219 177 149
-462.923 216.938 -1920 214 172 144
-458.873 216.866 -1920 210 168 139
-455.064 216.908 -1921 207 166 139
-449.846 216.274 -1916 201 164 139
-446.281 216.43 -1918 193 160 136
-442.021 216.248 -1917 186 154 131
-437.996 216.18 -1917 176 149 135
-433.07 215.662 -1913 142 124 120
-427.941 215.032 -1908 90 83 91
-421.724 213.839 -1898 57 68 102
-417.095 213.436 -1895 57 70 105
-412.917 213.26 -1894 51 64 100
-408.531 212.971 -1892 52 65 102
-404.585 212.909 -1892 55 68 106
-401.277 213.184 -1895 52 65 102
-397.331 213.122 -1895 47 60 96
-393.181 212.949 -1894 46 59 92
-389.861 213.226 -1897 49 58 91
-386.124 213.279 -1898 44 52 85
-382.186 213.22 -1898 42 51 81
-378.25 213.162 -1898 37 47 77
-374.121 212.992 -1897 38 48 78
-369.999 212.822 -1896 36 50 79
-366.077 212.766 -1896 40 54 85
-362.159 212.71 -1896 45 58 97
-358.243 212.655 -1896 45 59 98
-354.33 212.6 -1896 59 72 111
-350.421 212.547 -1896 68 82 121
-346.514 212.493 -1896 56 70 109
-342.068 212.104 -1893 47 63 100
-338.352 212.165 -1894 46 62 98
-334.105 211.889 -1892 40 56 92
-330.742 212.174 -1895 42 56 92
-327.024 212.236 -1896 39 53 88
-323.305 212.299 -1897 39 54 88
-319.585 212.362 -1898 39 56 90
-315.364 212.089 -1896 38 55 89
-311.975 212.377 -1899 36 52 87
-307.279 211.771 -1894 49 65 100
-303.566 211.836 -1895 61 76 111
-299.062 211.343 -1891 54 68 105
-295.513 211.522 -1893 47 61 97
-291.188 211.142 -1890 43 58 92
-287.334 211.098 -1890 43 58 92
-282.882 210.608 -1886 40 55 89
-279.188 210.677 -1887 39 53 90
-275.201 210.524 -1886 48 62 99
-271.509 210.594 -1887 52 66 103
-267.53 210.441 -1886 51 65 103
-263.977 210.624 -1888 49 63 102
-259.73 210.25 -1885 51 65 104
-255.632 209.988 -1883 46 60 99
-251.411 209.615 -1880 46 60 99
-247.468 209.466 -1879 46 60 99
-243.401 209.206 -1877 46 60 99
-239.472 209.058 -1876 45 59 98
-235.423 208.799 -1874 42 57 96
-231.508 208.652 -1873 42 59 97
-227.356 208.284 -1870 43 61 101
-223.337 208.027 -1868 42 60 100
-219.563 207.994 -1868 45 62 101
-215.791 207.961 -1868 50 67 106
-211.453 207.372 -1863 52 69 109
-208.03 207.674 -1866 51 68 108
-203.938 207.309 -1863 47 64 104
-200.398 207.502 -1865 46 63 103
-196.324 207.138 -1862 49 66 105
-192.782 207.331 -1864 50 67 105
-188.624 206.858 -1860 49 66 104
-184.881 206.829 -1860 50 66 105
-181.043 206.691 -1859 51 65 106
-176.923 206.219 -1855 50 67 105
-173.195 206.193 -1855 46 63 101
-169.468 206.167 -1855 44 61 98
-165.564 205.92 -1853 45 62 98
-161.757 205.784 -1852 43 60 96
-158.04 205.76 -1852 39 56 93
-154.242 205.625 -1851 38 56 93
-150.367 205.38 -1849 39 56 91
-146.501 205.136 -1847 39 57 93
-142.568 204.781 -1844 39 57 95
-138.798 204.649 -1843 37 55 93
-135.106 204.629 -1843 35 53 91
-131.345 204.498 -1842 33 51 90
-127.727 204.589 -1843 35 52 92
-124.039 204.57 -1843 38 54 95
-120.482 204.774 -1845 41 58 98
-116.729 204.645 -1844 41 58 96
-113.041 204.628 -1844 44 59 93
-109.236 204.389 -1842 48 61 95
-105.498 204.262 -1841 49 60 95
-101.598 203.803 -1837 47 60 93
-98.0344 204.01 -1839 49 61 94
-94.3614 203.996 -1839 45 56 87
-90.6891 203.982 -1839 39 49 79
-86.9702 203.858 -1838 39 48 78
-83.3013 203.845 -1838 51 60 89
-79.4599 203.389 -1834 48 57 88
-75.7591 203.267 -1833 49 60 91
-72.0235 203.034 -1831 49 59 89
-68.4458 203.245 -1833 49 58 88
-64.7546 203.124 -1832 49 58 88
-61.168 203.337 -1834 58 68 99
-57.4171 202.995 -1831 59 69 102
-53.7374 202.876 -1830 63 72 107
-50.0347 202.647 -1828 59 70 104
-46.3913 202.639 -1828 53 68 100
-42.748 202.633 -1828 52 66 99
-39.1481 202.848 -1830 54 67 101
-35.5597 203.175 -1833 54 67 102
-31.9424 203.392 -1835 54 66 101
-28.3173 203.609 -1837 52 63 98
-24.6845 203.827 -1839 49 58 93
-21.044 204.045 -1841 45 53 87
-17.3955 204.264 -1843 49 56 89
-13.7244 204.262 -1843 51 58 91
-10.059 204.371 -1844 51 58 91
-6.38249 204.259 -1843 54 62 95
-2.70564 203.815 -1839 54 62 95
0.956079 203.593 -1837 57 64 99
4.61006 203.372 -1835 60 67 102
8.2739 203.594 -1837 61 69 104
11.946 203.818 -1839 56 68 103
15.609 203.82 -1839 53 65 101
19.2932 204.044 -1841 50 63 100
22.9856 204.269 -1843 51 64 101
26.7004 204.605 -1846 51 64 101
30.3453 204.388 -1844 46 59 96
34.0929 204.836 -1848 40 54 91
37.7752 204.841 -1848 38 51 88
41.4803 204.958 -1849 39 52 90
45.1894 205.075 -1850 41 54 92
48.9559 205.415 -1853 43 56 95
52.6495 205.422 -1853 46 59 98
56.374 205.541 -1854 49 62 101
60.1353 205.772 -1856 49 62 101
63.8017 205.67 -1855 50 63 102
67.5011 205.68 -1855 49 62 101
71.2395 205.801 -1856 51 65 104
74.9017 205.701 -1855 49 63 102
78.8147 206.267 -1860 48 65 105
82.5711 206.39 -1861 47 64 103
86.3782 206.625 -1863 49 66 104
90.194 206.86 -1865 50 67 105
94.0689 207.206 -1868 50 67 105
97.6426 206.888 -1865 50 67 105
101.585 207.347 -1869 46 63 101
105.263 207.251 -1868 47 64 102
108.996 207.267 -1868 46 63 101
112.791 207.395 -1869 46 63 101
116.59 207.523 -1870 45 62 100
120.394 207.652 -1871 49 66 104
124.203 207.781 -1872 45 62 100
128.154 208.133 -1875 45 62 102
132.118 208.485 -1878 50 67 106
136.023 208.728 -1880 52 69 107
139.936 208.97 -1882 44 62 100
143.936 209.325 -1885 44 62 100
147.478 209.014 -1882 43 60 98
151.25 209.036 -1882 46 64 104
154.941 208.948 -1881 46 63 103
158.968 209.305 -1884 46 63 103
162.748 209.329 -1884 47 64 102
166.883 209.798 -1888 46 62 101
170.765 209.935 -1889 45 59 98
174.652 210.072 -1890 46 60 99
178.449 210.098 -1890 46 60 99
182.152 210.014 -1889 49 62 101
185.853 209.931 -1888 46 59 98
189.35 209.625 -1885 44 57 96
193.348 209.877 -1887 46 56 96
197.252 210.017 -1888 48 58 98
201.162 210.158 -1889 51 59 99
204.86 210.078 -1888 48 56 98
208.887 210.331 -1890 51 59 101
212.7 210.363 -1890 53 61 101
216.972 210.841 -1894 48 56 95
220.912 210.985 -1895 45 53 91
225.214 211.464 -1899 37 47 85
229.172 211.61 -1900 37 47 85
232.768 211.422 -1898 42 52 90
236.358 211.235 -1896 47 58 93
239.942 211.048 -1894 49 59 93
243.905 211.196 -1895 50 59 91
247.483 211.01 -1893 53 58 90
251.586 211.271 -1895 53 60 89
255.024 210.975 -1892 52 61 87
258.59 210.791 -1890 49 56 85
262.566 210.941 -1891 41 48 77
266.549 211.093 -1892 45 52 82
270.68 211.357 -1894 50 58 88
274.677 211.51 -1895 50 60 91
278.828 211.775 -1897 49 61 94
282.541 211.706 -1896 51 62 93
286.707 211.973 -1898 49 61 92
291.036 212.351 -1901 51 66 100
295.379 212.731 -1904 67 71 92
299.894 213.223 -1908 126 125 140
304.588 213.828 -1913 185 164 152
309.143 214.322 -1917 198 173 154
313.227 214.481 -1918 202 175 153
317.483 214.753 -1920 208 175 148
321.415 214.802 -1920 212 170 136
325.52 214.963 -1921 211 166 129
329.116 214.789 -1919 211 163 120
333.228 214.951 -1920 202 156 117
337.523 215.226 -1922 205 159 121
341.117 215.054 -1920 202 157 118
345.066 215.107 -1920 203 157 118
349.564 215.496 -1923 200 154 116
352.605 214.989 -1918 196 151 114
356.187 214.819 -1916 195 149 113
359.576 214.538 -1913 193 147 110
363.905 214.817 -1915 187 142 108
367.285 214.537 -1912 186 141 108
371.045 214.481 -1911 185 140 108
374.41 214.202 -1908 184 140 109
378.56 214.372 -1909 186 143 111
381.916 214.093 -1906 188 146 114
385.87 214.152 -1906 191 148 118
389.418 213.987 -1904 194 152 121
393.374 214.047 -1904 197 155 123
396.916 213.883 -1902 197 154 120
400.664 213.832 -1901 202 157 122
404.412 213.782 -1900 205 162 128
408.803 214.069 -1902 206 164 131
412.772 214.133 -1902 208 167 131
416.964 214.309 -1903 208 167 130
420.943 214.374 -1903 209 168 129
426.041 215.003 -1908 213 172 133
429.136 214.618 -1904 216 174 133
433.583 214.91 -1906 216 174 132
436.893 214.639 -1903 219 174 133
441.122 214.82 -1904 221 176 137
444.424 214.55 -1901 222 177 139
450.075 215.41 -1908 226 181 143
453.856 215.367 -1907 229 184 145
457.877 215.438 -1907 231 187 148
461.418 215.283 -1905 233 188 150
465.687 215.469 -1906 232 194 155
468.978 215.202 -1903 234 195 157
473.504 215.502 -1905 237 197 160
477.29 215.463 -1904 237 196 158
481.835 215.764 -1906 237 196 157
486.392 216.066 -1908 236 196 157
490.962 216.369 -1910 238 198 163
495.027 216.446 -1910 241 200 165
499.357 216.637 -1911 241 201 166
502.379 216.262 -1907 238 199 164
506.981 216.568 -1909 239 201 165
511.061 216.647 -1909 239 203 171
514.607 216.501 -1907 239 203 172
519.235 216.809 -1909 240 204 176
522.232 216.436 -1905 243 204 177
525.494 216.178 -1902 245 206 179
529.86 216.374 -1903 247 209 182
533.955 216.458 -1903 244 206 178
538.338 216.656 -1904 247 208 176
543.299 217.083 -1907 247 207 176
547.991 217.397 -1909 246 208 176
551.83 217.37 -1908 244 207 180
555.668 217.343 -1907 244 203 174
559.801 217.432 -1907 243 199 169
563.644 217.407 -1906 239 194 162
568.082 217.61 -1907 238 193 155
572.831 217.929 -1909 238 194 156
577.593 218.249 -1911 239 196 157
581.76 218.341 -1911 244 198 161
586.24 218.548 -1912 239 198 161
589.802 218.413 -1910 236 195 158
593.361 218.278 -1908 237 196 159
597.857 218.487 -1909 236 195 156
601.101 218.239 -1906 238 193 151
604.019 217.878 -1902 239 193 150
606.606 217.401 -1897 240 193 148
607.566 216.352 -1887 236 190 151
629.773 217.307 -1891 240 233 229
635.315 217.868 -1895 246 234 228
639.194 217.856 -1894 240 224 216
642.394 217.614 -1891 227 205 186
645.246 217.257 -1887 229 192 165
649.462 217.361 -1887 230 188 154
653.337 217.351 -1886 237 192 154
658.261 217.688 -1888 244 203 161
662.147 217.679 -1887 247 211 176
666.034 217.671 -1886 254 221 186
667.436 216.856 -1878 255 222 188
678.94 215.559 -1863 255 226 195
686.289 215.434 -1860 255 229 200
689.778 215.315 -1858 255 232 203
694.758 215.66 -1860 255 232 204
699.002 215.773 -1860 255 235 206
704.388 216.236 -1863 255 238 206
708.652 216.352 -1863 255 237 207
712.541 216.352 -1862 255 236 206
715.278 216.004 -1858 255 233 204
719.551 216.122 -1858 255 233 205
723.443 216.124 -1857 254 232 204
730.079 216.942 -1863 253 230 201
735.174 217.296 -1865 253 225 196
742.665 218.35 -1873 254 222 195
748.205 218.823 -1876 251 219 193
753.767 219.297 -1879 247 214 190
759.35 219.772 -1882 245 213 190
765.766 220.483 -1887 241 207 185
771.805 221.078 -1891 244 203 175
778.692 221.908 -1897 242 200 173
786.026 222.857 -1904 242 200 173
792.572 223.574 -1909 229 185 159
797.478 223.823 -1910 198 155 132
802.397 224.073 -1911 162 119 99
806.484 224.09 -1910 140 100 79
811 224.225 -1910 137 96 75
814.242 224.009 -1907 141 102 80
822.631 225.203 -1916 145 109 87
827.616 225.459 -1917 159 119 106
833.918 226.069 -1921 162 120 105
838.5 226.209 -1921 164 121 102
844.408 226.704 -1924 185 136 114
-844.984 220.155 -1900 203 182 177
-827.39 218.698 -1891 210 194 191
-739.312 217.51 -1904 244 212 198
-735.702 217.619 -1906 244 211 198
-732.09 217.729 -1908 244 211 197
-728.858 217.954 -1911 240 209 194
-725.997 218.293 -1915 243 210 194
-723.126 218.633 -1919 245 212 195
-719.494 218.745 -1921 247 211 189
-715.115 218.63 -1921 246 208 186
-711.113 218.63 -1922 246 207 185
-706.378 218.402 -1921 242 210 187
-702.02 218.29 -1921 241 208 183
-698.031 218.292 -1922 240 207 180
-693.323 218.067 -1921 241 205 177
-688.626 217.844 -1920 239 202 174
-684.653 217.848 -1921 237 199 171
-679.973 217.626 -1920 240 197 167
-675.304 217.405 -1919 240 198 167
-670.996 217.298 -1919 238 197 165
-666.694 217.192 -1919 235 192 162
-663.434 217.426 -1922 232 190 160
-658.795 217.208 -1921 231 188 159
-654.847 217.218 -1922 228 186 151
-652.256 217.679 -1927 227 187 152
-647.967 217.577 -1927 225 186 153
-644.018 217.587 -1928 225 183 147
-639.739 217.486 -1928 223 183 148
-635.466 217.386 -1928 222 184 154
-630.871 217.174 -1927 220 185 158
-625.31 216.624 -1923 220 185 160
-620.743 216.414 -1922 220 185 164
-615.544 215.979 -1919 221 187 165
-611 215.77 -1918 221 188 166
-606.467 215.562 -1917 219 188 165
-601.944 215.355 -1916 222 188 166
-598.055 215.374 -1917 224 188 167
-594.786 215.618 -1920 223 190 166
-590.894 215.638 -1921 225 191 165
-586.698 215.546 -1921 227 191 164
-581.598 215.118 -1918 227 190 164
-577.419 215.028 -1918 228 190 165
-572.647 214.714 -1916 233 192 167
-568.483 214.625 -1916 236 195 169
-564.03 214.425 -1915 236 195 169
-561.047 214.786 -1919 237 196 170
-557.182 214.811 -1920 241 199 173
-553.894 215.06 -1923 242 200 174
-549.168 214.751 -1921 238 200 171
-545.023 214.667 -1921 238 200 172
-539.475 214.024 -1916 240 203 176
-535.072 213.83 -1915 241 203 176
-530.123 213.412 -1912 239 202 174
-525.741 213.219 -1911 236 200 172
-521.369 213.027 -1910 233 199 170
-517.005 212.835 -1909 232 199 169
-512.919 212.756 -1909 230 196 169
-509.105 212.789 -1910 227 194 167
-505.819 213.045 -1913 227 193 167
-502 213.079 -1914 225 193 167
-498.181 213.114 -1915 227 190 163
-494.363 213.149 -1916 230 188 161
-491.312 213.518 -1920 230 189 159
-487.234 213.443 -1920 227 185 155
-483.663 213.591 -1922 222 179 148
-479.339 213.406 -1921 218 175 143
-475.519 213.444 -1922 214 171 139
-471.944 213.594 -1924 207 165 131
-467.392 213.3 -1922 203 161 129
-463.093 213.118 -1921 196 154 125
-458.563 212.826 -1919 192 150 120
-454.994 212.979 -1921 188 147 119
-450.95 212.91 -1921 183 146 121
-447.143 212.952 -1922 181 144 122
-442.875 212.774 -1921 177 141 119
-439.528 213.039 -1924 168 135 119
-434.815 212.64 -1921 146 122 113
-428.996 211.689 -1913 107 93 94
-423.659 210.961 -1907 61 70 98
-417.691 209.901 -1898 54 65 95
-412.854 209.396 -1894 46 59 94
-408.9 209.334 -1894 50 63 99
-404.523 209.051 -1892 55 68 105
-400.792 209.101 -1893 51 64 101
-397.061 209.151 -1894 48 61 96
-393.121 209.091 -1894 48 61 94
-389.185 209.032 -1894 48 58 91
-385.659 209.195 -1896 48 57 91
-381.926 209.247 -1897 45 55 85
-377.994 209.19 -1897 42 52 81
-373.867 209.023 -1896 40 50 78
-370.138 209.077 -1897 41 53 78
-366.022 208.911 -1896 40 52 80
-362.104 208.857 -1896 39 52 89
-358.189 208.803 -1896 39 52 89
-354.464 208.859 -1897 47 60 97
-350.368 208.696 -1896 59 73 111
-346.462 208.644 -1896 57 72 111
-342.017 208.262 -1893 51 67 105
-338.48 208.431 -1895 46 61 96
-333.878 207.941 -1891 43 58 92
-330.343 208.111 -1893 45 60 94
-326.803 208.282 -1895 43 58 92
-323.427 208.563 -1898 40 55 89
-319.705 208.624 -1899 38 55 89
-315.482 208.357 -1897 37 53 87
-311.599 208.31 -1897 37 52 86
-307.07 207.825 -1893 38 53 87
-303.361 207.889 -1894 51 66 100
-298.859 207.405 -1890 62 76 113
-295.312 207.58 -1892 54 68 104
-290.99 207.208 -1889 48 63 97
-287.443 207.384 -1891 45 60 94
-282.539 206.574 -1884 41 56 90
-278.851 206.642 -1885 43 57 94
-274.577 206.272 -1882 47 61 98
-270.892 206.341 -1883 50 64 101
-267.206 206.41 -1884 50 64 103
-263.518 206.48 -1885 51 65 104
-259.553 206.332 -1884 54 68 107
-255.73 206.294 -1884 49 63 102
-251.508 205.928 -1881 48 62 101
-247.563 205.781 -1880 48 62 101
-243.494 205.526 -1878 47 61 100
-239.309 205.162 -1875 45 59 98
-235.262 204.908 -1873 42 57 96
-230.979 204.436 -1869 45 62 100
-227.322 204.511 -1870 46 64 104
-223.184 204.15 -1867 43 61 101
-219.883 204.554 -1871 45 62 100
-215.759 204.194 -1868 48 65 105
-211.535 203.725 -1864 50 67 107
-207.664 203.585 -1863 50 67 107
-203.908 203.554 -1863 48 65 104
-199.616 202.978 -1858 48 65 104
-195.874 202.949 -1858 50 67 105
-192.339 203.139 -1860 51 68 106
-188.393 202.892 -1858 51 68 105
-184.655 202.865 -1858 50 66 105
-180.918 202.838 -1858 53 67 107
-176.992 202.593 -1856 54 70 109
-172.983 202.24 -1853 50 67 105
-168.987 201.887 -1850 48 65 101
-165.182 201.754 -1849 48 65 101
-161.558 201.838 -1850 45 62 98
-157.846 201.815 -1850 42 59 95
-154.135 201.792 -1850 40 57 92
-150.263 201.551 -1848 42 58 92
-146.4 201.312 -1846 40 57 93
-142.624 201.181 -1845 39 57 95
-138.853 201.051 -1844 37 55 93
-135.086 200.922 -1843 36 54 92
-131.325 200.794 -1842 33 51 88
-127.708 200.884 -1843 35 52 90
-124.155 201.083 -1845 37 54 93
-120.53 201.174 -1846 36 53 90
-116.775 201.048 -1845 33 49 86
-113.086 201.031 -1845 36 51 83
-109.22 200.688 -1842 42 55 88
-105.367 200.345 -1839 48 59 94
-101.583 200.112 -1837 47 60 94
-97.86 199.988 -1836 50 63 96
-94.2447 200.083 -1837 48 59 91
-90.4784 199.852 -1835 43 53 84
-86.8154 199.839 -1835 39 48 79
-83.1531 199.826 -1835 49 58 88
-79.3615 199.488 -1832 53 63 94
-75.7065 199.476 -1832 52 63 95
-72.0128 199.357 -1831 53 62 93
-68.3983 199.455 -1832 51 60 91
-64.6389 199.119 -1829 52 61 91
-61.1256 199.545 -1833 59 68 100
-57.3459 199.101 -1829 58 68 101
-53.7294 199.202 -1830 58 69 104
-50.0273 198.976 -1828 55 66 101
-46.3844 198.969 -1828 50 65 98
-42.7183 198.854 -1827 53 67 100
-39.1636 199.283 -1831 56 69 103
-35.5351 199.387 -1832 55 68 103
-31.9376 199.708 -1835 54 67 102
-28.2669 199.595 -1834 50 61 96
-24.6406 199.809 -1836 46 55 89
-21.0065 200.023 -1838 45 53 87
-17.3458 200.02 -1838 50 57 90
-13.6926 200.127 -1839 52 59 92
-10.03 200.125 -1839 51 58 91
-6.36772 200.124 -1839 50 58 91
-2.70084 199.797 -1836 50 59 91
0.955408 199.797 -1836 57 65 101
4.60687 199.579 -1834 61 69 105
8.26368 199.689 -1835 61 69 105
11.9378 200.017 -1838 58 69 104
15.6067 200.128 -1839 53 65 100
19.3218 200.675 -1844 48 61 98
22.9945 200.678 -1844 49 62 99
26.682 200.79 -1845 47 60 97
30.3406 200.686 -1844 38 51 88
34.0511 200.908 -1846 36 49 86
37.7288 200.913 -1846 42 55 92
41.4291 201.028 -1847 45 58 95
45.1828 201.361 -1850 45 58 95
48.8959 201.477 -1851 46 59 98
52.6416 201.702 -1853 50 63 102
56.3656 201.819 -1854 55 68 107
60.1263 202.045 -1856 56 69 108
63.7924 201.945 -1855 55 68 107
67.4913 201.955 -1855 53 66 105
71.1524 201.856 -1854 53 67 106
74.8906 201.976 -1855 51 65 104
78.7183 202.314 -1858 50 67 107
82.5145 202.543 -1860 47 64 103
86.2727 202.665 -1861 49 66 104
90.084 202.895 -1863 51 68 106
93.9039 203.127 -1865 50 67 105
97.5232 202.923 -1863 49 66 104
101.353 203.155 -1865 46 63 101
105.191 203.388 -1867 47 64 102
108.98 203.513 -1868 48 65 103
112.714 203.53 -1868 48 65 103
116.697 203.982 -1872 47 64 102
120.44 204 -1872 47 64 102
124.384 204.345 -1875 43 60 99
128.34 204.69 -1878 45 62 101
132.309 205.036 -1881 49 64 103
136.219 205.274 -1883 55 69 108
139.915 205.185 -1882 47 64 102
143.685 205.206 -1882 44 61 99
147.456 205.228 -1882 41 58 96
151.067 205.032 -1880 46 64 104
154.754 204.945 -1879 47 65 105
158.944 205.514 -1884 46 63 102
162.724 205.537 -1884 46 63 101
166.682 205.78 -1886 46 63 101
170.649 206.023 -1888 46 60 99
174.533 206.158 -1889 47 61 100
178.234 206.075 -1888 47 61 100
182.029 206.101 -1888 44 57 95
185.727 206.019 -1887 43 56 93
189.422 205.938 -1886 48 59 97
193.32 206.075 -1887 48 58 98
197.327 206.322 -1889 47 56 96
201.451 206.68 -1892 46 54 94
205.046 206.491 -1890 44 52 93
209.077 206.74 -1892 49 57 98
212.668 206.553 -1890 49 57 96
216.825 206.913 -1893 43 51 89
220.879 207.164 -1895 40 48 86
224.943 207.415 -1897 35 45 83
229.017 207.668 -1899 39 48 86
232.733 207.592 -1898 44 53 90
236.322 207.409 -1896 47 56 92
240.032 207.334 -1895 50 59 93
243.74 207.261 -1894 56 64 97
247.315 207.078 -1892 58 64 95
251.15 207.115 -1892 49 56 85
254.986 207.153 -1892 41 50 75
258.825 207.191 -1892 38 45 74
262.527 207.12 -1891 38 45 74
266.368 207.16 -1891 46 53 82
270.354 207.309 -1892 49 58 87
274.201 207.35 -1892 48 58 89
278.492 207.72 -1895 49 64 96
282.499 207.871 -1896 51 65 96
286.815 208.243 -1899 51 64 94
291.298 208.724 -1903 52 67 98
296.11 209.426 -1909 88 87 101
300.635 209.91 -1913 153 145 152
305.019 210.284 -1916 189 164 147
309.902 210.989 -1922 198 169 145
313.833 211.035 -1922 201 170 143
318.262 211.412 -1925 204 168 137
322.204 211.46 -1925 206 163 126
326.318 211.618 -1926 203 157 117
330.096 211.557 -1925 205 155 111
334.219 211.717 -1926 193 146 105
338.174 211.767 -1926 195 149 110
342.487 212.038 -1928 187 139 101
345.733 211.65 -1924 187 138 101
349.511 211.592 -1923 181 133 96
353.471 211.645 -1923 177 132 98
357.62 211.808 -1924 176 129 96
360.461 211.202 -1918 173 126 93
364.8 211.476 -1920 168 123 91
368.382 211.311 -1918 164 118 88
371.959 211.147 -1916 160 114 85
375.138 210.762 -1912 154 111 85
379.296 210.929 -1913 156 113 85
382.459 210.545 -1909 159 117 88
386.418 210.603 -1909 161 119 91
389.972 210.441 -1907 164 122 93
393.521 210.28 -1905 168 126 96
397.273 210.229 -1904 170 127 97
401.657 210.51 -1906 177 131 101
405.201 210.35 -1904 177 133 103
410.03 210.854 -1908 176 134 105
414.228 211.027 -1909 181 139 108
418.215 211.09 -1909 184 143 108
422.427 211.265 -1910 185 144 106
427.093 211.661 -1913 188 146 109
430.648 211.505 -1911 194 151 112
434.426 211.46 -1910 197 153 113
438.663 211.637 -1911 199 153 113
442.676 211.704 -1911 201 155 116
445.992 211.439 -1908 205 159 121
450.242 211.618 -1909 209 163 125
454.738 211.909 -1911 208 164 123
458.767 211.978 -1911 212 166 126
462.315 211.827 -1909 215 169 129
466.348 211.898 -1909 214 173 133
470.138 211.858 -1908 219 175 136
473.431 211.597 -1905 222 176 138
477.718 211.781 -1906 221 175 135
482.013 211.966 -1907 222 176 135
486.062 212.04 -1907 222 177 136
490.886 212.448 -1910 227 183 145
494.432 212.301 -1908 230 184 147
498.235 212.266 -1907 230 185 147
502.038 212.232 -1906 230 185 146
506.637 212.532 -1908 230 186 148
510.715 212.61 -1908 226 186 149
513.987 212.355 -1905 227 188 151
518.883 212.769 -1908 230 191 156
522.425 212.626 -1906 233 192 158
526.241 212.596 -1905 237 195 162
529.778 212.454 -1903 240 199 165
534.714 212.871 -1906 241 197 163
539.384 213.178 -1908 242 197 161
543.215 213.15 -1907 243 198 161
548.48 213.681 -1911 242 197 158
552.9 213.878 -1912 238 193 158
556.747 213.853 -1911 237 189 154
560.888 213.94 -1911 231 183 147
564.738 213.915 -1910 225 176 139
568.589 213.891 -1909 229 181 140
572.741 213.98 -1909 233 187 145
577.804 214.406 -1912 234 189 146
582.886 214.833 -1915 237 191 150
586.76 214.812 -1914 233 191 152
591.562 215.128 -1916 230 188 149
595.755 215.221 -1916 228 186 147
599.641 215.202 -1915 225 183 143
602.267 214.734 -1910 223 181 140
606.146 214.717 -1909 223 179 137
608.428 214.137 -1903 222 176 132
611.011 213.67 -1898 216 170 131
613.253 213.09 -1892 187 155 129
629.778 214.736 -1904 162 155 150
633.669 214.723 -1903 171 164 161
636.89 214.484 -1900 185 175 170
640.104 214.246 -1897 199 184 177
642.632 213.783 -1892 207 182 163
646.168 213.659 -1890 214 178 146
650.39 213.761 -1890 214 173 136
654.272 213.752 -1889 218 173 133
659.202 214.082 -1891 222 180 136
663.093 214.074 -1890 226 188 147
666.987 214.066 -1889 236 199 159
668.395 213.266 -1881 246 209 170
671.919 213.146 -1879 253 220 185
674.001 212.572 -1873 255 223 196
676.424 212.112 -1868 255 227 194
679.56 211.88 -1865 255 229 196
683.788 211.988 -1865 255 229 198
687.654 211.984 -1864 255 233 204
690.78 211.753 -1861 255 235 206
695.393 211.978 -1862 255 235 205
700.392 212.318 -1864 255 237 206
705.408 212.659 -1866 255 240 208
709.679 212.772 -1866 255 240 210
713.574 212.773 -1865 255 236 207
716.701 212.546 -1862 255 232 201
720.983 212.662 -1862 249 225 195
726.441 213.121 -1865 245 218 190
733.487 214.039 -1872 246 216 186
739.784 214.73 -1877 246 212 183
746.904 215.651 -1884 228 191 165
753.666 216.46 -1890 209 172 146
759.259 216.926 -1893 198 161 135
764.874 217.394 -1896 199 159 134
771.321 218.092 -1901 195 153 128
777.8 218.792 -1906 194 152 124
783.489 219.264 -1909 198 150 123
790.437 220.081 -1915 195 145 118
796.592 220.671 -1919 180 129 102
802.356 221.146 -1922 166 118 93
807.302 221.393 -1923 148 105 85
811.417 221.41 -1922 137 95 75
815.535 221.428 -1921 140 97 77
818.376 221.101 -1917 145 102 82
824.641 221.698 -1921 151 113 92
829.206 221.834 -1921 156 117 99
834.647 222.202 -1923 158 115 99
837.924 221.993 -1920 159 114 96
843.829 222.478 -1923 183 134 113
-847.179 215.66 -1895 247 221 204
-845.29 216.205 -1901 244 217 200
-841.17 216.182 -1902 240 213 196
-833.096 215.137 -1894 234 208 189
-828.13 214.889 -1893 230 205 191
-822.742 214.529 -1891 229 204 195
-816.074 213.829 -1886 229 207 198
-809.253 214.134 -1891 237 219 213
-753.085 215.191 -1917 241 206 188
-747.097 214.624 -1913 240 204 183
-741.524 214.169 -1910 237 199 179
-738.286 214.388 -1913 236 198 180
-735.043 214.608 -1916 238 201 183
-729.886 214.269 -1914 236 201 180
-727.019 214.601 -1918 236 201 180
-724.895 215.158 -1924 237 202 181
-721.252 215.268 -1926 241 203 178
-716.863 215.155 -1926 242 202 178
-713.22 215.266 -1928 242 201 177
-707.737 214.819 -1925 235 202 176
-703.37 214.709 -1925 235 201 172
-698.647 214.487 -1924 233 198 167
-694.657 214.49 -1925 233 196 163
-689.952 214.27 -1924 234 195 161
-684.901 213.94 -1922 232 193 158
-681.282 214.056 -1924 235 189 153
-676.605 213.839 -1923 233 187 151
-672.988 213.956 -1925 231 186 150
-667.979 213.629 -1923 229 184 150
-664.365 213.748 -1925 227 182 148
-660.063 213.645 -1925 224 179 147
