ply
format ascii 1.0
comment Created by Open3D
element vertex 1519
property double x
property double y
property double z
property uchar red
property uchar green
property uchar blue
end_header
-21.321 68.5079 -1594 39 49 76
-18.1454 68.4638 -1593 40 49 75
-14.9927 68.5058 -1594 37 46 72
-11.8213 68.462 -1593 38 47 72
-8.66484 68.5045 -1594 40 48 72
-5.50102 68.5041 -1594 40 48 72
-2.33725 68.5038 -1594 39 47 71
0.826508 68.5037 -1594 42 47 72
3.99528 68.5898 -1596 43 49 73
7.17202 68.6761 -1598 42 48 71
10.3503 68.7197 -1599 40 46 68
13.5326 68.7634 -1600 39 45 67
16.719 68.8071 -1601 38 45 67
19.8971 68.8083 -1601 37 45 67
23.0897 68.8525 -1602 34 42 64
26.2373 68.7679 -1600 35 41 60
29.4323 68.8125 -1601 34 40 59
32.5705 68.7284 -1599 33 39 58
35.6338 68.5154 -1594 32 38 58
38.7263 68.3886 -1591 34 40 60
41.8598 68.348 -1590 35 41 63
44.9897 68.3075 -1589 39 45 68
48.1463 68.3101 -1589 41 49 72
51.3035 68.313 -1589 40 48 72
54.4951 68.3591 -1590 43 51 75
57.6549 68.3624 -1590 46 54 80
60.9299 68.4948 -1593 49 58 85
64.2173 68.6274 -1596 53 62 90
68.0661 69.3192 -1612 46 61 93
71.8464 69.8823 -1625 51 67 100
76.0485 70.7897 -1646 55 72 108
79.7568 71.1813 -1655 55 72 110
83.702 71.7452 -1668 51 68 105
87.2823 71.9652 -1673 49 67 105
91.4247 72.6156 -1688 48 67 105
95.347 73.0512 -1698 48 67 105
99.5423 73.6592 -1712 48 69 106
103.975 74.3966 -1729 50 71 109
108.165 74.919 -1741 51 73 112
112.083 75.2267 -1748 51 72 115
116.097 75.5776 -1756 49 71 114
120.006 75.8427 -1762 48 70 108
123.03 75.5484 -1755 48 68 107
126.459 75.5126 -1754 47 67 107
129.218 75.0895 -1744 59 75 103
-108.665 68.5503 -1670 56 64 89
-105.4 68.5855 -1671 53 62 89
-101.765 68.3745 -1666 46 60 91
-98.0326 68.0817 -1659 44 58 91
-94.5574 67.9533 -1656 40 53 87
-91.0399 67.784 -1652 45 60 92
-87.4859 67.574 -1647 50 65 97
-83.9013 67.3231 -1641 50 63 96
-80.2922 67.0315 -1634 47 60 93
-76.8059 66.822 -1629 46 59 92
-73.3852 66.6538 -1625 43 54 86
-70.0674 66.5678 -1623 41 52 84
-66.7581 66.482 -1621 38 49 81
-63.4574 66.3964 -1619 40 51 81
-60.1649 66.3109 -1617 42 53 83
-56.9162 66.2667 -1616 40 51 81
-53.6387 66.1817 -1614 38 49 80
-50.4009 66.1378 -1613 38 49 81
-47.1674 66.0941 -1612 39 50 80
-43.9382 66.0506 -1611 39 50 80
-40.6627 65.9253 -1608 40 51 79
-37.3995 65.8002 -1605 42 53 81
-34.1273 65.6342 -1601 39 50 78
-30.8712 65.4685 -1597 37 48 76
-27.6659 65.3849 -1595 38 49 77
-24.4687 65.3015 -1593 35 46 74
-21.3065 65.3002 -1593 38 48 75
-18.1444 65.2991 -1593 39 48 74
-15.0013 65.3801 -1595 38 47 73
-11.8355 65.3794 -1595 38 47 73
-8.67523 65.4198 -1596 39 47 71
-5.50762 65.4195 -1596 38 46 70
-2.34298 65.5012 -1598 40 48 72
0.828013 65.4602 -1597 43 51 75
4.00506 65.5833 -1600 42 49 73
7.18059 65.5837 -1600 40 47 71
10.3756 65.707 -1603 38 44 67
13.5487 65.6667 -1602 38 44 66
16.7285 65.6676 -1602 38 45 67
19.9084 65.6685 -1602 35 42 64
23.1028 65.7108 -1603 31 39 61
26.2522 65.6302 -1601 33 41 60
29.4123 65.5906 -1600 33 40 59
32.5279 65.4695 -1597 31 37 57
35.6542 65.3893 -1595 31 37 57
38.6998 65.1864 -1590 37 43 63
41.8575 65.1886 -1590 39 45 67
45.0155 65.191 -1590 41 47 70
48.1739 65.1935 -1590 43 51 73
51.3004 65.1553 -1589 41 49 73
54.5263 65.2402 -1591 43 51 75
57.7242 65.2843 -1592 48 56 82
60.9647 65.3697 -1594 51 60 87
64.2539 65.4961 -1597 51 60 88
68.02 66.074 -1611 44 59 91
71.7981 66.611 -1624 52 68 101
75.9519 67.4354 -1644 56 73 109
79.8485 67.973 -1657 50 68 106
83.7977 68.5109 -1670 47 65 103
87.4338 68.7617 -1676 48 66 104
91.582 69.382 -1691 48 67 105
95.2855 69.6334 -1697 48 68 106
99.5949 70.2954 -1713 46 68 105
103.969 70.9576 -1729 47 68 106
108.035 71.3739 -1739 51 71 111
112.141 71.7904 -1749 51 73 115
116.222 72.1662 -1758 49 71 114
119.932 72.2958 -1761 49 70 107
123.093 72.0973 -1756 50 69 105
126.452 72.022 -1754 51 69 105
128.766 71.3721 -1738 60 75 104
-108.529 65.1505 -1668 57 65 91
-105.52 65.3401 -1673 52 62 89
-101.82 65.1004 -1667 43 57 88
-98.0863 64.8218 -1660 41 55 87
-94.4952 64.6214 -1655 41 54 87
-91.0901 64.5385 -1653 48 63 95
-87.3218 64.1825 -1644 50 64 97
-83.7434 63.9437 -1638 46 59 92
-80.2388 63.7442 -1633 46 59 92
-76.7546 63.545 -1628 45 58 91
-73.3361 63.3849 -1624 42 53 85
-70.0637 63.3421 -1623 40 51 83
-66.7546 63.2604 -1621 38 49 81
-63.5322 63.257 -1621 40 51 81
-60.2733 63.2148 -1620 41 52 82
-57.0188 63.1727 -1619 40 51 81
-53.6691 63.0137 -1615 40 51 82
-50.4607 63.011 -1615 40 51 83
-47.1941 62.9304 -1613 38 49 80
-43.9631 62.889 -1612 38 49 79
-40.6859 62.7698 -1609 38 49 77
-37.4208 62.6506 -1606 42 53 81
-34.1468 62.4928 -1602 43 54 82
-30.8888 62.335 -1598 36 47 75
-27.6644 62.2164 -1595 37 48 76
-24.4674 62.1372 -1593 39 50 78
-21.3053 62.1359 -1593 40 50 77
-18.1434 62.1349 -1593 40 49 75
-15.0099 62.251 -1596 39 48 74
-11.8423 62.2503 -1596 40 48 74
-8.68564 62.3278 -1598 41 49 73
-5.51423 62.3274 -1598 40 48 72
-2.34579 62.4052 -1600 42 50 74
0.828484 62.3272 -1598 42 50 74
4.00735 62.4443 -1601 40 48 72
7.19366 62.5226 -1603 39 47 71
10.388 62.6011 -1605 39 45 68
13.5734 62.6017 -1605 38 43 66
16.7694 62.6415 -1606 38 44 66
19.957 62.6425 -1606 34 41 63
23.116 62.5656 -1604 31 39 61
26.2508 62.4499 -1601 32 40 59
29.3923 62.3734 -1599 31 38 58
32.5465 62.336 -1598 31 37 57
35.6523 62.2208 -1595 31 37 57
38.722 62.0667 -1591 37 43 63
41.8552 62.0298 -1590 38 44 66
45.0131 62.0321 -1590 39 46 68
48.1107 61.9565 -1588 42 50 72
51.2008 61.881 -1586 43 51 75
54.4547 62.0008 -1589 43 51 75
57.6486 62.0428 -1590 48 56 82
60.9232 62.163 -1593 49 58 85
64.3309 62.4004 -1599 50 59 87
67.9741 62.8331 -1610 46 61 93
71.6174 63.2271 -1620 56 71 104
75.763 64.0116 -1640 58 75 111
79.8442 64.6792 -1657 48 65 103
83.9437 65.3081 -1673 45 63 101
87.6378 65.5859 -1680 46 64 102
91.6313 66.0591 -1692 48 66 104
95.3925 66.3373 -1699 51 69 107
99.5896 66.8891 -1713 47 69 106
103.663 67.3239 -1724 46 68 106
107.78 67.759 -1735 52 72 112
111.943 68.1945 -1746 54 75 118
116.084 68.5911 -1756 50 72 114
119.857 68.7535 -1760 48 70 108
123.086 68.6036 -1756 47 66 103
126.445 68.5321 -1754 49 67 103
128.76 67.9136 -1738 60 75 104
-108.783 61.9815 -1672 61 70 96
-105.452 61.9762 -1672 55 65 92
-101.937 61.8598 -1669 44 58 89
-98.1995 61.5953 -1662 42 55 87
-94.4904 61.3312 -1655 43 56 89
-90.865 61.1042 -1649 44 59 91
-87.3704 60.9515 -1645 44 59 91
-83.8414 60.762 -1640 44 57 90
-80.2347 60.4986 -1633 47 60 93
-76.7978 60.3465 -1629 45 58 91
-73.3324 60.1576 -1624 42 53 85
-70.1033 60.154 -1624 40 51 83
-66.7922 60.0765 -1622 39 50 82
-63.529 60.0362 -1621 40 51 81
-60.3074 60.0331 -1621 41 52 82
-57.0511 59.9932 -1620 41 52 82
-53.7328 59.8794 -1617 42 53 84
-50.458 59.8027 -1615 41 52 84
-47.221 59.7633 -1614 39 50 80
-43.9881 59.724 -1613 39 50 79
-40.7343 59.6478 -1611 37 48 76
-37.4655 59.5347 -1608 41 52 80
-34.1876 59.3849 -1604 44 55 83
-30.9259 59.2352 -1600 40 51 79
-27.6803 59.0856 -1596 36 47 75
-24.4815 59.0103 -1594 38 49 77
-21.3176 59.0092 -1594 40 50 77
-18.1539 59.0082 -1594 42 51 77
-15.0185 59.1184 -1597 42 51 77
-11.8639 59.1918 -1599 43 52 77
-8.69607 59.2283 -1600 43 51 75
-5.5243 59.265 -1601 43 51 75
-2.35008 59.3388 -1603 42 50 74
0.829994 59.2647 -1601 40 48 72
4.01465 59.3759 -1604 40 48 72
7.20226 59.4132 -1605 40 48 72
10.3939 59.4507 -1606 41 46 71
13.5896 59.4883 -1607 41 46 70
16.7894 59.5261 -1608 39 45 67
19.9684 59.49 -1607 34 41 63
23.1292 59.417 -1605 31 39 61
26.2659 59.3072 -1602 31 39 58
29.4092 59.2345 -1600 29 36 56
32.5652 59.199 -1599 31 37 57
35.6728 59.0896 -1596 33 39 59
38.7931 59.0175 -1594 40 46 66
41.9321 58.9825 -1593 42 48 70
45.0391 58.9106 -1591 40 47 69
48.1386 58.8389 -1589 38 46 68
51.2627 58.8043 -1588 41 49 73
54.4861 58.881 -1590 43 51 76
57.7542 58.9949 -1593 49 57 83
60.9966 59.0719 -1595 48 56 83
64.3276 59.2232 -1599 48 57 85
67.8862 59.5598 -1608 46 61 93
71.7022 60.0819 -1622 54 70 103
75.8515 60.8265 -1642 57 74 110
80.1774 61.6453 -1664 49 66 104
84.1901 62.1681 -1678 47 65 103
87.842 62.3946 -1684 45 63 101
91.6266 62.6956 -1692 43 61 99
95.3315 62.9226 -1698 47 65 103
99.5262 63.4462 -1712 49 71 109
103.657 63.8961 -1724 50 71 109
107.837 64.3461 -1736 56 77 115
112.129 64.8334 -1749 55 76 118
116.342 65.247 -1760 48 69 112
120.259 65.4753 -1766 47 69 108
123.431 65.296 -1761 47 66 103
127.015 65.3393 -1762 49 67 102
-108.583 58.5516 -1669 61 70 97
-105.383 58.6167 -1671 53 63 91
-101.749 58.4364 -1666 45 59 90
-98.1948 58.2914 -1662 47 60 93
-94.4858 58.0414 -1655 46 59 92
-90.8606 57.8265 -1649 40 55 87
-87.3131 57.647 -1644 41 55 87
-83.7863 57.4677 -1639 44 57 90
-80.1816 57.2184 -1632 47 60 93
-76.747 57.0745 -1628 43 56 88
-73.2837 56.8956 -1623 43 54 85
-70.0567 56.8922 -1623 42 53 84
-66.789 56.854 -1622 40 51 83
-63.5651 56.8509 -1622 40 51 81
-60.3417 56.848 -1622 41 52 82
-57.0836 56.8102 -1621 42 53 83
-53.7302 56.6674 -1617 41 52 83
-50.4869 56.6299 -1616 41 52 84
-47.1894 56.5225 -1613 40 51 81
-43.9587 56.4853 -1612 39 50 80
-40.7576 56.4833 -1612 37 48 77
-37.5103 56.4114 -1610 40 51 79
-34.2499 56.3046 -1607 43 54 82
-30.9438 56.0928 -1601 42 53 81
-27.7137 55.9864 -1598 37 48 76
-24.4957 55.88 -1595 40 51 79
-21.3433 55.914 -1596 42 53 80
-18.1644 55.878 -1595 44 54 81
-15.0272 55.9823 -1598 41 50 76
-11.8634 56.0167 -1599 41 50 76
-8.69565 56.0513 -1600 42 51 76
-5.52059 56.051 -1600 43 52 77
-2.3485 56.1208 -1602 41 50 74
0.829951 56.0858 -1601 41 49 73
4.00944 56.1209 -1602 42 50 74
7.20192 56.2263 -1605 41 49 73
10.3999 56.2968 -1607 42 49 73
13.5974 56.3324 -1608 43 50 74
16.7886 56.3331 -1608 41 48 71
19.9799 56.3339 -1608 36 43 65
23.1281 56.2299 -1605 32 39 60
26.281 56.161 -1603 31 38 57
29.4262 56.0922 -1601 30 37 56
32.5636 56.0236 -1599 33 39 59
35.7158 55.9901 -1598 34 40 60
38.8399 55.9218 -1596 39 45 65
41.93 55.8186 -1593 42 48 70
45.0369 55.7507 -1591 43 49 72
48.0756 55.6127 -1587 40 48 71
51.228 55.615 -1587 43 51 75
54.415 55.6526 -1588 44 52 76
57.7514 55.8304 -1593 48 56 82
60.917 55.8332 -1593 45 54 81
64.3246 56.0465 -1599 47 56 84
67.883 56.365 -1608 47 62 95
71.7429 56.8941 -1623 52 68 102
76.0326 57.704 -1646 56 73 109
80.1736 58.3387 -1664 50 67 105
84.1358 58.7983 -1677 49 67 105
87.9419 59.1179 -1686 48 66 104
91.7847 59.4377 -1695 43 61 99
95.4392 59.6175 -1700 44 62 100
99.5214 60.043 -1712 51 73 112
103.592 60.4336 -1723 53 74 113
107.77 60.8594 -1735 58 79 116
111.996 61.2856 -1747 55 75 116
116.072 61.6067 -1756 47 67 109
119.981 61.8228 -1762 47 69 108
123.495 61.8286 -1762 48 68 104
127.009 61.8345 -1762 50 69 103
-108.383 55.1341 -1666 59 68 96
-105.315 55.2616 -1670 48 59 87
-101.989 55.257 -1670 44 59 91
-98.2494 55.021 -1663 48 62 96
-94.5957 54.8181 -1657 47 60 95
-91.187 54.7479 -1655 41 56 88
-87.4153 54.4462 -1646 43 57 90
-83.8847 54.277 -1641 45 58 91
-80.3253 54.0749 -1635 46 60 92
-76.7906 53.8729 -1629 45 59 90
-73.3255 53.7043 -1624 41 52 82
-70.0535 53.668 -1623 41 52 83
-66.786 53.6319 -1622 40 51 83
-63.6406 53.6952 -1624 41 52 82
-60.4134 53.6924 -1624 42 53 83
-57.1162 53.6237 -1622 43 54 84
-53.8275 53.5551 -1620 43 54 85
-50.5471 53.4867 -1618 42 53 84
-47.2749 53.4183 -1616 40 51 82
-43.9839 53.3172 -1613 39 50 80
-40.8063 53.3483 -1614 37 48 78
-37.5785 53.3136 -1613 39 50 79
-34.291 53.1798 -1609 40 51 79
-31.0197 53.0461 -1605 39 50 78
-27.7297 52.8465 -1599 36 47 75
-24.51 52.7462 -1596 37 48 76
-21.329 52.7121 -1595 36 47 75
-18.1636 52.7113 -1595 35 46 74
-15.0171 52.7766 -1597 36 45 71
-11.8554 52.8091 -1598 38 47 73
-8.68439 52.8086 -1598 41 50 76
-5.52034 52.8744 -1600 43 52 76
-2.3484 52.9403 -1602 43 52 76
0.830428 52.9403 -1602 42 50 74
4.01426 53.0065 -1604 43 51 75
7.21056 53.1059 -1607 43 51 75
10.3994 53.1063 -1607 42 50 74
13.5968 53.1399 -1608 43 51 75
16.8087 53.2066 -1610 40 48 72
20.0038 53.2075 -1610 37 43 65
23.1559 53.1093 -1607 32 38 58
26.3126 53.0443 -1605 32 38 57
29.4616 52.9794 -1603 32 38 57
32.6029 52.9147 -1601 33 39 59
35.7365 52.8501 -1599 34 40 60
38.8138 52.7196 -1595 38 44 65
41.9018 52.6222 -1592 42 49 71
45.0632 52.6241 -1592 43 50 73
48.134 52.527 -1589 43 51 75
51.2902 52.5292 -1589 42 50 74
54.5495 52.6308 -1592 39 47 71
57.8213 52.7325 -1595 47 55 81
60.9907 52.7351 -1595 47 55 82
64.4021 52.9363 -1601 49 58 86
67.9643 53.2368 -1610 47 62 96
71.7839 53.7029 -1624 51 67 101
75.9368 54.3675 -1644 55 72 108
80.2662 55.0986 -1666 50 67 105
84.2324 55.5323 -1679 49 66 104
87.8336 55.7014 -1684 50 68 104
91.8888 56.1354 -1697 48 66 103
95.3787 56.2057 -1699 49 67 105
99.6912 56.7394 -1715 49 70 109
103.647 57.0418 -1724 52 73 113
107.765 57.4104 -1735 56 77 115
111.99 57.8124 -1747 52 73 114
116.067 58.1154 -1756 48 69 111
119.976 58.3192 -1762 48 70 108
123.419 58.2914 -1761 50 70 105
127.075 58.3633 -1763 54 73 106
-108.443 51.8533 -1667 53 63 92
-105.311 51.9421 -1670 46 58 87
-101.679 51.7823 -1665 46 61 93
-98.1269 51.6537 -1661 48 61 95
-94.5345 51.4942 -1656 46 59 93
-91.128 51.4281 -1654 42 57 89
-87.5178 51.2379 -1648 42 56 88
-83.9321 51.0477 -1642 44 57 90
-80.371 50.8577 -1636 45 58 90
-76.8345 50.6679 -1630 44 58 89
-73.4126 50.5405 -1626 40 51 81
-70.1368 50.5064 -1625 37 48 79
-66.8655 50.4725 -1624 38 49 81
-63.6379 50.4698 -1624 40 51 81
-60.4108 50.4672 -1624 39 50 80
-57.1489 50.4336 -1623 41 52 82
-53.8584 50.3692 -1621 42 53 83
-50.576 50.3048 -1619 41 52 83
-47.3022 50.2406 -1617 40 51 81
-44.0366 50.1766 -1615 39 50 80
-40.8299 50.1748 -1615 38 49 79
-37.6002 50.1421 -1614 38 49 78
-34.3535 50.0785 -1612 39 50 78
-31.0376 49.8907 -1606 38 49 77
-27.7806 49.7653 -1602 36 47 75
-24.5243 49.6089 -1597 35 46 74
-21.3415 49.5768 -1596 33 44 72
-18.1628 49.5449 -1595 31 42 70
-15.0165 49.6064 -1597 34 43 70
-11.8475 49.6058 -1597 37 46 73
-8.67858 49.6054 -1597 41 50 76
-5.51665 49.6672 -1599 42 51 76
-2.34683 49.7292 -1601 43 52 76
0.829353 49.6981 -1600 42 50 74
4.00908 49.7603 -1602 41 49 73
7.19678 49.8227 -1604 41 49 73
10.386 49.8541 -1605 40 48 72
13.5962 49.9478 -1608 39 47 71
16.808 50.0106 -1610 35 41 66
20.0029 50.0113 -1610 35 41 63
23.1693 49.9501 -1608 33 39 59
26.3442 49.9201 -1607 34 40 60
29.5154 49.8902 -1606 34 40 60
32.6422 49.7983 -1603 34 39 59
35.7573 49.7065 -1600 34 41 62
38.8608 49.6149 -1597 37 44 66
41.9526 49.5233 -1594 40 48 72
45.0612 49.463 -1592 41 48 73
48.1623 49.4028 -1590 42 50 76
51.3525 49.436 -1591 45 53 77
54.5129 49.4382 -1591 37 45 69
57.7825 49.5338 -1594 45 53 79
60.988 49.5674 -1595 49 57 84
64.4393 49.7876 -1602 51 60 88
67.9614 50.0389 -1610 49 64 98
71.9134 50.5702 -1627 53 68 103
76.0721 51.195 -1647 54 70 105
80.2628 51.7889 -1666 52 69 105
84.3291 52.2586 -1681 47 64 101
87.9863 52.4488 -1687 48 66 102
91.7765 52.7013 -1695 50 68 105
95.4869 52.8917 -1701 51 69 107
99.8613 53.4244 -1718 50 70 109
103.883 53.7396 -1728 52 71 111
108.008 54.0863 -1739 56 76 116
111.986 54.3397 -1747 52 74 115
116.194 54.6866 -1758 49 71 112
119.698 54.6916 -1758 50 71 108
123.413 54.79 -1761 53 73 107
127.214 54.9196 -1765 56 75 108
-111.158 48.2821 -1658 75 72 89
-108.569 48.5981 -1669 49 60 90
-105.307 48.623 -1670 46 58 89
-101.736 48.5025 -1666 45 60 92
-98.3002 48.4403 -1664 47 61 93
-94.5878 48.2328 -1657 47 60 93
-91.2345 48.2001 -1656 41 56 88
-87.5674 47.9929 -1649 40 54 87
-83.9798 47.8148 -1643 43 56 89
-80.2695 47.5497 -1634 44 58 89
-76.8785 47.4594 -1631 44 58 89
-73.4548 47.3401 -1627 41 52 82
-70.1771 47.3082 -1626 39 50 80
-66.904 47.2764 -1625 38 49 81
-63.6745 47.2739 -1625 40 51 81
-60.4084 47.2423 -1624 41 52 82
-57.1819 47.24 -1624 42 53 83
-53.8893 47.1796 -1622 42 53 83
-50.574 47.0903 -1619 41 52 82
-47.271 47.0012 -1616 39 50 80
-44.0076 46.9412 -1614 35 46 76
-40.8282 46.9686 -1615 35 46 76
-37.5754 46.909 -1613 37 48 77
-34.3521 46.8785 -1612 39 50 78
-31.0944 46.79 -1609 39 51 78
-27.8141 46.6434 -1604 37 49 76
-24.5386 46.4679 -1598 36 47 75
-21.3406 46.4089 -1596 34 45 73
-18.1735 46.4081 -1596 34 45 73
-15.0159 46.4365 -1597 36 45 73
-11.8544 46.4651 -1598 37 46 73
-8.68367 46.4647 -1598 38 47 73
-5.51643 46.4935 -1599 39 48 73
-2.34674 46.5515 -1601 41 50 74
0.829836 46.5515 -1601 40 48 72
4.01142 46.6097 -1603 38 47 71
7.20098 46.6681 -1605 37 45 69
10.3985 46.7266 -1607 39 46 72
13.5956 46.7561 -1608 38 45 70
16.8073 46.8149 -1610 32 37 62
20.0021 46.8156 -1610 32 37 59
23.1971 46.8164 -1610 32 38 58
26.3924 46.8174 -1610 34 40 60
29.5694 46.7894 -1609 33 38 58
32.702 46.7034 -1606 34 38 59
35.8005 46.5884 -1602 34 41 63
38.8835 46.4736 -1598 36 44 66
41.9509 46.3588 -1594 39 47 71
45.0594 46.3023 -1592 41 49 74
48.1603 46.246 -1590 43 51 76
51.3505 46.277 -1591 43 51 75
54.5107 46.2792 -1591 41 49 73
57.7802 46.3686 -1594 48 56 82
61.0238 46.4291 -1596 48 57 84
64.5172 46.6642 -1604 52 61 90
68.0008 46.8706 -1611 48 63 97
71.9547 47.3679 -1628 51 66 100
76.4847 48.1855 -1656 53 69 103
80.4041 48.5669 -1669 52 68 104
84.3758 48.9484 -1682 48 65 101
88.087 49.1554 -1689 47 65 101
91.8809 49.3919 -1697 47 65 103
95.5953 49.5702 -1703 50 68 106
99.9154 50.0397 -1719 50 68 106
104.12 50.4221 -1732 51 70 108
108.315 50.7756 -1744 55 75 115
112.238 50.9838 -1751 49 73 115
116.321 51.2504 -1760 47 71 113
120.034 51.3423 -1763 51 72 109
123.689 51.4054 -1765 54 74 108
127.209 51.4103 -1765 56 75 106
-111.354 45.068 -1661 67 67 85
-108.5 45.2539 -1668 47 56 86
-105.303 45.3043 -1670 46 57 87
-101.671 45.1649 -1665 44 59 91
-98.0011 44.9985 -1659 45 59 91
-94.6984 44.995 -1659 46 60 91
-91.2311 44.9102 -1656 42 57 89
-87.5109 44.69 -1648 43 57 89
-84.0278 44.5784 -1644 44 57 90
-80.3157 44.3314 -1635 43 57 89
-76.9227 44.2472 -1632 43 57 88
-73.5423 44.1631 -1629 42 53 83
-70.2608 44.1334 -1628 39 50 81
-67.0249 44.1309 -1628 38 49 81
-63.7113 44.0743 -1626 40 51 81
-60.4061 44.0178 -1624 43 54 84
-57.1444 43.9885 -1623 44 55 85
-53.8541 43.9323 -1621 43 54 84
-50.5721 43.8762 -1619 42 53 83
-47.2692 43.7931 -1616 41 52 82
-44.0059 43.7373 -1614 38 49 79
-40.8267 43.7628 -1615 38 49 79
-37.5973 43.7343 -1614 40 51 80
-34.3934 43.733 -1614 41 52 80
-31.1319 43.6505 -1611 39 53 80
-27.8478 43.514 -1606 37 51 78
-24.5684 43.3505 -1600 39 50 78
-21.3665 43.2955 -1598 38 49 77
-18.1842 43.2677 -1597 40 51 79
-15.0059 43.24 -1596 40 49 77
-11.8466 43.2666 -1597 38 47 74
-8.68334 43.2933 -1598 37 46 72
-5.51278 43.293 -1598 37 46 70
-2.34519 43.3471 -1600 38 47 71
0.829284 43.347 -1600 38 47 71
4.01127 43.4284 -1603 39 48 72
7.20071 43.4828 -1605 39 48 72
10.4046 43.5644 -1608 42 48 74
13.5951 43.5648 -1608 41 46 73
16.8171 43.6467 -1611 33 38 63
20.0262 43.6744 -1612 31 36 58
23.2107 43.6481 -1611 31 37 57
26.3914 43.6219 -1610 31 37 57
29.5866 43.623 -1610 31 36 57
32.7007 43.5157 -1606 34 38 61
35.8439 43.4628 -1604 34 40 63
38.8821 43.3016 -1598 35 43 65
41.9494 43.1946 -1594 40 48 72
45.0577 43.142 -1592 42 50 74
48.1888 43.1166 -1591 43 51 75
51.3485 43.1184 -1591 42 50 74
54.5429 43.1475 -1592 43 51 75
57.778 43.2037 -1594 45 53 79
61.0215 43.2601 -1596 45 54 82
64.4745 43.4522 -1603 51 60 90
67.9559 43.6444 -1610 48 63 97
71.9078 44.1078 -1627 51 66 100
76.2509 44.7611 -1651 51 67 101
80.5456 45.3333 -1672 48 65 101
84.3225 45.5803 -1681 48 65 101
88.188 45.8546 -1691 46 64 100
91.9857 46.0748 -1699 45 63 100
95.704 46.241 -1705 49 67 105
99.9698 46.6515 -1720 49 67 104
104.176 47.0078 -1733 50 70 107
108.435 47.3643 -1746 53 75 114
112.426 47.5853 -1754 48 72 114
116.251 47.7252 -1759 46 70 112
119.689 47.7024 -1758 51 70 108
123.404 47.7882 -1761 55 74 108
126.195 47.5214 -1751 57 76 107
-111.686 41.8926 -1666 65 66 84
-108.821 42.065 -1673 47 56 86
-105.488 42.0614 -1673 46 57 88
-101.729 41.8819 -1666 45 59 91
-98.1749 41.778 -1662 44 59 90
-94.695 41.6992 -1659 46 61 92
-91.0075 41.5202 -1652 43 58 90
-87.2954 41.3161 -1644 47 62 94
-83.8204 41.2127 -1640 47 60 93
-80.3128 41.0843 -1635 43 56 88
-76.92 41.0063 -1632 41 55 86
-73.5397 40.9284 -1629 40 51 81
-70.3446 40.9511 -1630 38 49 79
-67.0226 40.8984 -1628 38 49 81
-63.7874 40.8962 -1628 41 52 82
-60.4784 40.8439 -1626 42 53 83
-57.1777 40.7917 -1624 44 55 84
-53.8854 40.7396 -1622 45 56 86
-50.6016 40.6876 -1620 43 54 84
-47.2968 40.6106 -1617 40 51 81
-44.0316 40.5588 -1615 41 52 82
-40.8505 40.5825 -1616 42 53 83
-37.6192 40.5561 -1615 41 52 81
-34.4135 40.5549 -1615 40 51 79
-31.1887 40.5286 -1614 39 53 80
-27.8815 40.377 -1608 39 53 80
-24.6136 40.2506 -1603 42 53 81
-21.3792 40.1493 -1599 39 50 78
-18.2063 40.1487 -1599 38 49 77
-15.0148 40.0979 -1597 40 49 77
-11.861 40.1477 -1599 38 47 75
-8.69391 40.1724 -1600 36 45 73
-5.52639 40.2224 -1602 37 46 71
-2.34804 40.2223 -1602 38 47 71
0.830807 40.2474 -1603 38 47 71
4.01613 40.2977 -1605 40 49 73
7.20942 40.3481 -1607 43 52 76
10.4107 40.3986 -1609 45 50 77
13.6031 40.399 -1609 44 49 76
16.8165 40.4497 -1611 34 39 64
20.0131 40.4504 -1611 31 37 59
23.1955 40.426 -1610 30 36 56
26.3904 40.4268 -1610 30 36 56
29.604 40.4529 -1611 31 36 57
32.6996 40.3284 -1606 33 37 60
35.8203 40.2542 -1603 33 40 62
38.9294 40.1801 -1600 37 45 67
42.0005 40.081 -1596 42 50 74
45.1127 40.0323 -1594 43 51 75
48.2174 39.9836 -1592 45 53 77
51.379 39.9853 -1592 45 53 77
54.541 39.9871 -1592 44 52 76
57.8122 40.0643 -1595 45 53 79
61.0958 40.1417 -1598 47 55 84
64.5527 40.3197 -1605 52 61 91
68.1223 40.5481 -1614 49 64 98
72.2146 41.0529 -1634 54 70 104
76.4792 41.6082 -1656 51 68 102
80.5428 42.0128 -1672 46 63 99
84.3195 42.2418 -1681 46 63 99
88.0806 42.4457 -1689 45 62 98
91.9284 42.6749 -1698 44 62 99
95.7006 42.854 -1705 50 68 106
100.024 43.2596 -1721 52 69 105
104.353 43.6401 -1736 54 73 110
108.555 43.9453 -1748 54 76 115
112.614 44.1753 -1757 49 72 116
116.379 44.2798 -1761 47 71 114
119.753 44.2336 -1759 52 70 108
123.119 44.1873 -1757 55 73 107
125.758 43.8897 -1745 57 76 107
-112.017 38.6978 -1671 63 65 83
-109.143 38.8565 -1678 51 60 92
-105.485 38.7374 -1673 50 60 92
-101.847 38.6184 -1668 45 58 91
-98.1127 38.4532 -1661 44 58 90
-94.3495 38.265 -1653 45 60 91
-90.7291 38.1232 -1647 43 58 90
-87.2926 38.051 -1644 49 63 95
-83.8177 37.9558 -1640 46 59 92
-80.4576 37.907 -1638 42 56 87
-77.106 37.8583 -1636 42 56 87
-73.763 37.8096 -1634 39 50 80
-70.4718 37.7843 -1633 37 48 79
-67.1028 37.7126 -1630 38 49 81
-63.7462 37.6412 -1627 40 51 82
-60.4019 37.5699 -1624 41 52 82
-57.1054 37.5218 -1622 42 53 81
-53.8172 37.4738 -1620 42 53 82
-50.5375 37.4259 -1618 41 52 82
-47.2953 37.4013 -1617 39 50 80
-44.0847 37.3998 -1617 40 51 81
-40.8998 37.4217 -1618 39 50 80
-37.6879 37.4204 -1618 39 50 79
-34.455 37.3962 -1617 39 50 78
-31.2264 37.372 -1616 37 51 78
-27.9499 37.2786 -1612 38 52 79
-24.6435 37.1159 -1605 40 51 79
-21.4186 37.0458 -1602 37 48 76
-18.2285 37.0221 -1601 37 48 76
-15.0331 36.9753 -1599 39 48 76
-11.868 36.998 -1600 39 48 76
-8.69906 37.0209 -1601 37 47 75
-5.52621 37.0438 -1602 38 47 72
-2.3465 37.0205 -1601 40 49 73
0.830779 37.0668 -1603 40 49 73
4.0135 37.0899 -1604 41 50 74
7.2047 37.1364 -1606 42 51 75
10.4039 37.1829 -1608 44 49 76
13.6027 37.2064 -1609 44 49 76
16.8055 37.23 -1610 35 40 65
20.0124 37.2537 -1611 31 36 59
23.2091 37.2544 -1611 29 35 55
26.3732 37.2089 -1609 32 38 58
29.5846 37.2329 -1610 32 38 59
32.6782 37.1182 -1605 33 37 60
35.8415 37.0962 -1604 35 41 64
38.9768 37.0511 -1602 39 47 69
42.0518 36.9598 -1598 44 52 76
45.1679 36.9149 -1596 45 53 77
48.3067 36.8932 -1595 46 54 78
51.4419 36.8716 -1594 47 55 80
54.5735 36.8502 -1593 47 55 80
57.8104 36.8982 -1595 48 56 82
61.0556 36.9463 -1597 50 59 87
64.43 37.0639 -1602 52 61 91
68.0357 37.2973 -1612 50 65 99
71.9469 37.6697 -1628 56 71 105
76.1996 38.1812 -1650 52 69 103
80.5402 38.6927 -1672 46 63 98
84.4673 38.973 -1684 46 63 99
88.2342 39.1608 -1692 47 64 100
91.9254 39.3025 -1698 45 62 99
95.8657 39.5369 -1708 49 67 105
100.021 39.8408 -1721 54 71 107
104.349 40.1914 -1736 55 74 111
108.614 40.4957 -1749 52 73 113
112.867 40.7769 -1761 46 69 113
116.375 40.7805 -1761 44 67 110
119.817 40.761 -1760 50 68 107
122.835 40.6027 -1753 55 73 107
-112.014 35.3776 -1671 60 62 81
-109.205 35.5438 -1679 53 61 94
-105.608 35.4561 -1675 52 62 94
-101.844 35.3049 -1668 45 59 91
-97.9916 35.1116 -1659 42 57 88
-94.2896 34.9607 -1652 43 58 89
-90.6713 34.8311 -1646 41 56 88
-87.1838 34.744 -1642 48 62 95
-83.713 34.6569 -1638 46 59 92
-80.4061 34.6334 -1637 41 55 86
-77.0566 34.5889 -1635 38 52 83
-73.7157 34.5443 -1633 37 48 78
-70.4266 34.5211 -1632 36 47 77
-67.0596 34.4557 -1629 37 48 80
-63.7443 34.4116 -1627 39 50 81
-60.363 34.3252 -1623 41 52 82
-57.0685 34.2813 -1621 41 52 80
-53.7492 34.2162 -1618 40 51 80
-50.5047 34.1936 -1617 39 50 80
-47.2354 34.1499 -1615 39 50 80
-44.0562 34.1698 -1616 40 51 81
-40.8733 34.1897 -1617 39 50 80
-37.6868 34.2098 -1618 39 50 79
-34.454 34.1876 -1617 38 49 77
-31.2641 34.2078 -1618 36 50 77
-28.0011 34.1435 -1615 39 53 80
-24.7042 34.0159 -1609 41 52 80
-21.4581 33.9307 -1605 37 48 76
-18.2507 33.8879 -1603 37 48 76
-15.0421 33.824 -1600 38 49 77
-11.8677 33.8236 -1600 39 50 78
-8.69881 33.8445 -1601 39 50 78
-5.52605 33.8654 -1602 40 50 75
-2.3479 33.8653 -1602 40 49 73
0.831788 33.9287 -1605 38 47 71
4.01838 33.9499 -1606 39 48 73
7.21794 34.0135 -1609 41 49 75
10.4295 34.0772 -1612 40 47 74
13.6192 34.0564 -1611 40 47 73
16.8259 34.0779 -1612 34 39 64
20.0119 34.0573 -1611 31 36 58
23.194 34.0368 -1610 32 37 57
26.3724 34.0164 -1609 35 41 61
29.5286 33.9749 -1607 33 38 59
32.6568 33.9123 -1604 37 41 64
35.7957 33.871 -1602 40 47 69
38.9513 33.8509 -1601 41 49 71
41.9979 33.7464 -1596 42 50 74
45.1665 33.7476 -1596 43 51 76
48.3052 33.7278 -1595 44 52 78
51.4404 33.7081 -1594 48 56 82
54.6062 33.7096 -1594 49 57 83
57.8811 33.7746 -1597 48 56 82
61.1303 33.8186 -1599 50 58 87
64.5487 33.9473 -1605 51 60 90
68.2025 34.1818 -1616 49 64 98
72.1217 34.5223 -1632 57 72 106
76.613 35.0955 -1659 54 70 104
80.6341 35.4152 -1674 46 63 99
84.5651 35.6714 -1686 46 63 99
88.2838 35.822 -1693 49 66 102
92.0851 35.9938 -1701 47 65 102
95.919 36.1658 -1709 49 67 105
100.076 36.4437 -1722 54 72 109
104.346 36.7429 -1736 55 74 111
108.548 36.9999 -1748 50 70 110
112.607 37.1936 -1757 43 66 109
116.108 37.1969 -1757 42 65 108
119.541 37.1791 -1756 47 65 104
122.481 37.0131 -1748 54 73 106
-112.547 32.2111 -1679 59 61 81
-109.592 32.3233 -1685 51 58 91
-105.668 32.1478 -1676 50 59 91
-101.719 31.9534 -1666 44 58 91
-97.8708 31.7782 -1657 42 56 88
-94.23 31.6607 -1651 42 56 88
-90.5587 31.5241 -1644 41 55 87
-87.1815 31.4834 -1642 47 61 93
-83.7618 31.4237 -1639 43 56 88
-80.5021 31.4216 -1639 37 50 81
-77.1487 31.3812 -1637 35 47 78
-73.8492 31.36 -1636 35 46 75
-70.4247 31.2815 -1632 35 46 76
-67.099 31.2414 -1630 36 47 78
-63.7425 31.1822 -1627 38 49 79
-60.3241 31.0848 -1622 40 51 81
-57.0318 31.045 -1620 41 52 81
-53.6813 30.9669 -1616 40 51 81
-50.5034 30.9847 -1617 39 50 81
-47.2634 30.9643 -1616 40 51 81
-44.1095 31.0015 -1618 40 51 81
-40.9227 31.0195 -1619 39 50 80
-37.7324 31.0377 -1620 39 50 79
-34.5383 31.0559 -1621 38 49 77
-31.3019 31.0359 -1620 35 48 75
-28.035 30.9777 -1617 38 51 78
-24.7343 30.862 -1611 40 51 79
-21.4976 30.804 -1608 38 49 77
-18.2502 30.7077 -1603 36 47 75
-15.0416 30.6498 -1600 39 50 78
-11.8599 30.6303 -1599 40 51 79
-8.6877 30.63 -1599 40 51 80
-5.52245 30.6682 -1601 40 50 76
-2.34784 30.6872 -1602 42 51 76
0.832282 30.7638 -1606 39 48 73
4.02077 30.783 -1607 40 49 74
7.22223 30.8406 -1610 41 49 74
10.4292 30.8792 -1612 42 48 74
13.6272 30.8795 -1612 37 43 68
16.8254 30.8799 -1612 31 36 60
20.0237 30.8804 -1612 32 36 58
23.2078 30.8618 -1611 35 39 60
26.3881 30.8433 -1610 33 39 59
29.5278 30.7865 -1607 30 36 57
32.656 30.7298 -1604 40 44 67
35.7947 30.6924 -1602 45 51 74
38.9016 30.6359 -1599 43 50 73
41.9968 30.5795 -1596 43 50 74
45.137 30.5614 -1595 39 46 71
48.3039 30.5626 -1595 43 51 76
51.5035 30.5831 -1596 48 56 81
54.6732 30.5844 -1596 48 56 81
57.9158 30.6242 -1598 48 56 83
61.2051 30.6832 -1601 48 56 85
64.5067 30.7423 -1604 52 61 91
68.1163 30.9357 -1614 51 64 98
72.0312 31.2442 -1630 55 69 103
76.5185 31.7637 -1657 54 69 103
80.4393 32.0149 -1670 48 64 100
84.5126 32.3047 -1685 47 64 100
88.3335 32.4795 -1694 47 64 100
92.0285 32.5968 -1700 47 65 102
95.9164 32.7718 -1709 50 68 106
99.9572 32.9853 -1720 50 68 106
104.043 33.1989 -1731 55 73 112
108.297 33.4509 -1744 51 71 111
112.347 33.6264 -1753 47 69 111
115.774 33.6103 -1752 46 68 111
119.333 33.6325 -1753 49 67 105
-112.746 28.9271 -1682 56 59 81
-109.654 28.9932 -1686 52 58 88
-105.665 28.8188 -1676 50 58 89
-101.717 28.6445 -1666 45 58 92
-97.9865 28.5218 -1659 43 56 89
-94.1706 28.3649 -1650 42 55 88
-90.5014 28.2424 -1643 42 56 87
-87.1263 28.206 -1641 46 60 90
-83.7085 28.1524 -1638 40 54 84
-80.451 28.1505 -1638 37 49 78
-77.0997 28.1143 -1636 35 46 75
-73.8022 28.0954 -1635 36 47 75
-70.423 28.0421 -1632 35 46 75
-67.1797 28.0406 -1632 36 47 77
-63.8193 27.9875 -1629 38 49 79
-60.4714 27.9345 -1626 39 50 80
-57.1008 27.8645 -1622 39 50 80
-53.7797 27.8117 -1619 37 48 79
-50.5646 27.8104 -1619 37 48 80
-47.2622 27.7578 -1616 41 52 82
-44.0811 27.7739 -1617 41 52 82
-40.8965 27.7901 -1618 39 50 80
-37.6849 27.7892 -1618 38 49 78
-34.4735 27.7884 -1618 38 49 77
-31.2625 27.7876 -1618 36 47 75
-28.017 27.7526 -1616 37 48 76
-24.7337 27.6661 -1611 38 49 77
-21.4837 27.5969 -1607 41 52 80
-18.2498 27.5277 -1603 42 53 81
-15.0507 27.493 -1601 42 53 81
-11.8671 27.4755 -1600 39 50 79
-8.69836 27.4925 -1601 40 51 81
-5.52921 27.5266 -1603 40 50 78
-2.35218 27.5609 -1605 41 50 78
0.832779 27.5952 -1607 39 48 74
4.02317 27.6125 -1608 41 50 75
7.22206 27.6469 -1610 40 48 72
10.4354 27.6986 -1613 43 47 72
13.6354 27.6989 -1613 39 43 68
16.8354 27.6993 -1613 34 38 59
20.0357 27.6997 -1613 32 36 57
23.2072 27.6659 -1611 34 38 59
26.371 27.6321 -1609 31 39 59
29.5088 27.5812 -1606 30 38 58
32.6551 27.5476 -1604 39 45 67
35.7715 27.4969 -1601 44 49 73
38.852 27.429 -1597 42 47 72
41.9694 27.3956 -1595 44 49 74
45.1359 27.3966 -1595 42 48 73
48.2725 27.3805 -1594 44 52 76
51.47 27.3988 -1595 47 55 80
54.6719 27.4172 -1596 48 56 80
57.9144 27.4529 -1598 48 55 84
61.2418 27.523 -1602 47 55 85
64.6258 27.6104 -1607 51 60 90
68.2834 27.8009 -1618 51 64 97
72.2062 28.0774 -1634 56 69 103
76.4703 28.4572 -1656 53 68 102
80.919 28.8714 -1680 47 63 98
84.7614 29.0453 -1690 49 66 101
88.4356 29.1504 -1696 45 64 98
92.2427 29.29 -1704 47 65 102
96.1386 29.4469 -1713 50 68 106
100.071 29.6039 -1722 49 68 109
104.221 29.8126 -1734 53 73 112
108.418 30.0213 -1746 52 73 111
112.216 30.1098 -1751 46 68 107
115.639 30.0953 -1750 48 69 109
119.058 30.0809 -1749 55 72 107
-113.279 25.7073 -1690 55 59 82
-110.042 25.7355 -1692 54 59 88
-105.852 25.5356 -1679 51 59 89
-101.837 25.3662 -1668 47 59 94
-98.1025 25.2577 -1661 45 57 90
-94.3969 25.1493 -1654 44 57 89
-90.6646 25.0258 -1646 42 56 87
-87.2306 24.9783 -1643 42 56 87
-83.809 24.9309 -1640 38 52 81
-80.4001 24.8836 -1637 37 49 77
-77.1452 24.882 -1637 31 42 70
-73.8006 24.8501 -1635 34 45 73
-70.4646 24.8182 -1633 37 48 77
-67.1369 24.7864 -1631 40 51 81
-63.7787 24.7395 -1628 41 52 82
-60.4329 24.6926 -1625 41 52 82
-57.0643 24.6306 -1621 38 49 79
-53.7453 24.5839 -1618 37 48 78
-50.501 24.5677 -1617 39 50 81
-47.2612 24.5515 -1616 41 52 81
-44.0802 24.5657 -1617 41 52 81
-40.8956 24.5801 -1618 38 49 79
-37.684 24.5793 -1618 36 47 76
-34.4728 24.5785 -1618 35 46 75
-31.2425 24.5627 -1617 34 45 73
-28.0164 24.5469 -1616 37 48 76
-24.7331 24.4704 -1611 39 50 78
-21.4832 24.4092 -1607 41 52 80
-18.2608 24.3632 -1604 41 52 80
-15.0692 24.3477 -1603 41 52 80
-11.8816 24.3322 -1602 40 51 79
-8.70904 24.3472 -1603 39 50 80
-5.53254 24.3622 -1604 41 50 78
-2.35359 24.3925 -1606 40 49 76
0.833796 24.4381 -1609 40 49 75
4.02559 24.4381 -1609 42 50 75
7.22638 24.4686 -1611 41 49 73
10.4352 24.4992 -1613 42 46 70
13.6435 24.5146 -1614 40 44 67
16.8351 24.4997 -1613 34 38 59
20.0476 24.5153 -1614 31 35 56
23.2355 24.5006 -1613 32 36 57
26.4032 24.4707 -1611 30 37 58
29.5632 24.4409 -1609 32 38 60
32.6952 24.3959 -1606 39 45 67
35.7931 24.3359 -1602 42 47 72
38.8754 24.2759 -1598 43 48 73
41.9948 24.2463 -1596 47 52 77
45.1349 24.232 -1595 48 54 78
48.3017 24.233 -1595 48 56 80
51.4366 24.2188 -1594 46 54 79
54.6707 24.2503 -1596 46 54 79
57.9131 24.2818 -1598 47 54 83
61.164 24.3134 -1600 46 54 84
64.6244 24.4211 -1607 50 59 89
68.2397 24.5744 -1617 53 66 98
72.0721 24.7886 -1631 56 70 102
76.6995 25.2461 -1661 53 68 102
80.9172 25.5365 -1680 45 61 95
84.8598 25.7206 -1692 46 63 97
88.6423 25.8441 -1700 44 63 96
92.349 25.9372 -1706 44 63 98
96.3048 26.0911 -1716 48 66 104
100.185 26.2148 -1724 49 69 110
104.278 26.3841 -1735 55 75 115
108.416 26.5536 -1746 55 76 113
112.086 26.6015 -1749 50 71 108
115.372 26.5581 -1746 50 70 107
118.92 26.5757 -1747 56 71 103
-113.612 22.4165 -1695 57 62 85
-110.235 22.4145 -1695 50 55 84
-105.976 22.2274 -1681 46 53 83
-102.018 22.0934 -1671 46 57 90
-98.1597 21.9726 -1662 46 59 90
-94.5662 21.9048 -1657 46 60 91
-90.8282 21.7973 -1649 44 58 89
-87.2289 21.7164 -1643 41 55 85
-83.8585 21.6885 -1641 37 51 80
-80.4968 21.6606 -1639 37 49 77
-77.1908 21.646 -1638 31 42 70
-73.9346 21.6446 -1638 30 41 69
-70.5064 21.5905 -1634 36 47 76
-67.218 21.576 -1633 38 49 79
-63.8167 21.522 -1629 38 49 79
-60.4318 21.4681 -1625 39 50 80
-57.0632 21.4142 -1621 40 51 81
-53.7775 21.3868 -1619 40 51 81
-50.5001 21.3595 -1617 42 53 83
-47.2603 21.3454 -1616 41 52 80
-44.0794 21.3578 -1617 40 51 79
-40.8442 21.3438 -1616 38 49 79
-37.6367 21.3431 -1616 36 47 77
-34.4508 21.3557 -1617 36 47 77
-31.2226 21.3419 -1616 36 47 75
-27.9639 21.3018 -1613 40 51 79
-24.7173 21.2617 -1610 41 52 80
-21.4828 21.2216 -1607 40 51 79
-18.249 21.1685 -1603 40 51 79
-15.0783 21.1814 -1604 40 51 79
-11.8962 21.1811 -1604 40 51 80
-8.71431 21.181 -1604 41 52 82
-5.54624 21.2336 -1608 42 52 79
-2.35794 21.2468 -1609 41 50 76
0.834297 21.26 -1610 40 49 75
4.03051 21.2732 -1611 39 48 73
7.23521 21.2997 -1613 38 46 70
10.4414 21.3131 -1614 39 43 66
13.6517 21.3265 -1615 38 42 65
16.8452 21.3136 -1614 34 38 59
20.0473 21.3139 -1614 32 37 57
23.2495 21.3143 -1614 33 38 58
26.4027 21.2751 -1611 33 39 61
29.5443 21.236 -1608 36 42 64
32.6742 21.1969 -1605 42 48 70
35.8147 21.1711 -1603 43 49 73
38.8747 21.1058 -1598 45 50 75
41.994 21.0801 -1596 48 53 78
45.1058 21.0544 -1594 47 54 78
48.2402 21.0421 -1593 47 55 79
51.3711 21.0297 -1592 45 53 79
54.5669 21.0439 -1593 45 52 79
57.8033 21.0713 -1595 46 53 82
61.1246 21.1252 -1599 47 55 84
64.583 21.2188 -1606 50 59 89
68.2806 21.3785 -1618 53 67 98
72.2032 21.5912 -1634 56 71 103
76.9289 22.0154 -1666 53 68 102
80.9638 22.215 -1681 45 62 96
84.9585 22.3883 -1694 44 61 95
88.7449 22.4955 -1702 42 61 94
92.2931 22.5368 -1705 39 57 93
96.303 22.684 -1716 41 59 97
100.125 22.7783 -1723 53 71 111
104.216 22.9255 -1734 57 76 115
108.29 23.0596 -1744 54 75 112
111.956 23.1012 -1747 51 72 109
115.238 23.0636 -1744 51 71 108
-114.147 19.1395 -1703 58 63 87
-110.623 19.1153 -1701 49 54 84
-106.353 18.9564 -1687 47 53 84
-102.322 18.8312 -1676 44 55 88
-98.5125 18.7398 -1668 44 56 88
-94.6788 18.6372 -1659 46 58 90
-90.9368 18.546 -1651 44 58 88
-87.3336 18.4772 -1645 40 54 83
-83.9083 18.4422 -1642 33 47 76
-80.4955 18.4073 -1639 35 46 74
-77.1896 18.3949 -1638 32 43 71
-73.8883 18.3825 -1637 30 41 69
-70.5915 18.3702 -1636 37 48 77
-67.217 18.3355 -1633 39 50 80
-63.8548 18.3008 -1630 39 50 80
-60.5052 18.2662 -1627 41 52 82
-57.0623 18.1979 -1621 42 53 83
-53.843 18.1971 -1621 42 53 83
-50.5617 18.1739 -1619 43 54 84
-47.318 18.1619 -1618 41 52 80
-44.0786 18.15 -1617 40 51 80
-40.8689 18.1493 -1617 39 50 80
-37.6361 18.1375 -1616 38 49 79
-34.4503 18.1482 -1617 38 49 79
-31.2221 18.1365 -1616 37 48 76
-27.9461 18.0911 -1612 42 53 81
-24.7015 18.0571 -1609 46 57 85
-21.4557 18.0118 -1605 47 58 86
-18.2374 17.9779 -1602 45 56 84
-15.0686 17.9888 -1603 38 49 77
-11.896 17.9999 -1604 36 47 76
-8.7196 18.0109 -1605 41 52 82
-5.54615 18.0445 -1608 42 52 79
-2.36084 18.0781 -1611 42 51 77
0.8348 18.0781 -1611 40 49 75
4.03044 18.0781 -1611 38 47 72
7.23509 18.1007 -1613 36 44 68
10.4348 18.1008 -1613 36 41 64
13.643 18.1122 -1614 35 39 61
16.8449 18.1124 -1614 33 37 58
20.0469 18.1127 -1614 32 37 57
23.2491 18.113 -1614 33 39 59
26.4023 18.0797 -1611 36 42 64
29.5438 18.0465 -1608 40 46 68
32.694 18.0245 -1606 43 49 71
35.8142 17.9914 -1603 43 48 72
38.8497 17.9246 -1597 45 50 75
42.046 17.9364 -1598 45 50 75
45.1333 17.9034 -1595 44 50 75
48.2697 17.8929 -1594 44 52 76
51.4025 17.8824 -1593 45 53 79
54.6002 17.8944 -1594 46 54 80
57.8024 17.9065 -1595 47 54 83
61.1236 17.9523 -1599 49 57 86
64.5819 18.0319 -1606 50 59 89
68.1529 18.1339 -1615 52 66 97
72.5998 18.4494 -1643 54 68 100
76.8815 18.6976 -1665 50 65 97
81.0588 18.9009 -1683 44 60 93
85.0073 19.0369 -1695 45 61 95
88.7434 19.1169 -1702 46 64 99
92.5623 19.2081 -1710 46 64 101
96.582 19.3331 -1721 48 66 104
100.24 19.3795 -1725 54 72 112
104.275 19.4934 -1735 57 76 114
108.288 19.5961 -1744 52 73 109
112.082 19.654 -1749 50 71 107
115.302 19.6107 -1745 51 71 108
-114.279 15.7755 -1705 66 71 96
-110.557 15.7278 -1700 59 64 95
-106.351 15.6062 -1687 55 62 94
-102.32 15.5032 -1676 47 58 91
-98.5702 15.4372 -1669 47 58 90
-94.6204 15.3342 -1658 48 59 91
-90.9907 15.2776 -1652 44 57 87
-87.3855 15.221 -1646 38 51 81
-83.9582 15.1922 -1643 29 42 72
-80.5926 15.1727 -1641 31 42 70
-77.2828 15.1624 -1640 32 43 70
-73.9775 15.1523 -1639 31 42 70
-70.6768 15.1421 -1638 36 47 76
-67.2983 15.1135 -1635 40 51 81
-63.8539 15.0665 -1630 41 52 82
-60.5043 15.038 -1627 41 52 82
-57.1671 15.0095 -1624 43 54 84
-53.9087 14.9996 -1623 45 56 87
-50.6547 14.9897 -1622 43 54 85
-47.4051 14.9799 -1621 38 49 78
-44.1053 14.9516 -1618 40 51 80
-40.8936 14.951 -1618 41 52 82
-37.6589 14.9413 -1617 39 50 79
-34.4498 14.9409 -1617 37 48 78
-31.2023 14.922 -1615 38 49 77
-27.9804 14.9124 -1614 42 53 81
-24.7165 14.8751 -1610 46 57 85
-21.4688 14.8378 -1606 45 56 84
-18.2599 14.8191 -1604 43 54 82
-15.0872 14.8281 -1605 38 49 77
-11.9033 14.828 -1605 36 47 75
-8.72491 14.8371 -1606 37 48 78
-5.54952 14.8647 -1609 41 50 77
-2.36227 14.8924 -1612 42 51 77
0.835824 14.9016 -1613 39 48 74
4.03289 14.8924 -1612 41 49 74
7.23948 14.911 -1614 39 47 71
10.4347 14.9018 -1613 38 42 66
13.6344 14.902 -1613 35 39 63
16.8447 14.9114 -1614 33 37 58
20.0591 14.9209 -1615 32 37 58
23.2632 14.9211 -1615 33 39 59
26.4019 14.8845 -1611 36 42 64
29.5434 14.8571 -1608 40 46 68
32.6528 14.8206 -1604 42 48 70
35.7913 14.8025 -1602 43 48 73
38.8492 14.7568 -1597 46 51 76
42.0454 14.7665 -1598 44 51 75
45.161 14.7486 -1596 43 51 75
48.269 14.7307 -1594 44 52 76
51.3695 14.7128 -1592 47 55 80
54.5652 14.7227 -1593 48 56 81
57.7653 14.7327 -1594 48 55 84
61.0463 14.7611 -1597 49 57 87
64.5408 14.8359 -1605 49 58 88
68.1098 14.9199 -1614 50 63 95
72.3336 15.1334 -1637 53 67 99
76.8804 15.3932 -1665 50 65 97
81.0577 15.5606 -1683 44 59 93
85.1064 15.691 -1697 43 58 93
88.8986 15.7661 -1705 44 61 97
92.7234 15.8412 -1713 46 63 100
96.6929 15.9349 -1723 47 65 103
100.471 15.9916 -1729 54 72 112
104.634 16.1038 -1741 55 74 112
108.597 16.1792 -1749 51 72 107
112.209 16.199 -1751 49 70 107
115.432 16.1635 -1747 51 72 108
-114.546 12.4182 -1709 65 70 96
-110.556 12.3517 -1700 59 65 96
-106.287 12.2489 -1686 56 64 96
-102.319 12.1753 -1676 50 63 96
-98.3919 12.1016 -1666 49 60 93
-94.6193 12.0426 -1658 49 60 92
-90.9897 11.9981 -1652 43 54 86
-87.4377 11.9609 -1647 36 47 78
-84.0594 11.9456 -1645 28 39 69
-80.5426 11.9084 -1640 30 41 68
-77.2348 11.9004 -1639 34 45 71
-73.9767 11.8997 -1639 37 48 76
-70.6329 11.8844 -1637 36 47 76
-67.2976 11.8692 -1635 40 51 81
-63.8924 11.8396 -1631 42 53 83
-60.5036 11.8099 -1627 40 51 81
-57.1313 11.7803 -1623 42 53 83
-53.9081 11.7798 -1623 45 56 87
-50.6229 11.7647 -1621 41 52 84
-47.3753 11.757 -1620 36 47 77
-44.132 11.7493 -1619 38 49 79
-40.8931 11.7416 -1618 40 51 81
-37.6585 11.734 -1617 39 50 79
-34.4707 11.7409 -1618 37 48 76
-31.2599 11.7406 -1618 36 47 75
-28.0147 11.7258 -1616 39 50 78
-24.747 11.6965 -1612 41 52 80
-21.4953 11.6672 -1608 37 48 76
-18.2824 11.6525 -1606 38 49 77
-15.0871 11.6451 -1605 39 50 78
-11.9032 11.645 -1605 39 50 78
-8.71938 11.6449 -1605 36 47 77
-5.54946 11.6738 -1609 41 51 78
-2.35931 11.6811 -1610 42 51 77
0.835296 11.6956 -1612 39 48 74
4.03284 11.6956 -1612 41 49 74
7.2394 11.7101 -1614 39 47 71
10.441 11.7102 -1614 35 40 65
13.6342 11.7031 -1613 36 40 64
16.8445 11.7105 -1614 35 39 60
20.0464 11.7107 -1614 32 37 57
23.2341 11.7036 -1613 32 38 58
26.4016 11.6894 -1611 36 42 64
29.5431 11.6679 -1608 39 45 67
32.6525 11.6392 -1604 43 49 72
35.7686 11.6177 -1601 47 52 76
38.8488 11.5891 -1597 49 54 79
42.0186 11.5895 -1597 46 54 78
45.1605 11.5826 -1596 44 52 77
48.2988 11.5758 -1595 44 52 77
51.4335 11.5691 -1594 48 56 80
54.5989 11.5696 -1594 49 57 81
57.8009 11.5774 -1595 47 54 83
61.0456 11.5925 -1597 48 56 86
64.4999 11.6439 -1604 49 58 88
68.2356 11.7389 -1617 51 64 97
72.8189 11.9647 -1648 55 68 101
76.741 12.0671 -1662 48 63 95
81.1529 12.2348 -1685 43 58 92
85.0553 12.3155 -1696 42 58 92
88.8455 12.3745 -1704 42 59 95
92.5599 12.4189 -1710 45 62 100
96.5796 12.4998 -1721 47 65 103
100.353 12.5443 -1727 52 72 112
104.392 12.6179 -1737 55 74 113
108.347 12.6771 -1745 54 73 108
111.887 12.6854 -1746 50 69 106
114.902 12.6357 -1739 54 72 108
-117.951 9.02483 -1709 76 79 102
-114.746 9.03984 -1712 63 68 95
-110.555 8.97568 -1700 59 66 97
-106.412 8.91155 -1688 53 62 93
-102.379 8.85273 -1677 48 61 94
-98.4501 8.79923 -1667 46 57 90
-94.7327 8.76159 -1660 42 53 86
-91.1541 8.73454 -1655 40 51 83
-87.5431 8.70224 -1649 34 45 76
-84.212 8.69635 -1648 32 43 73
-80.7384 8.67466 -1644 33 45 71
-77.4698 8.67409 -1644 36 48 73
-74.1115 8.663 -1642 37 48 76
-70.8049 8.65721 -1641 37 48 76
-67.3793 8.63562 -1637 38 49 79
-64.0094 8.61932 -1634 42 53 83
-60.6147 8.59778 -1630 41 52 82
-57.2012 8.57098 -1625 40 51 81
-54.0073 8.57586 -1626 42 53 84
-50.685 8.55967 -1623 42 53 85
-47.4334 8.55404 -1622 40 51 81
-44.1589 8.54317 -1620 39 50 80
-40.9686 8.54814 -1621 37 48 78
-37.7047 8.53731 -1619 39 50 80
-34.4917 8.53706 -1619 41 52 82
-31.279 8.53682 -1619 41 52 80
-28.0492 8.53134 -1618 42 53 81
-24.7621 8.50479 -1613 41 52 80
-21.5085 8.48353 -1609 38 49 77
-18.2823 8.46757 -1606 37 48 76
-15.0869 8.46218 -1605 38 49 77
-11.9031 8.46208 -1605 36 47 75
-8.72474 8.46728 -1606 37 48 77
-5.54941 8.48305 -1609 40 49 76
-2.36223 8.49884 -1612 40 49 75
0.835807 8.5041 -1613 40 49 75
4.04032 8.51467 -1615 39 47 73
7.24831 8.51998 -1616 35 43 67
10.4474 8.51477 -1615 32 37 62
13.651 8.51486 -1615 34 38 62
16.8652 8.52024 -1616 35 39 60
20.0587 8.5151 -1615 33 38 59
23.2483 8.50998 -1614 34 40 60
26.4014 8.49434 -1611 39 45 67
29.5244 8.47345 -1607 40 46 69
32.6115 8.44731 -1602 44 49 74
35.7236 8.43173 -1599 47 52 77
38.8241 8.41618 -1596 47 52 77
41.9919 8.41647 -1596 44 52 76
45.1035 8.40624 -1594 45 53 77
48.2984 8.41184 -1595 45 53 79
51.433 8.40692 -1594 48 56 80
54.5641 8.40203 -1593 47 55 79
57.8004 8.41298 -1595 47 54 83
61.0833 8.42923 -1598 49 57 86
64.5395 8.4666 -1605 51 60 90
68.1928 8.5251 -1616 52 65 98
72.1113 8.61002 -1632 56 70 103
76.7866 8.7741 -1663 50 65 97
81.2485 8.9013 -1687 47 62 96
85.0044 8.9441 -1695 48 63 97
88.8447 8.99221 -1704 44 61 97
92.4509 9.01397 -1708 47 64 101
96.4666 9.0727 -1719 50 68 106
100.236 9.10507 -1725 53 72 112
104.391 9.16914 -1737 54 73 112
108.284 9.20685 -1744 55 73 109
111.886 9.21819 -1746 53 71 107
-118.157 5.64027 -1712 72 75 100
-114.946 5.64964 -1715 60 65 94
-110.749 5.6096 -1703 58 65 96
-106.79 5.57947 -1694 52 61 92
-102.562 5.53289 -1680 47 60 93
-98.5677 5.49622 -1669 47 58 91
-94.7321 5.46615 -1660 41 52 83
-91.0985 5.44598 -1654 38 49 80
-87.5425 5.42912 -1649 34 45 77
-84.0582 5.41556 -1645 33 44 74
-80.7379 5.4119 -1644 33 45 71
-77.2808 5.39838 -1640 38 49 75
-73.9756 5.39475 -1639 38 49 77
-70.7181 5.39443 -1639 39 50 79
-67.3789 5.38754 -1637 41 52 82
-63.9698 5.37408 -1633 43 54 84
-60.6887 5.37051 -1632 41 52 82
-57.3065 5.35708 -1628 41 52 82
-54.007 5.35025 -1626 43 54 85
-50.7471 5.34673 -1625 42 53 85
-47.4916 5.34322 -1624 41 52 82
-44.1859 5.33314 -1621 40 51 81
-40.9684 5.33295 -1621 37 48 78
-37.7278 5.32948 -1620 40 51 81
-34.5128 5.32932 -1620 41 52 82
-31.2788 5.32588 -1619 39 50 78
-28.049 5.32246 -1618 39 50 78
-24.7773 5.30919 -1614 38 49 77
-21.5217 5.29593 -1610 37 48 76
-18.3163 5.29255 -1609 39 50 78
-15.0962 5.2826 -1606 41 52 80
-11.9178 5.28583 -1607 41 52 80
-8.73556 5.28907 -1608 41 52 80
-5.55283 5.29562 -1610 42 52 78
-2.36221 5.30218 -1612 41 50 76
0.836838 5.31205 -1615 41 50 75
4.04279 5.31535 -1616 38 47 71
7.26172 5.32524 -1619 32 40 64
10.4732 5.32528 -1619 30 34 59
13.6848 5.32533 -1619 32 36 60
16.8964 5.3254 -1619 35 39 60
20.0834 5.31891 -1617 34 39 59
23.2626 5.31243 -1615 35 41 61
26.4013 5.29938 -1611 42 48 70
29.5426 5.28964 -1608 46 51 74
32.5909 5.26675 -1601 45 50 75
35.701 5.25703 -1598 45 51 76
38.7996 5.24733 -1595 46 52 77
41.9654 5.24751 -1595 44 52 76
45.1033 5.24442 -1594 46 54 79
48.2678 5.24463 -1594 47 55 81
51.465 5.24814 -1595 47 55 80
54.6323 5.24838 -1595 47 55 80
57.8726 5.25522 -1597 46 53 83
61.1212 5.26206 -1599 49 58 87
64.5794 5.28538 -1606 51 60 90
68.2346 5.32188 -1617 50 63 96
72.6853 5.41436 -1645 55 69 101
77.017 5.49039 -1668 51 66 97
81.3446 5.55988 -1689 50 65 98
85.1544 5.58988 -1698 51 66 100
88.8442 5.61002 -1704 48 65 101
92.3962 5.6203 -1707 49 67 104
96.4099 5.65694 -1718 52 70 108
100.178 5.67714 -1724 52 70 110
104.33 5.71712 -1736 53 71 109
108.222 5.74065 -1743 54 72 108
111.565 5.73455 -1741 56 74 110
114.306 5.69883 -1730 59 76 112
-117.812 2.23339 -1707 68 71 97
-114.611 2.2371 -1710 56 61 91
-110.554 2.22381 -1700 53 60 91
-106.348 2.20661 -1687 53 62 93
-102.439 2.19465 -1678 49 62 94
-98.4492 2.18008 -1667 48 60 91
-94.6748 2.16944 -1659 39 50 81
-91.0432 2.16142 -1653 36 47 78
-87.5953 2.15734 -1650 35 45 76
-84.2113 2.15457 -1648 33 43 73
-80.7868 2.1505 -1645 35 44 72
-77.4691 2.14904 -1644 42 51 79
-74.1559 2.1476 -1643 41 52 80
-70.8043 2.14485 -1641 41 52 81
-67.461 2.14211 -1639 41 52 82
-64.0088 2.13546 -1634 42 53 83
-60.6885 2.13273 -1632 42 53 83
-57.3063 2.12739 -1628 43 54 84
-53.9736 2.12337 -1625 44 55 85
-50.6845 2.12066 -1623 42 53 85
-47.433 2.11927 -1622 43 54 84
-44.1858 2.11788 -1621 41 52 82
-40.9935 2.11911 -1622 38 49 79
-37.751 2.11773 -1621 39 50 80
-34.5127 2.11636 -1620 40 51 81
-31.298 2.1163 -1620 40 51 79
-28.0489 2.11363 -1618 39 50 78
-24.7926 2.10966 -1615 38 49 77
-21.5484 2.1057 -1612 39 50 78
-18.339 2.10436 -1611 40 51 79
-15.1244 2.10171 -1609 40 51 79
-11.9252 2.10038 -1608 41 52 80
-8.74639 2.10298 -1610 42 53 81
-5.55971 2.10558 -1612 43 52 79
-2.36514 2.10818 -1614 42 51 77
0.837871 2.1121 -1617 43 52 76
4.05029 2.11472 -1619 37 46 69
7.27067 2.11734 -1621 31 39 61
10.4926 2.11866 -1622 30 34 59
13.7101 2.11868 -1622 30 34 59
16.9277 2.11871 -1622 34 38 59
20.133 2.11744 -1621 35 40 60
23.3057 2.11356 -1618 36 42 62
26.4503 2.10838 -1614 42 48 70
29.5609 2.1019 -1609 47 52 75
32.5908 2.09151 -1601 41 46 71
35.7009 2.08765 -1598 40 47 71
38.7751 2.08249 -1594 42 50 74
41.9126 2.08126 -1593 42 50 74
45.0465 2.08003 -1592 45 53 78
48.2071 2.08012 -1592 47 55 81
51.368 2.08021 -1592 48 56 82
54.5294 2.08031 -1592 47 54 81
57.7637 2.08302 -1594 44 51 82
61.0064 2.08575 -1596 48 56 87
64.5792 2.09893 -1606 51 60 90
68.0234 2.10689 -1612 49 62 95
72.2432 2.13708 -1635 55 69 101
76.6935 2.1712 -1661 53 68 99
81.1515 2.20272 -1685 51 66 99
85.1539 2.21987 -1698 50 65 99
88.8439 2.22787 -1704 48 65 101
92.396 2.23196 -1707 48 65 102
96.2974 2.2439 -1716 50 68 105
100.119 2.25323 -1723 57 75 113
104.21 2.26781 -1734 54 72 109
108.097 2.27715 -1741 54 72 107
111.244 2.27081 -1736 58 76 111
-120.149 -1.14694 -1692 81 82 102
-117.881 -1.15769 -1708 68 71 99
-114.678 -1.15963 -1711 61 66 97
-110.489 -1.1514 -1699 53 60 91
-106.348 -1.14318 -1687 51 60 91
-101.951 -1.13157 -1670 47 61 92
-98.3311 -1.1281 -1665 46 58 88
-94.6747 -1.12396 -1659 35 46 76
-90.988 -1.11914 -1652 34 44 74
-87.5953 -1.11771 -1650 34 44 74
-84.2112 -1.11629 -1648 33 42 72
-80.8849 -1.11554 -1647 35 44 73
-77.5162 -1.11412 -1645 43 52 80
-74.201 -1.11338 -1644 42 53 81
-70.8474 -1.11197 -1642 42 53 82
