ply
format ascii 1.0
comment Created by Open3D
element vertex 1335
property double x
property double y
property double z
property uchar red
property uchar green
property uchar blue
end_header
-261.864 -401.66 -1608 169 196 231
-258.201 -401.071 -1606 170 200 239
-254.389 -400.233 -1603 170 201 240
-250.592 -399.397 -1600 166 198 237
-246.501 -398.064 -1595 158 194 235
-242.737 -397.231 -1592 146 184 228
-239.289 -396.898 -1591 136 172 214
-235.402 -395.819 -1587 126 161 203
-232.265 -395.988 -1588 123 157 201
-228.549 -395.161 -1585 129 160 207
-225.273 -395.083 -1585 138 169 216
-221.58 -394.258 -1582 141 174 223
-218.314 -394.183 -1582 144 179 226
-214.779 -393.61 -1580 159 194 240
-211.521 -393.537 -1580 165 202 252
-208.266 -393.465 -1580 164 201 252
-204.882 -393.145 -1579 159 196 248
-201.504 -392.826 -1578 156 194 242
-198.509 -393.256 -1580 159 197 244
-195.26 -393.188 -1580 159 197 244
-192.134 -393.371 -1581 161 199 246
-189.006 -393.554 -1582 161 199 246
-185.758 -393.49 -1582 160 197 247
-182.396 -393.179 -1581 161 198 248
-179.154 -393.117 -1581 161 198 248
-176.023 -393.304 -1582 155 192 240
-172.782 -393.245 -1582 141 179 226
-169.863 -393.932 -1585 135 173 220
-166.828 -394.371 -1587 134 172 219
-163.58 -394.315 -1587 132 170 217
-160.636 -395.005 -1590 135 170 218
-157.484 -395.199 -1591 150 185 232
-154.426 -395.643 -1593 153 188 234
-151.266 -395.839 -1594 155 190 236
-148.196 -396.285 -1596 165 200 246
-144.938 -396.235 -1596 176 210 253
-141.77 -396.434 -1597 181 215 255
-138.685 -396.883 -1599 183 217 255
-135.594 -397.332 -1601 185 219 255
-132.578 -398.031 -1604 184 217 255
-129.309 -397.987 -1604 180 212 255
-126.277 -398.687 -1607 176 208 252
-123.004 -398.645 -1607 176 208 252
-119.956 -399.348 -1610 178 208 253
-116.824 -399.804 -1612 178 208 252
-113.755 -400.508 -1615 179 209 252
-110.607 -400.966 -1617 180 210 252
-107.451 -401.425 -1619 182 211 253
-104.288 -401.885 -1621 186 212 254
-101.181 -402.594 -1624 189 215 255
-98.0616 -403.303 -1627 191 217 255
-95.0476 -404.51 -1632 193 217 255
-91.9017 -405.222 -1635 196 220 255
-88.7986 -406.183 -1639 200 224 255
-85.5234 -406.401 -1640 199 224 255
-82.4455 -407.611 -1645 199 223 255
-79.0594 -407.336 -1644 194 215 250
-290.579 -408.376 -1618 175 194 219
-288.261 -409.789 -1624 159 178 204
-285.394 -410.446 -1627 150 169 195
-281.998 -410.347 -1627 145 168 194
-278.261 -409.745 -1625 143 167 193
-275.042 -409.9 -1626 152 178 204
-270.987 -408.797 -1622 161 189 217
-266.455 -406.939 -1615 166 193 223
-262.606 -406.091 -1612 171 197 231
-258.933 -405.497 -1610 176 206 244
-255.271 -404.904 -1608 175 206 245
-250.836 -403.053 -1601 166 198 236
-246.895 -401.959 -1597 157 192 233
-243.126 -401.119 -1594 148 186 229
-239.522 -400.532 -1592 134 170 212
-235.632 -399.444 -1588 128 164 206
-232.199 -399.111 -1587 132 166 210
-228.627 -398.528 -1585 140 172 218
-224.924 -397.695 -1582 143 174 221
-221.516 -397.366 -1581 143 177 225
-218.113 -397.039 -1580 148 183 230
-214.717 -396.713 -1579 160 195 241
-211.46 -396.639 -1579 162 199 249
-207.942 -396.064 -1577 163 200 250
-204.693 -395.993 -1577 159 196 248
-201.701 -396.425 -1579 157 194 244
-198.577 -396.606 -1580 156 193 242
-195.451 -396.789 -1581 160 198 245
-192.444 -397.224 -1583 162 200 247
-189.191 -397.158 -1583 161 199 246
-185.94 -397.094 -1583 161 198 248
-182.574 -396.779 -1582 164 201 251
-179.102 -396.215 -1580 167 204 254
-175.973 -396.405 -1581 162 199 248
-172.841 -396.595 -1582 149 186 235
-169.814 -397.037 -1584 141 179 226
-166.885 -397.731 -1587 139 177 224
-163.739 -397.925 -1588 140 178 225
-160.692 -398.37 -1590 138 174 222
-157.439 -398.316 -1590 149 185 232
-154.382 -398.763 -1592 153 189 235
-151.223 -398.961 -1593 150 185 231
-148.247 -399.661 -1596 156 191 235
-145.078 -399.861 -1597 164 198 243
-141.907 -400.061 -1598 169 202 246
-138.646 -400.013 -1598 171 204 247
-135.725 -400.967 -1602 175 209 252
-132.623 -401.422 -1604 176 210 253
-129.353 -401.377 -1604 174 207 252
-126.241 -401.833 -1606 171 203 248
-123.123 -402.291 -1608 170 202 246
-119.922 -402.499 -1609 168 199 244
-116.936 -403.459 -1613 166 196 240
-113.794 -403.92 -1615 167 197 240
-110.576 -404.132 -1616 170 200 242
-107.355 -404.344 -1617 176 205 247
-104.26 -405.058 -1620 181 207 250
-101.091 -405.523 -1622 183 209 252
-98.0347 -406.489 -1626 185 211 254
-95.08 -407.956 -1632 192 214 255
-91.933 -408.674 -1635 194 217 255
-88.8288 -409.642 -1639 196 220 255
-85.6569 -410.362 -1642 195 221 255
-82.3733 -410.583 -1643 197 222 255
-79.1344 -411.055 -1645 193 215 249
-290.681 -411.831 -1618 172 191 215
-288.362 -413.256 -1624 159 177 201
-286.021 -414.682 -1630 151 169 193
-282.097 -413.819 -1627 145 168 193
-278.53 -413.466 -1626 143 167 192
-274.631 -412.605 -1623 152 178 204
-270.747 -411.747 -1620 162 190 218
-267.208 -411.398 -1619 167 194 223
-262.861 -409.781 -1613 173 198 230
-259.507 -409.689 -1613 174 203 240
-255.201 -408.075 -1607 171 202 241
-251.393 -407.224 -1604 164 196 233
-247.291 -405.868 -1599 156 191 230
-243.059 -404.259 -1593 146 183 226
-239.455 -403.667 -1591 137 173 216
-235.862 -403.076 -1589 131 166 210
-232.572 -402.994 -1589 133 167 211
-228.707 -401.899 -1585 137 169 215
-225.429 -401.82 -1585 139 170 217
-221.873 -401.235 -1583 144 178 226
-218.465 -400.904 -1582 153 188 235
-214.792 -400.068 -1579 161 196 243
-211.534 -399.994 -1579 163 200 250
-208.146 -399.667 -1578 162 199 250
-204.894 -399.595 -1578 158 195 247
-201.771 -399.778 -1579 156 193 244
-198.646 -399.961 -1580 155 192 242
-195.519 -400.145 -1581 158 196 243
-192.51 -400.584 -1583 160 198 245
-189.256 -400.517 -1583 161 199 246
-186.004 -400.452 -1583 161 198 248
-182.753 -400.388 -1583 161 198 248
-179.391 -400.072 -1582 162 199 249
-176.034 -399.757 -1581 162 200 250
-173.01 -400.202 -1583 160 198 247
-169.872 -400.395 -1584 153 190 238
-166.837 -400.842 -1586 144 182 229
-163.796 -401.29 -1588 141 179 226
-160.545 -401.234 -1588 137 175 222
-157.593 -401.936 -1591 147 185 231
-154.532 -402.387 -1593 154 192 238
-151.37 -402.587 -1594 154 190 234
-148.391 -403.293 -1597 155 190 234
-145.31 -403.747 -1599 156 190 236
-142.134 -403.949 -1600 157 189 235
-138.78 -403.648 -1599 158 189 234
-135.772 -404.358 -1602 159 193 237
-132.586 -404.564 -1603 165 199 244
-129.398 -404.771 -1604 167 201 247
-126.206 -404.979 -1605 168 200 245
-123.165 -405.692 -1608 168 200 244
-120.038 -406.155 -1610 166 197 242
-116.904 -406.618 -1612 164 195 239
-113.692 -406.831 -1613 163 193 237
-110.546 -407.296 -1615 166 196 238
-107.392 -407.763 -1617 174 203 245
-104.296 -408.483 -1620 179 206 249
-101.125 -408.952 -1622 179 205 249
-98.0685 -409.926 -1626 181 206 250
-95.1127 -411.405 -1632 190 212 255
-91.9647 -412.129 -1635 192 215 255
-88.9136 -413.358 -1640 192 217 255
-85.6342 -413.58 -1641 193 220 255
-82.4518 -414.307 -1644 196 221 254
-79.0173 -413.775 -1642 194 216 248
-291.503 -416.317 -1622 172 191 215
-289.175 -417.754 -1628 159 177 200
-286.473 -418.678 -1632 151 169 192
-283.064 -418.577 -1632 147 170 195
-279.313 -417.964 -1630 146 170 195
-275.574 -417.352 -1628 159 185 211
-271.512 -416.23 -1624 169 195 223
-267.963 -415.878 -1623 171 197 226
-263.769 -414.503 -1618 172 197 228
-259.92 -413.642 -1615 170 199 234
-255.291 -411.502 -1607 167 198 236
-251.325 -410.388 -1603 159 191 228
-247.533 -409.532 -1600 155 189 227
-243.602 -408.421 -1596 146 183 224
-240.142 -408.08 -1595 142 178 220
-236.539 -407.484 -1593 140 175 217
-232.947 -406.89 -1591 137 171 215
-229.221 -406.041 -1588 132 163 210
-225.651 -405.449 -1586 135 166 213
-222.091 -404.859 -1584 145 179 225
-218.404 -404.015 -1581 155 189 236
-215.003 -403.683 -1580 160 195 243
-211.608 -403.352 -1579 163 200 250
-208.483 -403.534 -1580 162 199 249
-205.225 -403.461 -1580 158 195 247
-202.098 -403.645 -1581 157 194 244
-199.219 -404.34 -1584 155 192 242
-196.082 -404.526 -1585 157 195 242
-192.821 -404.457 -1585 157 195 241
-189.442 -404.135 -1584 158 196 241
-186.304 -404.324 -1585 157 195 243
-182.817 -403.749 -1583 156 194 242
-179.567 -403.685 -1583 158 195 245
-176.206 -403.368 -1582 160 199 248
-173.18 -403.817 -1584 157 197 246
-169.932 -403.756 -1584 148 185 235
-167.001 -404.462 -1587 142 180 228
-163.75 -404.404 -1587 142 180 227
-160.601 -404.602 -1588 141 179 226
-157.449 -404.801 -1589 146 184 230
-154.392 -405.256 -1591 155 193 239
-151.233 -405.457 -1592 157 192 238
-148.257 -406.169 -1595 157 192 237
-145.179 -406.626 -1597 157 191 237
-142.005 -406.831 -1598 159 191 238
-138.829 -407.036 -1599 163 194 241
-135.734 -407.497 -1601 163 197 242
-132.467 -407.45 -1601 165 199 245
-129.362 -407.914 -1603 167 201 247
-126.172 -408.123 -1604 169 202 246
-123.131 -408.843 -1607 171 203 247
-119.931 -409.055 -1608 170 201 247
-116.945 -410.031 -1612 167 197 243
-113.661 -409.991 -1612 164 194 239
-110.516 -410.46 -1614 167 197 240
-107.363 -410.931 -1616 175 204 247
-104.267 -411.657 -1619 179 206 249
-101.098 -412.13 -1621 179 205 249
-98.1026 -413.366 -1626 181 207 251
-95.0292 -414.349 -1630 188 212 254
-91.9966 -415.587 -1635 190 215 255
-88.836 -416.319 -1638 190 216 255
-85.7684 -417.559 -1643 194 221 254
-82.4804 -417.784 -1644 196 221 254
-79.1891 -418.01 -1645 195 218 248
-292.506 -421.082 -1627 169 187 211
-289.456 -421.495 -1629 158 176 199
-286.575 -422.169 -1632 153 170 192
-283.338 -422.325 -1633 148 171 196
-279.242 -421.19 -1629 153 177 202
-275.673 -420.832 -1628 170 194 221
-271.608 -419.7 -1624 177 202 230
-267.398 -418.312 -1619 180 204 233
-263.374 -417.184 -1615 180 205 234
-259.69 -416.574 -1613 173 201 235
-255.7 -415.449 -1609 167 197 234
-251.101 -413.293 -1601 158 190 227
-247.62 -412.946 -1600 153 187 225
-243.841 -412.084 -1597 148 184 224
-240.528 -411.998 -1597 143 179 219
-236.92 -411.397 -1595 137 173 214
-233.762 -411.571 -1596 136 170 213
-229.879 -410.457 -1592 137 169 215
-226.3 -409.86 -1590 142 173 220
-222.591 -409.007 -1587 148 182 228
-218.62 -407.64 -1582 157 191 238
-215.215 -407.305 -1581 162 197 245
-211.817 -406.972 -1580 167 203 253
-208.556 -406.897 -1580 165 201 252
-205.428 -407.081 -1581 159 196 248
-202.425 -407.524 -1583 156 193 243
-199.415 -407.967 -1585 157 194 244
-196.151 -407.897 -1585 154 192 239
-193.011 -408.085 -1586 153 191 237
-189.629 -407.76 -1585 153 191 236
-186.37 -407.693 -1585 152 190 237
-182.997 -407.371 -1584 152 190 238
-179.63 -407.05 -1583 156 193 243
-176.269 -406.729 -1582 159 198 246
-173.241 -407.182 -1584 157 197 245
-169.992 -407.121 -1584 148 185 234
-166.849 -407.318 -1585 141 178 227
-163.704 -407.517 -1586 138 175 224
-160.455 -407.46 -1586 140 177 226
-157.307 -407.66 -1587 144 181 230
-154.349 -408.376 -1590 156 193 243
-151.286 -408.835 -1592 160 196 243
-148.309 -409.553 -1595 163 198 244
-145.321 -410.271 -1598 165 199 245
-142.055 -410.221 -1598 165 198 244
-138.878 -410.428 -1599 166 199 245
-135.867 -411.149 -1602 168 202 247
-132.513 -410.845 -1601 169 203 249
-129.327 -411.056 -1602 171 205 251
-126.294 -411.78 -1605 173 207 252
-123.174 -412.25 -1607 175 208 253
-119.898 -412.207 -1607 176 207 255
-116.913 -413.191 -1611 172 203 250
-113.772 -413.663 -1613 169 199 245
-110.623 -414.137 -1615 171 201 245
-107.467 -414.611 -1617 177 206 250
-104.368 -415.343 -1620 179 207 252
-101.258 -416.076 -1623 181 207 251
-98.137 -416.81 -1626 185 210 254
-95.1791 -418.314 -1632 187 211 253
-91.9725 -418.794 -1634 189 215 255
-88.9756 -420.3 -1640 189 216 255
-85.7984 -421.038 -1643 195 222 254
-82.6097 -421.777 -1646 199 225 255
-79.265 -421.748 -1646 198 221 251
-76.0132 -422.234 -1648 174 194 224
-293.33 -425.612 -1631 168 186 210
-290.093 -425.767 -1632 158 175 198
-287.205 -426.445 -1635 155 171 193
-283.787 -426.342 -1635 152 174 199
-280.028 -425.719 -1633 157 179 205
-276.11 -424.837 -1630 171 194 220
-272.208 -423.956 -1627 179 205 231
-268.155 -422.816 -1623 189 215 241
-263.794 -421.157 -1617 191 214 243
-259.3 -419.24 -1610 180 206 240
-255.633 -418.627 -1608 169 197 235
-251.191 -416.714 -1601 158 189 226
-247.709 -416.363 -1600 150 182 221
-244.234 -416.015 -1599 141 177 217
-240.915 -415.927 -1599 132 168 208
-237.302 -415.321 -1597 129 165 205
-233.992 -415.237 -1597 134 168 210
-229.673 -413.334 -1590 139 172 217
-226.096 -412.732 -1588 147 178 225
-222.39 -411.872 -1585 147 181 227
-218.559 -410.753 -1581 155 189 236
-215.292 -410.676 -1581 163 198 246
-212.161 -410.859 -1582 168 203 253
-208.895 -410.783 -1582 168 204 254
-205.761 -410.969 -1583 161 198 250
-202.881 -411.674 -1586 154 191 242
-199.486 -411.343 -1585 155 192 242
-196.221 -411.272 -1585 155 193 240
-193.08 -411.462 -1586 153 191 237
-189.577 -410.875 -1584 154 192 237
-186.319 -410.807 -1584 154 192 239
-183.178 -411.001 -1585 156 193 241
-179.694 -410.417 -1583 159 196 246
-176.22 -409.835 -1581 158 198 245
-173.412 -410.81 -1585 155 195 242
-170.052 -410.489 -1584 146 184 231
-166.908 -410.688 -1585 136 174 222
-163.659 -410.629 -1585 127 164 214
-160.613 -411.089 -1587 130 167 217
-157.263 -410.774 -1586 137 174 224
-154.307 -411.495 -1589 154 191 241
-151.15 -411.7 -1590 163 199 246
-148.269 -412.682 -1594 166 201 247
-145.282 -413.406 -1597 168 202 248
-141.928 -413.097 -1596 165 199 245
-138.84 -413.564 -1598 163 197 243
-135.915 -414.551 -1602 169 203 248
-132.726 -414.761 -1603 171 205 250
-129.615 -415.232 -1605 171 205 251
-126.418 -415.445 -1606 173 207 253
-123.371 -416.177 -1609 174 208 254
-120.015 -415.875 -1608 176 207 255
-116.954 -416.609 -1611 176 206 254
-113.741 -416.827 -1612 176 206 253
-110.731 -417.821 -1616 175 205 250
-107.439 -417.782 -1616 177 207 252
-104.405 -418.779 -1620 180 208 253
-101.232 -419.259 -1622 184 210 254
-98.1716 -420.258 -1626 189 215 255
-95.0377 -420.999 -1629 191 215 255
-92.005 -422.258 -1634 193 219 255
-88.8985 -423.259 -1638 195 222 255
-85.8287 -424.52 -1643 199 227 255
-82.6389 -425.265 -1646 202 228 255
-79.3411 -425.495 -1647 202 225 253
-292.537 -427.795 -1626 168 184 208
-289.665 -428.478 -1629 159 175 198
-286.783 -429.162 -1632 156 172 193
-283.369 -429.058 -1632 153 175 199
-279.958 -428.955 -1632 160 182 206
-275.702 -427.54 -1627 172 195 221
-271.804 -426.652 -1624 182 205 232
-267.425 -424.978 -1618 192 215 242
-263.564 -424.093 -1615 191 214 243
-259.394 -422.685 -1610 182 207 241
-255.407 -421.542 -1606 167 195 233
-251.752 -420.925 -1604 156 187 224
-248.263 -420.572 -1603 145 177 215
-244.475 -419.695 -1600 132 168 208
-241.455 -420.132 -1602 128 164 204
-237.834 -419.521 -1600 128 163 204
-234.516 -419.435 -1600 128 162 204
-230.333 -417.778 -1594 130 162 207
-226.605 -416.909 -1591 139 170 217
-222.61 -415.518 -1586 147 181 227
-218.915 -414.652 -1583 156 190 237
-215.37 -414.05 -1581 163 197 245
-212.371 -414.496 -1583 169 204 253
-209.366 -414.943 -1585 171 206 255
-206.225 -415.13 -1586 165 201 252
-202.953 -415.056 -1586 157 193 244
-199.81 -415.245 -1587 154 191 241
-196.415 -414.912 -1586 156 194 241
-193.149 -414.842 -1586 156 194 240
-189.764 -414.511 -1585 158 196 241
-186.503 -414.443 -1585 161 199 245
-183.128 -414.115 -1584 161 199 246
-179.872 -414.05 -1584 161 198 248
-176.617 -413.986 -1584 159 198 246
-173.474 -414.184 -1585 158 198 245
-170.328 -414.384 -1586 151 191 238
-167.074 -414.323 -1586 143 182 230
-163.718 -414.002 -1585 130 167 217
-160.569 -414.205 -1586 128 165 215
-157.32 -414.148 -1586 130 167 217
-154.265 -414.614 -1588 148 185 235
-151.204 -415.081 -1590 162 197 245
-148.229 -415.811 -1593 165 200 248
-145.243 -416.541 -1596 166 200 246
-141.979 -416.489 -1596 165 199 245
-138.803 -416.7 -1597 162 196 242
-135.878 -417.694 -1601 168 202 247
-132.607 -417.646 -1601 171 205 250
-129.499 -418.121 -1603 172 206 252
-126.463 -418.857 -1606 174 208 254
-123.339 -419.334 -1608 176 210 255
-119.983 -419.03 -1607 176 207 255
-117.141 -420.552 -1613 178 208 255
-113.923 -420.771 -1614 179 209 255
-110.77 -421.252 -1616 177 208 253
-107.61 -421.734 -1618 176 207 251
-104.507 -422.478 -1621 179 207 252
-101.33 -422.963 -1623 184 211 255
-98.267 -423.969 -1627 190 216 255
-95.1883 -424.977 -1631 192 216 255
-92.0378 -425.725 -1634 194 220 255
-88.9302 -426.735 -1638 196 223 255
-85.8592 -428.006 -1643 197 226 255
-82.6682 -428.758 -1646 199 226 255
-79.2729 -428.468 -1645 202 225 255
-76.1132 -429.482 -1649 184 203 233
-289.949 -432.24 -1630 159 175 197
-287.063 -432.929 -1633 162 178 198
-283.646 -432.824 -1633 162 183 206
-280.404 -432.985 -1634 169 191 214
-275.972 -431.294 -1628 179 202 227
-272.071 -430.398 -1625 187 210 236
-267.523 -428.445 -1618 189 212 239
-263.17 -426.76 -1612 187 210 238
-258.844 -425.076 -1606 181 207 240
-255.023 -424.188 -1603 168 196 234
-251.373 -423.566 -1601 156 187 224
-248.044 -423.474 -1601 141 174 212
-244.411 -422.855 -1599 130 166 206
-241.09 -422.766 -1599 125 161 201
-237.474 -422.15 -1597 125 160 201
-234.015 -421.8 -1596 129 163 205
-229.839 -420.129 -1590 133 165 209
-226.545 -420.046 -1590 141 172 219
-222.551 -418.643 -1585 148 182 228
-219.132 -418.299 -1584 157 191 238
-215.584 -417.691 -1582 164 198 246
-212.448 -417.877 -1583 168 203 252
-209.442 -418.328 -1585 168 203 253
-206.3 -418.517 -1586 165 200 252
-203.155 -418.706 -1587 161 197 248
-199.882 -418.632 -1587 155 192 242
-196.363 -418.033 -1585 153 191 238
-192.975 -417.698 -1584 156 194 240
-189.833 -417.892 -1585 158 196 241
-186.453 -417.56 -1584 161 199 246
-183.31 -417.757 -1585 161 199 246
-180.164 -417.954 -1586 161 198 248
-176.793 -417.626 -1585 159 198 247
-173.646 -417.826 -1586 161 201 249
-170.497 -418.027 -1587 157 197 245
-167.345 -418.229 -1588 151 190 239
-163.983 -417.905 -1587 141 178 228
-160.729 -417.846 -1587 138 177 225
-157.277 -417.262 -1585 129 168 216
-154.321 -417.995 -1588 140 179 228
-151.068 -417.94 -1588 158 194 241
-148.003 -418.412 -1590 165 200 247
-145.113 -419.412 -1594 167 201 247
-141.941 -419.623 -1595 167 201 247
-138.94 -420.361 -1598 165 199 246
-136.097 -421.627 -1603 162 197 244
-132.738 -421.315 -1602 165 200 247
-129.627 -421.794 -1604 168 202 249
-126.509 -422.273 -1606 169 203 249
-123.383 -422.754 -1608 170 204 250
-120.026 -422.447 -1607 174 205 254
-117.111 -423.718 -1612 176 207 254
-114.035 -424.465 -1615 178 208 254
-110.878 -424.95 -1617 176 208 252
-107.582 -424.911 -1617 175 206 251
-104.544 -425.923 -1621 177 205 250
-101.304 -426.149 -1622 181 207 252
-98.1815 -426.901 -1625 185 211 255
-95.1641 -428.18 -1630 189 213 255
-92.0145 -428.934 -1633 191 217 255
-88.9078 -429.952 -1637 192 219 255
-85.8378 -431.233 -1642 194 223 255
-82.698 -432.254 -1646 197 225 255
-79.4461 -432.75 -1648 203 227 255
-76.1406 -432.984 -1649 190 210 239
-290.59 -436.544 -1633 167 183 204
-287.521 -436.972 -1635 171 187 207
-283.751 -436.331 -1633 173 194 217
-280.335 -436.227 -1633 177 199 222
-275.565 -433.987 -1625 183 206 231
-271.669 -433.085 -1622 190 213 239
-267.125 -431.116 -1615 187 210 237
-262.614 -429.15 -1608 181 204 231
-258.939 -428.52 -1606 177 202 234
-255.594 -428.425 -1606 166 194 231
-251.78 -427.531 -1603 153 184 220
-248.29 -427.172 -1602 137 168 206
-244.807 -426.814 -1601 129 163 204
-241.028 -425.925 -1598 130 163 204
-237.413 -425.304 -1596 130 163 204
-233.807 -424.684 -1594 132 166 208
-230.068 -423.8 -1591 132 165 208
-226.628 -423.449 -1590 137 169 213
-223.054 -422.833 -1588 148 183 229
-219.213 -421.687 -1584 158 192 238
-215.799 -421.341 -1583 159 193 241
-212.526 -421.262 -1583 161 196 246
-209.255 -421.185 -1583 159 194 244
-206.115 -421.374 -1584 158 193 245
-203.101 -421.831 -1586 158 194 245
-199.703 -421.492 -1585 154 191 241
-196.434 -421.419 -1585 153 191 238
-193.411 -421.879 -1587 154 192 238
-190.022 -421.543 -1586 154 192 237
-186.756 -421.474 -1586 155 193 240
-183.492 -421.406 -1586 157 195 243
-180.23 -421.339 -1586 160 197 247
-176.857 -421.008 -1585 159 198 247
-173.928 -421.741 -1588 160 200 249
-170.774 -421.943 -1589 156 195 244
-167.406 -421.616 -1588 152 191 240
-164.25 -421.821 -1589 152 189 238
-160.99 -421.761 -1589 152 191 239
-157.632 -421.438 -1588 134 174 221
-154.571 -421.911 -1590 136 175 224
-151.218 -421.59 -1589 157 193 241
-148.243 -422.331 -1592 169 204 250
-145.257 -423.073 -1595 172 206 251
-141.992 -423.021 -1595 172 206 251
-138.903 -423.5 -1597 172 206 252
-136.062 -424.776 -1602 168 203 250
-132.704 -424.462 -1601 166 201 249
-129.431 -424.414 -1601 166 200 247
-126.318 -424.897 -1603 166 200 246
-123.351 -425.912 -1607 167 201 247
-120.219 -426.398 -1609 170 201 250
-117.226 -427.414 -1613 172 203 250
-114.147 -428.167 -1616 175 205 251
-110.987 -428.656 -1618 176 207 252
-107.688 -428.616 -1618 176 207 251
-104.518 -429.107 -1620 178 206 250
-101.278 -429.335 -1621 179 206 251
-98.217 -430.358 -1625 183 209 254
-95.1402 -431.382 -1629 188 212 255
-92.0479 -432.407 -1633 191 217 255
-88.94 -433.433 -1637 193 220 255
-85.8689 -434.725 -1642 193 221 254
-82.7279 -435.754 -1646 197 224 255
-79.4748 -436.253 -1648 204 229 255
-75.9833 -435.431 -1645 191 213 242
-286.396 -438.602 -1628 172 190 211
-283.335 -439.034 -1630 175 193 215
-280.268 -439.468 -1632 180 198 221
-275.838 -437.749 -1626 185 205 230
-272.105 -437.108 -1624 190 212 240
-267.721 -435.392 -1618 184 209 237
-263.365 -433.679 -1612 176 200 228
-259.358 -432.506 -1608 170 196 226
-255.53 -431.603 -1605 159 188 220
-252.187 -431.508 -1605 150 180 212
-248.537 -430.877 -1603 135 166 199
-245.356 -431.054 -1604 128 162 201
-241.57 -430.158 -1601 134 167 208
-237.352 -428.457 -1595 139 172 213
-233.894 -428.101 -1594 137 168 212
-230.008 -426.94 -1590 133 164 208
-226.569 -426.587 -1589 136 167 212
-223.136 -426.235 -1588 150 185 231
-219.571 -425.616 -1586 155 190 236
-216.015 -424.999 -1584 157 192 238
-212.739 -424.919 -1584 160 195 244
-209.464 -424.841 -1584 159 194 244
-206.321 -425.032 -1585 155 190 242
-203.304 -425.493 -1587 156 192 243
-200.029 -425.418 -1587 157 193 243
-196.755 -425.345 -1587 156 194 241
-193.361 -425.004 -1586 155 192 239
-190.092 -424.933 -1586 153 188 234
-186.943 -425.132 -1587 150 188 234
-183.56 -424.795 -1586 154 192 239
-180.41 -424.996 -1587 158 196 243
-177.034 -424.662 -1586 158 195 244
-173.883 -424.865 -1587 159 196 246
-170.729 -425.069 -1588 155 193 243
-167.573 -425.274 -1589 150 187 236
-164.413 -425.481 -1590 154 192 239
-161.252 -425.688 -1591 161 198 247
-157.988 -425.629 -1591 141 178 228
-154.823 -425.839 -1592 136 173 223
-151.369 -425.248 -1590 154 190 239
-148.204 -425.46 -1591 169 204 252
-145.128 -425.941 -1593 175 209 254
-142.044 -426.423 -1595 178 212 255
-138.867 -426.638 -1596 179 213 255
-136.026 -427.924 -1601 177 212 255
-132.835 -428.142 -1602 173 208 254
-129.479 -427.827 -1601 172 206 252
-126.522 -428.848 -1605 173 207 253
-123.396 -429.337 -1607 175 209 254
-120.189 -429.559 -1608 175 206 251
-117.123 -430.317 -1611 175 207 252
-114.118 -431.343 -1615 181 212 255
-110.822 -431.302 -1615 184 214 255
-107.66 -431.795 -1617 183 213 254
-104.492 -432.291 -1619 184 212 254
-101.315 -432.787 -1621 182 208 252
-98.132 -433.284 -1623 185 211 255
-95.1165 -434.583 -1628 188 214 254
-91.9688 -435.35 -1631 191 217 255
-88.9181 -436.651 -1636 193 220 255
-85.7956 -437.687 -1640 195 222 255
-82.7581 -439.257 -1646 199 225 255
-79.4556 -439.494 -1647 205 230 255
-282.746 -441.457 -1626 169 186 209
-279.858 -442.166 -1629 176 192 215
-275.601 -440.704 -1624 181 200 226
-271.704 -439.787 -1621 184 206 234
-267.656 -438.601 -1617 181 205 233
-263.627 -437.416 -1613 171 196 225
-259.455 -435.962 -1608 163 190 220
-256.262 -436.136 -1609 151 180 212
-252.596 -435.498 -1607 142 170 201
-249.406 -435.675 -1608 130 159 191
-246.213 -435.853 -1609 124 157 195
-242.113 -434.407 -1604 128 161 201
-238.184 -433.234 -1600 133 165 206
-234.128 -431.792 -1595 135 165 210
-230.528 -431.163 -1593 137 167 212
-226.796 -430.266 -1590 144 174 219
-223.5 -430.182 -1590 157 191 237
-219.929 -429.558 -1588 159 194 240
-216.369 -428.935 -1586 156 191 237
-212.818 -428.314 -1584 159 194 243
-209.674 -428.505 -1585 159 194 244
-206.528 -428.698 -1586 156 191 242
-203.38 -428.892 -1587 156 192 242
-200.355 -429.357 -1589 155 191 241
-197.2 -429.553 -1590 158 196 243
-193.798 -429.21 -1589 160 197 244
-190.402 -428.868 -1588 160 195 241
-187.012 -428.528 -1587 156 193 240
-183.628 -428.188 -1586 157 195 242
-180.363 -428.121 -1586 160 198 245
-177.1 -428.054 -1586 158 197 245
-173.947 -428.259 -1587 159 199 248
-170.792 -428.464 -1588 158 195 245
-167.635 -428.671 -1589 152 190 239
-164.578 -429.149 -1591 153 191 238
-161.413 -429.358 -1592 161 197 247
-158.146 -429.298 -1592 143 180 230
-155.074 -429.78 -1594 132 169 219
-151.52 -428.914 -1591 147 182 231
-148.352 -429.128 -1592 162 197 245
-144.999 -428.804 -1591 173 207 253
-142.097 -429.828 -1595 178 212 255
-138.831 -429.776 -1595 180 214 255
-135.822 -430.534 -1598 175 210 255
-132.718 -431.023 -1600 168 203 250
-129.527 -431.243 -1601 165 199 245
-126.49 -432.004 -1604 170 204 250
-123.288 -432.227 -1605 173 207 253
-120.233 -432.989 -1608 173 205 249
-117.24 -434.023 -1612 174 206 251
-114.23 -435.057 -1616 179 210 255
-110.932 -435.015 -1616 182 212 254
-107.833 -435.782 -1619 182 211 254
-104.53 -435.743 -1619 184 212 254
-101.478 -436.781 -1623 182 210 253
-98.2891 -437.282 -1625 183 210 253
-95.21 -438.323 -1629 185 212 254
-91.9462 -438.557 -1630 189 216 255
-88.8421 -439.6 -1634 193 220 255
-85.6702 -440.375 -1637 195 222 255
-82.7383 -442.496 -1645 198 224 255
-79.3401 -442.197 -1644 205 230 255
-76.0391 -442.437 -1645 199 224 252
-278.417 -443.213 -1620 173 191 215
-274.687 -442.561 -1618 179 198 224
-271.639 -443.004 -1620 176 197 224
-267.591 -441.808 -1616 173 196 223
-262.909 -439.521 -1608 166 191 220
-258.907 -438.328 -1604 159 185 215
-255.881 -438.778 -1606 147 176 209
-252.534 -438.681 -1606 137 164 197
-249.655 -439.406 -1609 132 159 192
-246 -438.766 -1607 128 160 197
-242.808 -438.946 -1608 133 165 204
-238.423 -436.945 -1601 136 168 209
-234.363 -435.491 -1596 136 166 211
-230.325 -434.039 -1591 138 168 213
-227.167 -434.226 -1592 144 175 220
-223.444 -433.322 -1589 156 191 237
-220.012 -432.966 -1588 159 194 240
-216.586 -432.611 -1587 153 188 234
-212.763 -431.44 -1583 156 191 240
-209.488 -431.36 -1583 159 194 244
-206.215 -431.282 -1583 158 194 244
-203.328 -432.022 -1586 158 194 244
-200.178 -432.218 -1587 156 193 243
-197.15 -432.688 -1589 158 196 242
-193.749 -432.343 -1588 161 199 245
-190.594 -432.543 -1589 166 201 247
-186.965 -431.655 -1586 162 199 246
-183.697 -431.585 -1586 160 198 245
-180.317 -431.245 -1585 161 199 246
-177.166 -431.45 -1586 160 199 247
-173.903 -431.384 -1586 158 198 246
-170.856 -431.863 -1588 156 193 243
-167.592 -431.8 -1588 153 190 239
-164.536 -432.281 -1590 156 194 241
-161.372 -432.492 -1591 163 198 247
-158.006 -432.16 -1590 150 185 235
-154.938 -432.645 -1592 133 170 220
-151.577 -432.316 -1591 140 176 225
-148.408 -432.532 -1592 151 186 234
-145.144 -432.477 -1592 165 200 246
-141.972 -432.694 -1593 173 207 253
-138.796 -432.914 -1594 176 210 255
-135.872 -433.949 -1598 173 207 252
-132.851 -434.713 -1601 166 200 246
-129.575 -434.664 -1601 160 194 240
-126.537 -435.43 -1604 161 195 241
-123.411 -435.926 -1606 167 201 247
-120.353 -436.695 -1609 170 202 246
-117.138 -436.922 -1610 169 200 246
-114.132 -437.964 -1614 170 200 249
-110.904 -438.194 -1615 172 202 247
-107.807 -438.967 -1618 175 204 249
-104.504 -438.927 -1618 178 206 249
-101.391 -439.703 -1621 180 208 251
-98.0837 -439.665 -1621 183 211 254
-95.1285 -441.257 -1627 185 211 254
-91.811 -441.222 -1627 188 214 255
-88.7119 -442.273 -1631 192 219 255
-85.6497 -443.596 -1636 196 223 255
-82.6684 -445.463 -1643 199 226 255
-79.4178 -445.975 -1645 204 229 255
-76.1136 -446.217 -1646 201 226 255
-72.3196 -443.478 -1636 174 198 227
-272.923 -443.017 -1607 179 198 222
-271.239 -445.67 -1617 181 201 227
-267.528 -445.016 -1615 169 191 218
-263.336 -443.536 -1610 162 187 216
-260.136 -443.712 -1611 157 183 212
-256.616 -443.338 -1610 147 176 208
-253.259 -443.241 -1610 139 166 198
-250.681 -444.521 -1615 136 163 195
-247.318 -444.426 -1615 132 163 200
-243.505 -443.507 -1612 127 159 198
-239.109 -441.489 -1605 123 155 196
-235.333 -440.574 -1602 128 158 201
-231.137 -438.835 -1596 136 167 211
-227.396 -437.923 -1593 146 177 222
-223.81 -437.287 -1591 161 195 241
-220.095 -436.378 -1588 162 197 243
-216.532 -435.746 -1586 154 189 235
-212.844 -434.84 -1583 155 190 239
-209.7 -435.034 -1584 160 195 245
-206.163 -434.406 -1582 160 196 246
-203.405 -435.427 -1586 158 195 245
-200.254 -435.625 -1587 158 195 245
-197.348 -436.373 -1590 158 196 242
-193.944 -436.024 -1589 163 200 245
-190.786 -436.225 -1590 168 203 249
-187.035 -435.056 -1586 163 200 247
-183.882 -435.26 -1587 160 198 245
-180.385 -434.643 -1585 160 198 245
-177.233 -434.849 -1586 158 198 245
-173.859 -434.509 -1585 155 195 242
-170.813 -434.992 -1587 152 189 239
-167.549 -434.928 -1587 147 184 233
-164.494 -435.413 -1589 146 184 231
-161.331 -435.626 -1590 154 189 237
-158.165 -435.839 -1591 153 188 236
-154.996 -436.054 -1592 135 172 222
-151.634 -435.722 -1591 137 174 223
-148.37 -435.666 -1591 144 182 229
-145.199 -435.884 -1592 158 193 241
-142.025 -436.103 -1593 167 202 250
-138.761 -436.05 -1593 171 205 253
-135.838 -437.093 -1597 172 206 252
-132.818 -437.864 -1600 170 204 250
-129.624 -438.088 -1601 164 198 244
-126.506 -438.587 -1603 161 195 241
-123.38 -439.087 -1605 165 199 245
-120.323 -439.862 -1608 169 202 246
-117.036 -439.817 -1608 167 200 245
-114.104 -441.141 -1613 167 197 244
-110.946 -441.646 -1615 170 200 245
-107.847 -442.425 -1618 175 205 249
-104.608 -442.658 -1619 179 207 250
-101.428 -443.166 -1621 183 211 253
-98.1809 -443.402 -1622 187 215 255
-95.0472 -444.186 -1625 189 215 255
-91.7325 -444.151 -1625 191 217 255
-88.7452 -445.757 -1631 194 221 255
-85.4723 -445.997 -1632 199 226 255
-82.3469 -447.059 -1636 202 228 255
-79.2543 -448.395 -1641 204 229 255
-75.9108 -448.365 -1641 202 227 255
-72.214 -446.152 -1633 181 205 234
-268.956 -450.722 -1623 174 196 223
-264.746 -449.231 -1618 168 192 220
-261.367 -449.129 -1618 164 189 218
-257.511 -448.197 -1615 154 183 214
-253.828 -447.544 -1613 142 169 201
-250.932 -448.279 -1616 133 160 192
-247.106 -447.351 -1613 125 156 193
-243.598 -446.979 -1612 122 153 192
-239.946 -446.332 -1610 124 156 197
-236.011 -445.132 -1606 130 161 204
-231.805 -443.379 -1600 135 166 209
-227.625 -441.628 -1594 144 176 220
-224.036 -440.987 -1592 162 196 241
-220.318 -440.071 -1589 159 194 239
-216.614 -439.157 -1586 157 192 238
-213.06 -438.521 -1584 156 191 240
-209.78 -438.44 -1584 162 197 247
-206.502 -438.36 -1584 161 198 248
-203.611 -439.112 -1587 159 196 246
-200.33 -439.035 -1587 157 194 244
-197.299 -439.512 -1589 161 198 244
-193.774 -438.884 -1587 165 202 247
-190.498 -438.81 -1587 168 203 249
-186.988 -438.185 -1585 164 201 247
-183.952 -438.667 -1587 159 197 244
-180.453 -438.045 -1585 159 197 244
-177.3 -438.253 -1586 157 196 243
-173.925 -437.91 -1585 155 194 241
-170.878 -438.396 -1587 154 191 240
-167.507 -438.056 -1586 142 179 227
-164.453 -438.545 -1588 136 174 221
-161.291 -438.759 -1589 141 178 225
-158.125 -438.974 -1590 151 187 235
-154.86 -438.914 -1590 142 179 229
-151.596 -438.856 -1590 136 173 222
-148.426 -439.075 -1591 135 172 221
-145.072 -438.743 -1590 143 178 226
-142.168 -439.792 -1594 157 191 239
-138.988 -440.014 -1595 168 202 250
-135.975 -440.79 -1598 172 207 254
-132.868 -441.29 -1600 174 208 255
-129.835 -442.068 -1603 173 207 252
-126.632 -442.295 -1604 172 206 251
-123.504 -442.799 -1606 173 207 252
-120.369 -443.304 -1608 176 209 252
-117.226 -443.81 -1610 175 208 252
-114.076 -444.317 -1612 173 204 250
-110.919 -444.826 -1614 175 206 250
-107.888 -445.887 -1618 181 210 254
-104.648 -446.122 -1619 184 212 254
-101.404 -446.358 -1620 188 216 255
-98.2181 -446.871 -1622 188 216 255
-95.0245 -447.386 -1624 190 216 255
-91.7672 -447.626 -1625 191 218 255
-88.6698 -448.694 -1629 194 221 255
-85.5569 -449.762 -1633 196 223 255
-82.4284 -450.832 -1637 198 225 255
-79.1877 -451.352 -1639 201 228 255
-75.8006 -451.047 -1638 204 229 255
-72.2854 -449.918 -1634 188 213 242
-262.276 -454.022 -1623 161 184 212
-258.568 -453.361 -1621 146 173 205
-254.399 -451.863 -1616 136 163 195
-251.029 -451.765 -1616 135 161 193
-247.508 -451.389 -1615 132 163 200
-244.296 -451.573 -1616 128 159 198
-240.188 -450.082 -1611 131 163 204
-236.102 -448.593 -1606 137 169 211
-231.894 -446.827 -1600 123 155 198
-228.142 -445.9 -1597 126 158 202
-224.122 -444.417 -1592 156 191 235
-220.264 -443.215 -1588 163 199 243
-216.834 -442.851 -1587 158 193 239
-213.142 -441.931 -1584 158 193 241
-209.993 -442.128 -1585 161 196 246
-206.581 -441.769 -1584 160 197 247
-203.56 -442.247 -1586 157 194 244
-200.407 -442.448 -1587 156 193 243
-197.499 -443.208 -1590 156 194 239
-193.97 -442.575 -1588 160 198 243
-190.931 -443.058 -1590 165 200 246
-187.296 -442.149 -1587 162 199 246
-184.022 -442.078 -1587 158 196 243
-180.522 -441.451 -1585 157 195 242
-177.256 -441.382 -1585 157 195 242
-173.991 -441.314 -1585 162 200 247
-170.728 -441.248 -1585 161 199 246
-167.36 -440.905 -1584 150 188 235
-164.413 -441.676 -1587 144 182 229
-161.352 -442.17 -1589 151 189 236
-158.285 -442.665 -1591 159 197 244
-155.114 -442.883 -1592 146 183 233
-151.94 -443.102 -1593 137 174 224
-148.67 -443.044 -1593 132 169 219
-145.31 -442.71 -1592 138 173 221
-142.312 -443.489 -1595 149 184 232
-139.041 -443.435 -1595 162 196 244
-136.027 -444.216 -1598 172 207 254
-132.919 -444.721 -1600 178 213 255
-129.803 -445.226 -1602 181 215 255
-126.602 -445.455 -1603 183 217 255
-123.474 -445.963 -1605 181 215 255
-120.489 -447.027 -1609 185 217 255
-117.343 -447.538 -1611 185 217 255
-114.19 -448.049 -1613 182 213 255
-111.167 -449.117 -1617 183 213 255
-107.862 -449.075 -1617 186 216 255
-104.752 -449.867 -1620 185 214 255
-101.443 -449.828 -1620 185 213 254
-98.2554 -450.345 -1622 187 215 255
-95.0021 -450.586 -1623 187 213 255
-91.8021 -451.105 -1625 188 215 255
-88.5947 -451.626 -1627 191 218 255
-85.537 -452.98 -1632 193 220 255
-82.359 -453.781 -1635 195 222 255
-79.1694 -454.583 -1638 199 226 255
-75.8294 -454.553 -1638 204 230 255
-72.5342 -454.802 -1639 193 218 247
-263.186 -458.939 -1628 156 178 206
-259.467 -458.273 -1626 146 173 205
-254.813 -455.918 -1618 146 172 204
-251.127 -455.256 -1616 151 177 209
-247.911 -455.44 -1617 141 172 209
-243.786 -453.936 -1612 129 160 199
-240.43 -453.841 -1612 118 149 191
-236.782 -453.185 -1610 118 150 192
-232.854 -451.968 -1606 119 151 193
-228.659 -450.189 -1600 136 168 210
-224.632 -448.694 -1595 159 196 239
-220.766 -447.482 -1591 157 195 238
-216.919 -446.272 -1587 153 188 234
-213.359 -445.626 -1585 152 187 236
-209.942 -445.263 -1584 157 192 242
-206.661 -445.181 -1584 159 196 246
-203.383 -445.102 -1584 156 193 243
-200.485 -445.866 -1587 155 192 242
-197.452 -446.351 -1589 158 195 241
-194.168 -446.275 -1589 161 199 244
-190.765 -445.919 -1588 167 202 248
-187.368 -445.565 -1587 163 200 246
-184.094 -445.493 -1587 158 196 241
-180.706 -445.141 -1586 157 195 242
-177.325 -444.791 -1585 158 196 243
-173.949 -444.442 -1584 165 203 250
-170.902 -444.937 -1586 168 206 253
-167.425 -444.31 -1584 160 198 245
-164.476 -445.087 -1587 153 191 238
-161.415 -445.585 -1589 158 196 243
-158.545 -446.644 -1593 167 205 252
-155.369 -446.864 -1594 152 189 239
-151.999 -446.524 -1593 141 178 228
-148.727 -446.466 -1593 135 172 222
-145.274 -445.849 -1591 139 174 224
-142.366 -446.914 -1595 146 181 230
-139.094 -446.859 -1595 159 193 241
-136.164 -447.927 -1599 168 202 252
-132.887 -447.875 -1599 175 210 255
-129.853 -448.664 -1602 177 211 255
-126.65 -448.895 -1603 179 213 255
-123.676 -449.967 -1607 181 215 255
-120.536 -450.479 -1609 184 216 255
-117.389 -450.993 -1611 183 214 255
-114.092 -450.949 -1611 180 211 255
-111.073 -452.025 -1615 180 212 255
-107.77 -451.983 -1615 181 213 255
-104.534 -452.222 -1616 179 209 252
-101.419 -453.021 -1619 178 206 249
-98.4143 -454.382 -1624 180 208 251
-95.0386 -454.065 -1623 186 212 255
-91.9504 -455.148 -1627 187 214 255
-88.7377 -455.672 -1629 190 217 255
-85.6748 -457.038 -1634 191 218 255
-82.4411 -457.564 -1636 196 223 255
-79.2965 -458.652 -1640 200 227 255
-76.09 -459.461 -1643 204 230 255
-72.7834 -459.712 -1644 193 218 248
-264.422 -464.451 -1635 160 183 210
-260.526 -463.496 -1632 150 177 209
-255.858 -461.122 -1624 149 174 206
-252.935 -461.873 -1627 139 164 196
-248.622 -460.072 -1621 114 144 181
-245.395 -460.258 -1622 106 137 175
-241.271 -458.744 -1617 113 143 184
-237.757 -458.366 -1616 125 157 198
-233.09 -455.721 -1607 130 162 203
-229.034 -454.212 -1602 143 176 218
-225.001 -452.705 -1597 160 197 240
-221.269 -451.767 -1594 161 199 242
-217.277 -450.264 -1589 152 188 234
-213.981 -450.18 -1589 149 184 232
-210.422 -449.53 -1587 155 190 239
-207.003 -449.165 -1586 157 194 243
-203.719 -449.084 -1586 154 191 240
-200.689 -449.571 -1588 154 191 240
-197.529 -449.776 -1589 158 196 242
-194.365 -449.982 -1590 162 200 245
-190.96 -449.624 -1589 168 203 249
-187.56 -449.267 -1588 165 202 247
-184.165 -448.911 -1587 159 197 242
-180.777 -448.557 -1586 157 195 241
-177.506 -448.487 -1586 158 197 243
-174.126 -448.135 -1585 161 201 246
-170.968 -448.351 -1586 160 199 245
-167.701 -448.284 -1586 157 195 242
-164.644 -448.785 -1588 154 192 239
-161.782 -449.852 -1592 153 190 237
-158.806 -450.637 -1595 163 199 246
-155.624 -450.858 -1596 154 191 241
-152.344 -450.798 -1596 141 178 228
-149.158 -451.021 -1597 135 172 222
-145.605 -450.116 -1594 138 173 223
-142.422 -450.343 -1595 139 173 223
-139.236 -450.57 -1596 146 180 228
-136.217 -451.363 -1599 157 191 240
-132.938 -451.311 -1599 166 201 249
-129.822 -451.824 -1601 161 195 241
-126.779 -452.621 -1604 165 199 245
-123.724 -453.419 -1607 174 208 253
-120.582 -453.935 -1609 177 210 254
-117.507 -454.736 -1612 176 209 254
-114.208 -454.69 -1612 176 207 252
-111.047 -455.211 -1614 176 207 252
-107.812 -455.45 -1615 180 210 255
-104.704 -456.255 -1618 181 211 254
-101.396 -456.215 -1618 181 210 252
-98.5131 -458.149 -1625 183 211 252
-95.1926 -458.112 -1625 186 214 255
-91.9859 -458.639 -1627 188 215 255
-88.7175 -458.886 -1628 191 218 255
-85.6555 -460.262 -1633 192 219 255
-82.4225 -460.793 -1635 197 224 255
-79.2787 -461.888 -1639 202 229 255
-75.9341 -461.858 -1639 203 229 255
-72.7673 -462.957 -1643 194 219 249
-265.174 -469.139 -1639 159 181 208
-261.428 -468.462 -1637 144 171 203
-256.747 -466.07 -1629 133 159 191
-253.191 -465.682 -1628 117 142 174
-249.027 -464.152 -1623 108 137 172
-245.492 -463.768 -1622 120 149 186
-241.963 -463.386 -1621 130 161 200
-237.999 -462.147 -1617 139 171 212
-233.618 -460.053 -1610 138 171 212
-229.554 -458.533 -1605 148 182 223
-225.231 -456.443 -1598 158 195 237
-221.356 -455.212 -1594 154 192 235
-217.499 -453.983 -1590 148 186 231
-214.065 -453.612 -1589 145 182 228
-210.77 -453.528 -1589 151 186 234
-207.607 -453.731 -1590 157 195 242
-204.185 -453.364 -1589 158 196 243
-201.274 -454.14 -1592 156 194 241
-197.855 -453.776 -1591 157 195 240
-194.687 -453.984 -1592 162 200 245
-191.035 -453.052 -1589 167 202 248
-187.515 -452.407 -1587 166 203 248
-184.238 -452.334 -1587 161 199 244
-180.848 -451.977 -1586 156 194 239
-177.687 -452.191 -1587 157 196 241
-174.304 -451.837 -1586 162 202 247
-171.035 -451.769 -1586 160 198 245
-167.767 -451.702 -1586 156 194 241
-164.812 -452.491 -1589 155 193 240
-161.947 -453.566 -1593 154 189 236
-159.068 -454.641 -1597 163 198 244
-155.783 -454.579 -1597 159 196 246
-152.499 -454.519 -1597 145 182 233
-149.31 -454.744 -1598 136 173 223
-145.844 -454.117 -1596 136 171 221
-142.567 -454.06 -1596 136 171 221
-139.377 -454.289 -1597 140 174 222
-136.185 -454.52 -1598 146 181 229
-132.824 -454.182 -1597 156 191 239
-129.792 -454.984 -1600 153 187 233
-126.749 -455.787 -1603 159 193 239
-123.695 -456.59 -1606 169 203 249
-120.704 -457.68 -1610 172 206 252
-117.553 -458.201 -1612 172 205 251
-114.181 -457.872 -1611 173 205 249
-111.021 -458.396 -1613 177 207 252
-107.721 -458.353 -1613 183 213 255
-104.615 -459.164 -1616 184 214 255
-101.561 -460.26 -1620 185 213 255
-98.4909 -461.357 -1624 189 217 255
-95.2297 -461.604 -1625 189 217 255
-92.0218 -462.135 -1627 190 217 255
-88.7521 -462.383 -1628 195 221 255
-85.6888 -463.769 -1633 194 221 255
-82.505 -464.588 -1636 196 223 255
-79.3581 -465.693 -1640 200 228 255
-76.1028 -466.23 -1642 201 227 255
-72.9285 -467.337 -1646 195 220 250
-264.632 -471.541 -1635 180 200 228
-262.012 -472.877 -1640 151 177 209
-257.638 -471.043 -1634 125 150 182
-254.381 -471.229 -1635 115 140 172
-250.201 -469.687 -1630 110 137 173
-246.65 -469.299 -1629 123 151 188
-242.507 -467.761 -1624 139 170 209
-238.388 -466.225 -1619 145 177 218
-233.565 -463.251 -1609 144 176 217
-229.645 -462.007 -1605 153 187 228
-225.321 -459.902 -1598 155 192 234
-221.444 -458.661 -1594 145 183 226
-217.859 -457.998 -1592 140 178 223
-214.42 -457.624 -1591 144 180 227
-210.986 -457.252 -1590 150 185 233
-207.82 -457.456 -1591 153 191 238
-204.394 -457.087 -1590 156 194 241
-201.354 -457.581 -1592 156 194 241
-197.933 -457.214 -1591 157 195 241
-194.519 -456.848 -1590 163 201 246
-190.99 -456.197 -1588 169 204 248
-187.944 -456.696 -1590 167 203 248
-184.543 -456.335 -1589 162 200 245
-181.147 -455.975 -1588 159 197 242
-177.87 -455.904 -1588 158 197 242
-174.483 -455.547 -1587 162 202 247
-171.318 -455.765 -1588 164 203 249
-167.939 -455.411 -1587 162 200 247
-164.877 -455.918 -1589 162 200 247
-162.215 -457.575 -1595 163 199 246
-159.23 -458.372 -1598 172 207 253
-156.235 -459.17 -1601 163 200 250
-152.846 -458.822 -1600 156 193 244
-149.65 -459.048 -1601 150 187 239
-146.176 -458.417 -1599 142 179 229
-142.712 -457.786 -1597 142 178 227
-139.432 -457.73 -1597 145 179 227
-136.239 -457.962 -1598 146 180 228
-132.876 -457.622 -1597 155 190 238
-129.762 -458.143 -1599 161 195 241
-126.72 -458.952 -1602 170 204 250
-123.667 -459.762 -1605 176 210 255
-120.677 -460.859 -1609 176 210 255
-117.526 -461.385 -1611 174 208 253
-114.155 -461.053 -1610 174 206 250
-111.065 -461.868 -1613 177 208 252
-107.763 -461.824 -1613 183 213 255
-104.591 -462.355 -1615 186 216 255
-101.475 -463.173 -1618 187 216 255
-98.4689 -464.565 -1623 191 219 255
-95.2085 -464.813 -1624 191 219 255
-92.1146 -465.921 -1628 190 217 255
-88.9506 -466.744 -1631 194 220 255
-85.8275 -467.854 -1635 194 221 255
-82.5879 -468.393 -1637 195 222 255
-79.4861 -469.791 -1642 197 224 255
-76.3181 -470.905 -1646 198 223 253
-266.196 -477.707 -1644 168 187 215
-262.916 -477.891 -1645 134 159 191
-258.373 -475.752 -1638 113 138 170
-254.95 -475.648 -1638 109 134 166
-250.762 -474.094 -1633 113 140 176
-246.9 -473.123 -1630 133 161 199
-242.754 -471.574 -1625 147 178 217
-238.336 -469.445 -1618 149 181 222
-234.24 -467.9 -1613 149 181 222
-229.881 -465.776 -1606 156 190 231
-225.693 -463.944 -1600 153 190 232
-221.811 -462.695 -1596 143 181 224
-217.947 -461.447 -1592 140 178 223
-214.371 -460.78 -1590 145 182 228
-210.938 -460.405 -1589 152 187 235
-207.642 -460.321 -1589 152 190 237
-204.347 -460.238 -1589 152 190 237
-201.434 -461.025 -1592 153 191 238
-197.888 -460.366 -1590 155 193 239
-194.597 -460.287 -1590 160 198 243
-191.187 -459.921 -1589 168 203 247
-188.019 -460.134 -1590 166 202 247
-184.616 -459.77 -1589 160 198 243
-181.448 -459.986 -1590 160 198 243
-178.165 -459.914 -1590 162 201 246
-174.773 -459.554 -1589 164 202 247
-171.495 -459.485 -1589 165 203 250
-168.324 -459.706 -1590 163 201 248
-165.15 -459.928 -1591 164 202 249
-162.178 -460.73 -1594 167 204 250
-159.493 -462.4 -1600 174 211 254
-155.906 -461.47 -1597 166 203 253
-152.811 -461.986 -1599 157 194 244
-149.803 -462.792 -1602 154 191 243
-146.326 -462.156 -1600 145 182 233
-142.68 -460.943 -1596 144 181 232
-139.662 -461.752 -1599 147 182 230
-136.378 -461.697 -1599 144 180 229
-133.012 -461.355 -1598 149 186 235
-129.814 -461.591 -1599 158 193 239
-126.77 -462.406 -1602 168 202 248
-123.716 -463.222 -1605 173 207 253
-120.575 -463.751 -1607 174 208 254
-117.427 -464.28 -1609 173 207 252
-114.059 -463.945 -1608 170 202 246
-110.971 -464.766 -1611 168 200 244
-107.739 -465.011 -1612 176 207 251
-104.568 -465.546 -1614 184 214 255
-101.515 -466.659 -1618 187 216 255
-98.5687 -468.349 -1624 185 213 254
-95.4222 -469.176 -1627 186 214 255
-92.2643 -470.003 -1630 187 214 255
-89.0404 -470.544 -1632 191 217 255
-85.809 -471.086 -1634 193 220 255
-82.7216 -472.494 -1639 193 220 255
-79.5176 -473.326 -1642 194 221 254
-76.1628 -473.295 -1642 196 222 253
-264.462 -484.101 -1654 125 150 182
-260.055 -482.238 -1648 110 135 167
-256.143 -481.256 -1645 109 134 166
-252.093 -479.982 -1641 119 146 184
-247.909 -478.418 -1636 138 166 204
-243.45 -476.272 -1629 146 176 215
-239.022 -474.127 -1622 150 181 221
-234.335 -471.401 -1613 151 183 223
-229.83 -468.969 -1605 157 191 232
-225.925 -467.708 -1601 151 189 231
-222.178 -466.74 -1598 145 184 227
-218.172 -465.191 -1593 145 184 229
-214.862 -465.103 -1593 146 183 229
-211.554 -465.017 -1593 150 185 233
-208.118 -464.64 -1592 153 191 238
-204.816 -464.556 -1592 154 192 239
-201.515 -464.474 -1592 154 192 239
-197.968 -463.81 -1590 155 193 239
-194.797 -464.022 -1591 158 196 241
-191.143 -463.069 -1588 166 203 246
-188.095 -463.576 -1590 165 202 247
-184.807 -463.501 -1590 160 198 243
-181.749 -464.01 -1592 160 198 243
-178.236 -463.354 -1590 163 201 246
-174.953 -463.283 -1590 165 203 247
-171.78 -463.504 -1591 164 202 248
-168.497 -463.436 -1591 162 200 247
-165.321 -463.66 -1592 162 200 247
-162.345 -464.467 -1595 162 200 246
-159.557 -465.858 -1600 170 208 252
-156.262 -465.795 -1600 162 199 249
-152.968 -465.732 -1600 145 182 232
-149.863 -466.254 -1602 148 185 236
-146.476 -465.903 -1601 145 182 233
-142.916 -464.972 -1598 145 182 232
-139.718 -465.206 -1599 146 181 230
-136.433 -465.15 -1599 143 180 229
-133.065 -464.805 -1598 148 185 235
-129.866 -465.043 -1599 153 188 235
-126.821 -465.864 -1602 159 194 240
-123.765 -466.686 -1605 164 199 244
-120.623 -467.218 -1607 169 204 250
-117.547 -468.043 -1610 170 204 250
-114.175 -467.706 -1609 165 198 243
-111.085 -468.532 -1612 162 194 237
-107.849 -468.779 -1613 166 197 241
-104.804 -469.899 -1617 176 207 251
-101.556 -470.148 -1618 183 211 254
-98.608 -471.851 -1624 180 207 249
-95.4603 -472.684 -1627 180 209 251
-92.3577 -473.808 -1631 183 211 253
-89.076 -474.063 -1632 186 213 254
-86.0534 -475.77 -1638 190 217 255
-82.7545 -476.027 -1639 192 219 255
-79.5009 -476.575 -1641 193 220 254
-76.1932 -476.834 -1642 197 222 254
-266.489 -491.239 -1666 114 139 171
-261.74 -488.772 -1658 104 130 162
-257.65 -487.487 -1654 108 134 168
-253.118 -485.319 -1647 126 154 190
-248.617 -483.154 -1640 145 173 209
-243.998 -480.697 -1632 149 178 216
-238.972 -477.358 -1621 155 183 223
-234.576 -475.2 -1614 157 184 225
-230.067 -472.75 -1606 159 195 235
-226.017 -471.185 -1601 150 189 231
-221.851 -469.328 -1595 142 184 226
-218.397 -468.944 -1594 141 181 226
-214.679 -467.973 -1591 144 183 228
-211.375 -467.886 -1591 147 185 232
-208.071 -467.801 -1591 152 190 237
-204.77 -467.716 -1591 156 194 241
-201.597 -467.927 -1592 154 192 239
-198.048 -467.258 -1590 155 193 239
-194.877 -467.472 -1591 160 198 243
-191.341 -466.806 -1589 165 203 246
-188.289 -467.316 -1591 163 201 245
-184.882 -466.946 -1590 161 199 244
-181.937 -467.753 -1593 163 201 246
-178.196 -466.505 -1589 164 202 246
-175.024 -466.727 -1590 164 202 245
-171.741 -466.656 -1590 162 200 247
-168.672 -467.174 -1592 163 201 248
-165.284 -466.813 -1591 161 199 246
-162.41 -467.919 -1595 157 195 242
-159.522 -469.027 -1599 160 198 245
-156.032 -468.377 -1597 162 199 249
-153.03 -469.194 -1600 138 174 224
-149.736 -469.133 -1600 140 175 225
-146.444 -469.072 -1600 138 175 225
-143.063 -468.721 -1599 139 176 226
-139.775 -468.663 -1599 140 175 225
-136.403 -468.314 -1598 137 174 224
-133.119 -468.26 -1598 140 177 227
-129.918 -468.499 -1599 141 179 226
-126.714 -468.74 -1600 150 187 232
-123.661 -469.569 -1603 157 192 236
-120.522 -470.105 -1605 162 197 243
-117.521 -471.228 -1609 166 201 247
