ply
format ascii 1.0
comment Created by Open3D
element vertex 1339
property double x
property double y
property double z
property uchar red
property uchar green
property uchar blue
end_header
-346.5 -257.572 -1537 214 233 241
-342.595 -256.99 -1534 213 235 244
-339.37 -256.911 -1534 213 234 242
-335.489 -256.331 -1531 212 233 240
-331.842 -255.92 -1529 206 233 249
-328.42 -255.676 -1528 208 233 250
-325.218 -255.601 -1528 204 228 250
-321.809 -255.359 -1527 202 226 252
-318.615 -255.286 -1527 208 231 254
-315.011 -254.879 -1525 207 230 254
-311.826 -254.807 -1525 208 235 255
-308.645 -254.736 -1525 208 236 255
-305.466 -254.665 -1525 209 232 255
-302.091 -254.429 -1524 208 231 255
-299.115 -254.527 -1525 210 234 255
-295.75 -254.292 -1524 209 233 255
-292.391 -254.058 -1523 211 234 255
-289.23 -253.991 -1523 216 239 255
-286.446 -254.259 -1525 215 240 255
-283.47 -254.361 -1526 207 233 252
-280.676 -254.629 -1528 194 222 249
-277.514 -254.566 -1528 164 193 225
-274.354 -254.503 -1528 153 182 217
-271.196 -254.441 -1528 222 236 251
-268.04 -254.379 -1528 229 242 255
-264.886 -254.319 -1528 231 241 253
-262.078 -254.591 -1530 209 226 249
-259.602 -255.198 -1534 158 179 208
-256.944 -255.638 -1537 164 189 225
-254.276 -256.079 -1540 168 194 230
-251.435 -256.354 -1542 166 193 228
-248.91 -256.962 -1546 172 201 236
-245.735 -256.906 -1546 191 220 252
-243.346 -257.681 -1551 202 227 255
-240.784 -258.291 -1555 206 229 255
-237.902 -258.569 -1557 205 227 255
-234.863 -258.681 -1558 207 233 255
-231.971 -258.96 -1560 207 233 255
-228.632 -258.742 -1559 200 225 254
-225.589 -258.857 -1560 193 217 255
-222.4 -258.806 -1560 189 213 252
-219.917 -259.586 -1565 182 207 243
-216.861 -259.702 -1566 189 215 249
-214.757 -260.98 -1574 191 218 250
-212.489 -262.092 -1581 190 217 251
-210.326 -263.37 -1589 192 219 252
-207.61 -263.986 -1593 193 220 253
-205.394 -265.265 -1601 199 225 254
-202.515 -265.716 -1604 207 233 255
-199.999 -266.665 -1610 218 241 252
-197.459 -267.614 -1616 218 241 252
-194.897 -268.563 -1622 208 230 245
-192.313 -269.513 -1628 189 211 231
-189.008 -269.47 -1628 106 128 149
-412.28 -271.031 -1589 215 231 248
-409.138 -271.104 -1590 201 217 235
-405.74 -271.008 -1590 174 190 210
-400.827 -269.891 -1584 119 135 155
-397.198 -269.626 -1583 124 140 157
-393.08 -269.022 -1580 148 165 183
-388.977 -268.42 -1577 175 194 215
-384.158 -267.308 -1571 189 209 233
-379.367 -266.197 -1565 196 218 242
-375.326 -265.598 -1562 192 216 244
-370.824 -264.661 -1557 188 214 245
-366.583 -263.895 -1553 191 218 250
-362.362 -263.13 -1549 196 220 248
-358.161 -262.366 -1545 208 232 254
-354.21 -261.773 -1542 214 237 252
-350.047 -261.012 -1538 215 235 250
-346.13 -260.421 -1535 218 238 253
-342.675 -260.171 -1534 220 243 253
-339.227 -259.922 -1533 220 243 253
-335.348 -259.335 -1530 221 244 254
-331.701 -258.918 -1528 219 242 253
-328.496 -258.841 -1528 220 243 255
-324.868 -258.426 -1526 214 237 252
-321.672 -258.351 -1526 210 232 253
-318.271 -258.107 -1525 216 238 255
-314.877 -257.865 -1524 215 237 255
-311.489 -257.623 -1523 216 242 255
-308.311 -257.551 -1523 219 246 255
-305.336 -257.648 -1524 218 242 255
-301.962 -257.409 -1523 212 237 254
-298.988 -257.508 -1524 210 236 253
-296.012 -257.608 -1525 206 232 250
-292.843 -257.54 -1525 205 230 250
-289.676 -257.473 -1525 206 229 254
-286.887 -257.744 -1527 196 220 248
-283.907 -257.846 -1528 186 211 242
-280.925 -257.95 -1529 179 206 244
-277.941 -258.054 -1530 156 184 220
-274.416 -257.653 -1528 141 170 203
-271.08 -257.421 -1527 203 221 241
-267.926 -257.359 -1527 227 243 255
-264.947 -257.466 -1528 233 244 252
-261.967 -257.574 -1529 210 226 247
-259.492 -258.188 -1533 157 176 203
-256.668 -258.465 -1535 174 199 235
-254.004 -258.911 -1538 185 210 246
-251.33 -259.358 -1541 183 210 244
-248.806 -259.974 -1545 192 219 252
-245.95 -260.253 -1547 203 230 255
-243.245 -260.702 -1550 204 231 255
-240.684 -261.319 -1554 201 226 255
-237.651 -261.432 -1555 192 216 250
-234.766 -261.714 -1557 194 219 251
-232.023 -262.165 -1560 192 217 251
-228.977 -262.28 -1561 188 212 250
-225.64 -262.06 -1560 187 211 251
-222.879 -262.513 -1563 189 213 253
-220.248 -263.134 -1567 183 208 244
-217.325 -263.419 -1569 188 214 250
-214.806 -264.209 -1574 192 218 255
-212.402 -265.167 -1580 191 218 253
-210.373 -266.63 -1589 193 220 253
-207.527 -267.085 -1592 200 228 253
-205.312 -268.38 -1600 210 237 255
-202.182 -268.501 -1601 217 243 255
-199.671 -269.461 -1607 224 248 255
-196.893 -270.087 -1611 221 245 255
-193.98 -270.545 -1614 219 243 255
-191.175 -271.172 -1618 199 223 241
-188.354 -271.799 -1622 87 111 131
-185.52 -272.426 -1626 45 61 77
-411.339 -273.657 -1585 221 237 253
-408.463 -273.905 -1587 232 251 254
-405.581 -274.153 -1589 214 233 246
-400.669 -273.021 -1583 205 224 248
-397.293 -272.926 -1583 217 235 255
-392.924 -272.143 -1579 214 234 255
-388.576 -271.36 -1575 207 229 252
-383.759 -270.235 -1569 204 226 251
-379.214 -269.283 -1564 205 228 253
-374.693 -268.333 -1559 201 226 254
-370.673 -267.728 -1556 203 230 255
-366.434 -266.952 -1552 205 233 255
-362.448 -266.35 -1549 208 232 255
-358.71 -265.92 -1547 210 234 255
-354.524 -265.148 -1543 210 236 255
-350.13 -264.206 -1538 213 237 255
-346.211 -263.608 -1535 211 235 255
-342.755 -263.355 -1534 211 237 255
-338.864 -262.759 -1531 214 239 255
-335.207 -262.337 -1529 216 242 255
-331.562 -261.915 -1527 214 239 254
-328.573 -262.008 -1528 211 237 254
-324.731 -261.417 -1525 206 233 253
-321.748 -261.512 -1526 203 229 252
-318.554 -261.437 -1526 207 233 255
-315.157 -261.191 -1525 210 236 255
-311.357 -260.603 -1522 211 237 255
-308.585 -260.873 -1524 214 240 255
-305.407 -260.801 -1524 214 237 255
-302.231 -260.73 -1524 207 231 255
-299.45 -261.001 -1526 201 226 254
-296.47 -261.102 -1527 193 218 247
-293.295 -261.033 -1527 190 215 244
-290.123 -260.964 -1527 189 211 244
-287.142 -261.068 -1528 178 202 236
-284.345 -261.343 -1530 172 198 232
-281.174 -261.276 -1530 166 193 230
-278.006 -261.211 -1530 144 172 208
-274.66 -260.976 -1529 127 157 190
-271.321 -260.741 -1528 193 214 237
-267.988 -260.508 -1527 223 242 255
-265.182 -260.786 -1529 233 244 252
-262.027 -260.725 -1529 217 234 250
-259.383 -261.176 -1532 172 192 215
-256.561 -261.457 -1534 183 208 244
-254.063 -262.079 -1538 190 217 252
-251.388 -262.531 -1541 194 221 252
-248.863 -263.154 -1545 197 224 255
-245.848 -263.267 -1546 191 218 250
-243.458 -264.061 -1551 194 221 253
-240.585 -264.345 -1553 193 219 253
-237.553 -264.46 -1554 185 210 246
-234.669 -264.746 -1556 194 219 252
-231.928 -265.202 -1559 192 216 253
-229.03 -265.488 -1561 187 211 252
-225.837 -265.436 -1561 185 209 249
-222.93 -265.724 -1563 191 215 254
-220.158 -266.182 -1566 190 215 249
-217.376 -266.641 -1569 193 219 252
-214.992 -267.611 -1575 199 226 255
-212.451 -268.411 -1580 204 231 255
-210.157 -269.551 -1587 208 235 255
-207.575 -270.352 -1592 215 243 255
-205.103 -271.323 -1598 221 249 255
-202.229 -271.785 -1601 222 249 255
-199.469 -272.418 -1605 221 245 255
-196.205 -272.372 -1605 220 244 255
-193.664 -273.345 -1611 218 242 254
-190.864 -273.979 -1615 211 236 253
-187.701 -274.105 -1616 132 156 174
-184.421 -274.062 -1616 47 63 78
-181.255 -274.19 -1617 52 66 80
-410.919 -276.619 -1583 224 240 250
-408.561 -277.219 -1587 216 235 243
-405.678 -277.47 -1589 163 184 203
-401.018 -276.499 -1584 177 202 229
-397.388 -276.229 -1583 212 232 254
-392.769 -275.261 -1578 210 230 255
-388.669 -274.643 -1575 208 231 255
-383.851 -273.504 -1569 208 232 255
-379.79 -272.889 -1566 207 232 255
-374.783 -271.579 -1559 200 226 253
-371 -271.141 -1557 195 223 251
-366.993 -270.53 -1554 191 220 250
-362.768 -269.746 -1550 201 226 253
-358.331 -268.789 -1545 201 228 253
-354.608 -268.356 -1543 202 231 254
-350.213 -267.402 -1538 207 235 255
-346.068 -266.623 -1534 206 234 255
-342.613 -266.367 -1533 203 233 255
-338.723 -265.764 -1530 202 233 254
-335.068 -265.337 -1528 200 232 251
-331.641 -265.083 -1527 198 228 249
-328.651 -265.178 -1528 194 224 247
-325.021 -264.753 -1526 193 224 249
-321.824 -264.676 -1526 193 223 249
-318.63 -264.599 -1526 192 222 249
-315.438 -264.524 -1526 190 220 247
-311.84 -264.102 -1524 192 218 247
-308.861 -264.202 -1525 193 218 246
-305.279 -263.782 -1523 190 213 245
-302.303 -263.883 -1524 187 210 246
-299.325 -263.985 -1525 185 209 247
-296.54 -264.26 -1527 184 208 246
-293.364 -264.19 -1527 185 208 246
-290.572 -264.467 -1529 186 208 242
-287.586 -264.571 -1530 180 206 239
-284.597 -264.676 -1531 173 200 234
-281.424 -264.609 -1531 165 194 227
-278.253 -264.543 -1531 150 180 214
-274.904 -264.305 -1530 130 161 197
-271.562 -264.067 -1529 187 210 237
-268.402 -264.004 -1529 220 241 255
-265.244 -263.941 -1529 238 249 254
-262.26 -264.051 -1530 225 241 254
-259.443 -264.334 -1532 180 201 219
-256.788 -264.791 -1535 169 196 230
-254.123 -265.248 -1538 183 210 244
-251.447 -265.706 -1541 193 220 255
-248.761 -266.164 -1544 181 209 243
-246.223 -266.795 -1548 175 204 237
-243.358 -267.082 -1550 195 222 255
-240.486 -267.37 -1552 196 222 253
-237.608 -267.658 -1554 186 211 247
-234.724 -267.947 -1556 183 207 250
-231.834 -268.237 -1558 184 208 250
-228.79 -268.355 -1559 189 213 253
-226.034 -268.818 -1562 191 216 252
-223.268 -269.281 -1565 197 222 254
-220.35 -269.573 -1567 200 225 254
-217.565 -270.038 -1570 207 233 255
-214.906 -270.675 -1574 210 239 255
-212.232 -271.313 -1578 214 242 255
-209.808 -272.295 -1584 214 243 255
-207.102 -272.934 -1588 217 246 255
-204.637 -273.917 -1594 222 250 255
-201.644 -274.213 -1596 223 250 255
-199.266 -275.368 -1603 223 247 255
-196.25 -275.666 -1605 222 246 255
-193.468 -276.307 -1609 216 240 254
-190.79 -277.121 -1614 214 239 255
-187.744 -277.42 -1616 196 221 239
-184.578 -277.548 -1617 91 107 122
-181.185 -277.334 -1616 38 51 67
-410.76 -279.752 -1582 231 247 254
-408.403 -280.359 -1586 188 210 223
-405.521 -280.613 -1588 132 157 176
-400.609 -279.454 -1582 140 170 198
-397.735 -279.71 -1584 187 209 242
-393.114 -278.73 -1579 195 216 248
-389.01 -278.106 -1576 198 221 250
-384.434 -277.129 -1571 198 225 252
-380.124 -276.33 -1567 193 221 249
-376.076 -275.709 -1564 187 217 245
-371.805 -274.913 -1560 179 210 239
-367.318 -273.942 -1555 174 206 236
-362.856 -272.973 -1550 182 213 240
-358.882 -272.357 -1547 184 215 242
-354.464 -271.39 -1542 179 211 238
-350.525 -270.777 -1539 179 211 236
-346.377 -269.989 -1535 181 213 237
-342.696 -269.553 -1533 176 212 236
-338.805 -268.943 -1530 171 208 231
-335.148 -268.51 -1528 167 206 228
-331.503 -268.078 -1526 169 202 229
-328.515 -268.174 -1527 165 197 225
-324.886 -267.744 -1525 159 191 222
-321.901 -267.841 -1526 158 189 222
-318.706 -267.764 -1526 159 190 223
-315.514 -267.687 -1526 159 190 223
-312.12 -267.437 -1525 163 191 224
-308.935 -267.362 -1525 164 191 224
-305.753 -267.288 -1525 171 196 231
-302.375 -267.039 -1524 180 205 241
-299.2 -266.967 -1524 187 212 248
-296.61 -267.421 -1527 190 215 248
-293.242 -267.175 -1526 194 219 251
-290.451 -267.455 -1528 198 221 248
-287.654 -267.735 -1530 194 220 249
-284.479 -267.667 -1530 196 223 251
-281.307 -267.599 -1530 195 224 251
-278.137 -267.532 -1530 179 209 242
-274.79 -267.291 -1529 143 174 212
-271.271 -266.876 -1527 178 202 233
-268.29 -266.986 -1528 213 236 255
-265.307 -267.097 -1529 236 248 254
-262.323 -267.208 -1530 224 242 254
-259.505 -267.495 -1532 190 211 229
-256.849 -267.957 -1535 164 191 224
-254.183 -268.42 -1538 175 202 236
-251.506 -268.883 -1541 186 213 251
-248.82 -269.347 -1544 182 210 246
-246.123 -269.811 -1547 178 207 242
-243.101 -269.927 -1548 185 212 246
-240.078 -270.044 -1549 187 213 247
-237.206 -270.336 -1551 189 214 249
-234.176 -270.454 -1552 194 218 254
-231.442 -270.921 -1555 194 219 255
-228.551 -271.215 -1557 196 221 255
-225.653 -271.509 -1559 196 221 252
-222.892 -271.979 -1562 207 232 254
-220.402 -272.796 -1567 214 240 255
-217.339 -272.918 -1568 217 244 255
-214.547 -273.389 -1571 213 242 255
-211.744 -273.861 -1574 213 242 255
-209.328 -274.855 -1580 214 243 255
-206.759 -275.675 -1585 217 246 255
-204.171 -276.496 -1590 222 249 255
-201.692 -277.491 -1596 222 249 255
-198.816 -277.965 -1599 222 246 255
-196.541 -279.309 -1607 221 245 255
-193.634 -279.784 -1610 217 241 254
-191.071 -280.781 -1616 213 239 255
-188.253 -281.431 -1620 214 240 255
-185.421 -282.082 -1624 132 149 165
-182.461 -282.56 -1627 34 49 66
-410.601 -282.883 -1581 214 230 246
-408.503 -283.676 -1586 178 202 217
-405.877 -284.112 -1589 160 187 206
-402.228 -283.833 -1588 114 147 176
-398.587 -283.555 -1587 142 168 204
-393.957 -282.564 -1582 155 180 216
-389.846 -281.931 -1579 173 197 228
-384.773 -280.586 -1572 174 203 235
-380.46 -279.778 -1568 169 200 232
-376.408 -279.149 -1565 167 200 230
-372.135 -278.344 -1561 158 192 222
-367.408 -277.183 -1555 157 191 222
-363.647 -276.737 -1553 161 194 222
-358.737 -275.401 -1546 159 190 218
-354.32 -274.422 -1541 166 191 219
-350.155 -273.624 -1537 167 193 219
-345.785 -272.648 -1532 175 201 226
-341.885 -272.03 -1529 176 204 231
-338.444 -271.769 -1528 176 207 232
-335.23 -271.686 -1528 173 205 229
-331.584 -271.249 -1526 170 201 227
-328.595 -271.346 -1527 170 201 228
-325.178 -271.088 -1526 173 203 233
-321.979 -271.009 -1526 177 207 239
-318.575 -270.754 -1525 176 205 238
-315.797 -271.031 -1527 176 203 237
-312.195 -270.6 -1525 177 205 236
-309.01 -270.524 -1525 182 210 238
-305.827 -270.449 -1525 194 220 250
-302.646 -270.375 -1525 205 231 254
-299.469 -270.301 -1525 208 234 255
-296.876 -270.76 -1528 210 236 255
-293.698 -270.689 -1528 213 238 255
-290.711 -270.795 -1529 214 239 255
-287.724 -270.901 -1530 206 233 255
-284.734 -271.009 -1531 195 223 250
-281.375 -270.763 -1530 193 223 253
-278.386 -270.872 -1531 177 207 242
-275.036 -270.628 -1530 131 162 200
-271.514 -270.208 -1528 158 183 216
-268.355 -270.143 -1528 206 230 255
-265.371 -270.255 -1529 221 236 247
-262.214 -270.191 -1529 213 231 248
-259.398 -270.482 -1531 188 211 231
-257.078 -271.303 -1536 164 191 223
-254.244 -271.594 -1538 164 191 225
-251.567 -272.063 -1541 173 202 239
-248.718 -272.355 -1543 180 209 246
-245.704 -272.472 -1544 182 210 248
-242.688 -272.59 -1545 187 214 249
-239.825 -272.884 -1547 193 219 253
-236.65 -272.827 -1547 196 221 253
-233.779 -273.123 -1549 197 222 252
-231.051 -273.596 -1552 204 229 255
-228.312 -274.069 -1555 208 233 255
-225.562 -274.543 -1558 208 233 255
-222.946 -275.194 -1562 215 241 255
-220.173 -275.67 -1565 216 242 255
-217.391 -276.145 -1568 213 240 255
-214.461 -276.446 -1570 213 242 255
-211.66 -276.923 -1573 215 244 255
-209.113 -277.752 -1578 216 245 255
-206.417 -278.406 -1582 217 246 255
-203.963 -279.413 -1588 220 248 255
-201.613 -280.596 -1595 222 249 255
-199.112 -281.603 -1601 224 249 255
-196.343 -282.26 -1605 221 246 255
-193.921 -283.444 -1612 215 239 253
-191.353 -284.452 -1618 213 238 254
-188.414 -284.935 -1621 211 237 255
-185.921 -286.12 -1628 123 142 159
-409.145 -285.107 -1575 208 224 244
-408.09 -286.633 -1584 182 206 223
-404.956 -286.712 -1585 191 218 238
-402.328 -287.154 -1588 131 164 194
-398.686 -286.873 -1587 91 120 158
-394.553 -286.231 -1584 121 148 188
-389.696 -285.049 -1578 165 190 224
-385.358 -284.23 -1574 171 200 234
-381.283 -283.593 -1571 164 196 230
-376.742 -282.596 -1566 164 196 227
-371.75 -281.239 -1559 168 202 232
-367.972 -280.787 -1557 178 214 244
-363.034 -279.433 -1550 184 218 247
-359.058 -278.803 -1547 183 214 242
-353.948 -277.273 -1539 198 217 245
-349.558 -276.285 -1534 203 223 247
-345.87 -275.838 -1532 206 225 250
-341.969 -275.213 -1529 205 228 253
-338.749 -275.128 -1529 209 232 254
-335.532 -275.044 -1529 207 230 252
-331.883 -274.602 -1527 201 229 250
-328.46 -274.341 -1526 200 228 252
-325.258 -274.259 -1526 201 229 255
-321.848 -274 -1525 201 228 255
-318.444 -273.741 -1524 199 226 255
-315.668 -274.022 -1526 203 228 255
-312.272 -273.765 -1525 200 227 252
-309.288 -273.868 -1526 200 228 253
-305.902 -273.612 -1525 207 235 255
-302.721 -273.537 -1525 214 242 255
-299.542 -273.463 -1525 216 245 255
-296.56 -273.569 -1526 212 238 254
-293.385 -273.496 -1526 211 237 254
-290.592 -273.783 -1528 213 239 253
-287.418 -273.712 -1528 192 220 246
-284.432 -273.821 -1529 173 202 235
-281.076 -273.572 -1528 174 205 244
-278.09 -273.683 -1529 160 191 230
-274.743 -273.436 -1528 125 156 193
-271.581 -273.369 -1528 142 169 203
-268.42 -273.303 -1528 205 230 255
-265.262 -273.237 -1528 225 241 255
-262.106 -273.173 -1528 213 233 251
-259.292 -273.466 -1530 188 211 234
-256.806 -274.118 -1534 174 201 233
-254.306 -274.77 -1538 177 205 238
-251.628 -275.244 -1541 175 205 242
-248.94 -275.719 -1544 179 209 247
-245.923 -275.837 -1545 181 212 250
-242.904 -275.956 -1546 190 217 253
-239.729 -275.897 -1546 196 223 254
-236.708 -276.017 -1547 198 225 255
-233.836 -276.317 -1549 202 228 252
-230.809 -276.439 -1550 206 232 255
-227.926 -276.739 -1552 208 233 255
-225.617 -277.754 -1558 209 235 255
-222.571 -277.878 -1559 211 237 255
-219.945 -278.537 -1563 211 237 253
-217.305 -279.196 -1567 213 240 255
-214.376 -279.5 -1569 214 243 255
-211.576 -279.983 -1572 217 246 255
-208.898 -280.644 -1576 218 247 255
-206.728 -282.018 -1584 220 247 255
-204.012 -282.68 -1588 220 248 253
-201.915 -284.233 -1597 220 247 252
-199.284 -285.074 -1602 219 246 255
-196.758 -286.094 -1608 216 242 254
-194.329 -287.292 -1615 211 237 253
-191.873 -288.49 -1622 208 234 253
-188.808 -288.8 -1624 197 224 248
-186.423 -290.177 -1632 98 118 136
-184.119 -291.732 -1641 39 58 77
-409.508 -288.59 -1576 214 232 252
-408.966 -290.5 -1587 199 222 242
-405.313 -290.214 -1586 186 211 233
-402.429 -290.478 -1588 140 172 203
-399.037 -290.376 -1588 124 154 192
-395.151 -289.91 -1586 164 194 233
-390.041 -288.531 -1579 194 222 252
-385.455 -287.52 -1574 196 223 251
-380.65 -286.327 -1568 200 225 250
-376.596 -285.684 -1565 201 228 252
-372.081 -284.677 -1560 200 228 254
-367.118 -283.306 -1553 202 231 255
-362.422 -282.12 -1547 203 231 255
-357.523 -280.753 -1540 204 231 255
-354.497 -280.846 -1541 205 231 255
-349.19 -279.117 -1532 211 235 255
-345.505 -278.666 -1530 209 234 255
-341.607 -278.033 -1527 209 235 255
-338.612 -278.13 -1528 216 242 255
-335.396 -278.045 -1528 215 241 255
-331.966 -277.78 -1527 213 241 255
-328.542 -277.515 -1526 202 230 251
-325.339 -277.433 -1526 195 223 249
-321.928 -277.17 -1525 193 221 249
-318.314 -276.727 -1523 192 220 248
-315.333 -276.829 -1524 193 220 249
-312.145 -276.751 -1524 191 219 247
-308.959 -276.673 -1524 191 219 246
-305.576 -276.415 -1523 196 224 250
-302.796 -276.702 -1525 198 226 251
-299.616 -276.627 -1525 197 225 251
-296.634 -276.734 -1526 190 217 246
-293.457 -276.661 -1526 190 217 247
-290.664 -276.951 -1528 196 221 252
-287.489 -276.879 -1528 182 208 243
-284.316 -276.808 -1528 167 195 234
-281.145 -276.737 -1528 164 196 237
-278.341 -277.03 -1530 149 181 221
-274.811 -276.599 -1528 125 157 196
-271.648 -276.531 -1528 138 166 203
-268.311 -276.283 -1527 195 221 254
-265.154 -276.218 -1527 213 233 254
-261.999 -276.152 -1527 211 233 254
-259.525 -276.811 -1531 194 217 242
-256.702 -277.108 -1533 174 200 231
-254.368 -277.949 -1538 174 200 233
-251.526 -278.248 -1540 180 211 246
-248.84 -278.728 -1543 191 222 254
-245.983 -279.028 -1545 194 225 255
-242.964 -279.148 -1546 195 222 255
-239.942 -279.269 -1547 194 221 255
-236.919 -279.391 -1548 199 226 255
-233.893 -279.513 -1549 204 230 255
-230.865 -279.636 -1550 206 232 255
-227.982 -279.941 -1552 205 230 255
-225.527 -280.786 -1557 208 233 255
-222.626 -281.092 -1559 211 236 255
-219.858 -281.578 -1562 210 236 255
-217.219 -282.246 -1566 211 237 255
-214.702 -283.094 -1571 212 241 255
-212.032 -283.762 -1575 217 245 255
-209.347 -284.431 -1579 220 249 255
-207.039 -285.64 -1586 222 249 255
-204.576 -286.67 -1592 222 249 254
-202.217 -287.881 -1599 222 249 253
-199.831 -289.091 -1606 216 244 255
-197.05 -289.763 -1610 209 237 251
-194.617 -290.974 -1617 206 232 252
-192.038 -292.007 -1623 198 226 250
-189.087 -292.5 -1626 184 212 239
-186.811 -294.072 -1635 80 100 119
-184.613 -295.825 -1645 37 57 76
-182.155 -297.219 -1653 41 61 79
-409.093 -291.524 -1574 215 233 253
-408.555 -293.457 -1585 203 224 247
-405.417 -293.537 -1586 187 211 235
-402.785 -293.989 -1589 146 176 208
-398.385 -293.146 -1585 147 178 214
-395.002 -293.045 -1585 186 218 254
-390.14 -291.835 -1579 201 230 255
-386.043 -291.181 -1576 204 229 255
-380.504 -289.421 -1567 209 233 255
-376.692 -288.955 -1565 206 232 255
-371.222 -287.198 -1556 204 231 254
-366.266 -285.812 -1549 205 232 255
-362.28 -285.166 -1546 203 229 255
-357.381 -283.783 -1539 205 230 255
-353.896 -283.508 -1538 202 230 255
-348.822 -281.944 -1530 206 233 255
-345.366 -281.672 -1529 204 230 252
-341.917 -281.4 -1528 201 229 250
-339.141 -281.682 -1530 208 235 255
-335.481 -281.228 -1528 208 234 253
-332.484 -281.328 -1529 208 237 255
-328.625 -280.692 -1526 196 225 245
-325.208 -280.425 -1525 189 217 243
-321.586 -279.976 -1523 189 217 244
-317.976 -279.527 -1521 186 214 242
-314.791 -279.447 -1521 188 216 244
-312.018 -279.735 -1523 185 213 242
-308.834 -279.657 -1523 176 204 234
-305.854 -279.763 -1524 183 211 241
-303.07 -280.053 -1526 185 213 243
-300.084 -280.161 -1527 183 212 243
-296.708 -279.902 -1526 181 208 243
-293.339 -279.644 -1525 178 205 241
-290.356 -279.754 -1526 176 200 239
-287.184 -279.681 -1526 166 192 232
-284.201 -279.793 -1527 168 196 236
-281.031 -279.722 -1527 168 200 242
-278.228 -280.018 -1529 152 184 225
-274.88 -279.765 -1528 141 173 213
-271.715 -279.696 -1528 148 177 216
-268.378 -279.446 -1527 191 218 253
-265.22 -279.379 -1527 202 225 251
-261.893 -279.13 -1526 207 229 255
-259.251 -279.613 -1529 198 219 247
-256.598 -280.097 -1532 182 207 239
-254.101 -280.765 -1536 188 214 246
-251.589 -281.432 -1540 188 219 252
-249.063 -282.101 -1544 188 219 254
-245.885 -282.039 -1544 188 219 255
-242.867 -282.16 -1545 193 221 255
-239.847 -282.283 -1546 192 220 255
-236.978 -282.588 -1548 196 224 255
-233.649 -282.347 -1547 204 230 255
-230.774 -282.654 -1549 202 228 255
-227.598 -282.597 -1549 198 223 254
-225.004 -283.27 -1553 200 225 255
-222.109 -283.579 -1555 204 229 255
-219.631 -284.436 -1560 206 231 255
-216.995 -285.111 -1564 208 234 254
-214.482 -285.969 -1569 210 238 253
-211.815 -286.644 -1573 216 243 255
-209.797 -288.232 -1582 222 249 255
-207.221 -289.091 -1587 223 250 255
-204.498 -289.768 -1591 220 247 255
-202.14 -290.993 -1598 217 244 255
-199.88 -292.4 -1606 206 235 251
-197.344 -293.443 -1612 202 231 249
-195.026 -294.85 -1620 198 226 251
-192.322 -295.712 -1625 194 222 251
-189.599 -296.574 -1630 180 208 238
-186.972 -297.619 -1636 84 104 124
-184.883 -299.574 -1647 41 61 80
-182.53 -301.165 -1656 0 0 0
-409.978 -295.39 -1577 208 226 246
-409.434 -297.343 -1588 203 224 249
-406.288 -297.424 -1589 180 203 229
-403.142 -297.507 -1590 152 181 214
-398.739 -296.654 -1586 157 188 222
-395.603 -296.739 -1587 192 224 254
-389.994 -294.954 -1578 202 229 255
-385.407 -293.92 -1573 202 228 255
-380.845 -292.886 -1568 204 229 255
-375.826 -291.481 -1561 205 231 255
-370.84 -290.078 -1554 205 231 255
-366.596 -289.237 -1550 203 231 255
-362.138 -288.21 -1545 202 227 254
-357.008 -286.625 -1537 204 229 254
-353.066 -285.974 -1534 199 227 252
-349.139 -285.325 -1531 205 232 254
-345.68 -285.049 -1530 209 235 254
-341.557 -284.216 -1526 208 237 254
-338.784 -284.5 -1528 211 239 255
-335.347 -284.228 -1527 209 235 253
-332.134 -284.142 -1527 200 229 250
-328.493 -283.685 -1525 186 216 238
-325.291 -283.602 -1525 178 207 233
-321.879 -283.333 -1524 180 208 236
-318.057 -282.693 -1521 176 204 232
-314.664 -282.426 -1520 175 204 233
-311.688 -282.532 -1521 165 193 224
-308.71 -282.639 -1522 154 181 215
-305.731 -282.746 -1523 168 195 229
-302.948 -283.039 -1525 166 193 227
-300.161 -283.333 -1527 163 192 227
-296.978 -283.257 -1527 169 197 235
-293.221 -282.626 -1524 173 201 241
-290.24 -282.737 -1525 186 210 253
-287.069 -282.663 -1525 181 206 248
-284.272 -282.961 -1527 169 197 236
-281.102 -282.889 -1527 158 190 231
-278.299 -283.189 -1529 148 180 221
-274.949 -282.933 -1528 152 184 226
-272.14 -283.234 -1530 159 188 229
-268.445 -282.61 -1527 192 220 253
-265.287 -282.542 -1527 196 221 253
-261.959 -282.291 -1526 203 226 254
-259.146 -282.595 -1528 196 215 247
-256.16 -282.714 -1529 178 203 235
-253.999 -283.759 -1535 188 213 246
-251.325 -284.249 -1538 186 217 251
-248.641 -284.741 -1541 187 218 253
-245.788 -285.048 -1543 188 219 255
-243.243 -285.725 -1547 191 219 255
-240.062 -285.664 -1547 189 217 255
-237.343 -286.157 -1550 192 220 255
-234.161 -286.098 -1550 197 222 255
-230.98 -286.039 -1550 195 220 254
-227.802 -285.981 -1550 191 215 252
-225.35 -286.846 -1555 193 217 254
-222.308 -286.974 -1556 195 220 255
-219.827 -287.841 -1561 197 221 255
-217.605 -289.076 -1568 201 227 255
-214.809 -289.575 -1571 205 233 255
-212.272 -290.443 -1576 208 234 255
-209.584 -291.127 -1580 210 236 255
-207.273 -292.364 -1587 213 238 255
-204.807 -293.418 -1593 211 237 255
-202.697 -295.024 -1602 207 233 254
-200.054 -295.894 -1607 196 224 246
-197.76 -297.317 -1615 194 222 245
-194.954 -298.004 -1619 194 222 250
-192.488 -299.244 -1626 191 218 250
-189.646 -299.932 -1630 193 220 254
-187.018 -300.989 -1636 147 166 191
-184.592 -302.414 -1644 59 77 99
-182.135 -303.839 -1652 50 66 81
-411.386 -299.649 -1582 200 218 238
-410.056 -301.056 -1590 194 216 243
-406.906 -301.138 -1591 179 203 231
-402.994 -300.653 -1589 150 178 214
-398.843 -299.98 -1586 143 175 207
-394.459 -299.12 -1582 180 213 243
-389.848 -298.072 -1577 197 223 252
-386.487 -297.971 -1577 199 225 254
-380.215 -295.603 -1565 201 226 255
-376.164 -294.938 -1562 200 225 253
-370.936 -293.33 -1554 198 223 251
-366.454 -292.29 -1549 192 221 248
-362.232 -291.44 -1545 191 218 248
-357.101 -289.838 -1537 196 223 253
-352.927 -288.991 -1533 200 225 250
-348.773 -288.146 -1529 205 229 250
-345.544 -288.056 -1529 208 233 251
-341.869 -287.59 -1527 207 234 252
-339.093 -287.878 -1529 208 235 254
-335.653 -287.602 -1528 207 234 253
-332.437 -287.515 -1528 202 228 250
-328.578 -286.865 -1525 202 227 250
-325.374 -286.78 -1525 199 224 249
-321.751 -286.32 -1523 198 223 249
-318.348 -286.05 -1522 193 217 245
-314.538 -285.404 -1519 198 220 249
-311.768 -285.699 -1521 191 215 247
-308.586 -285.618 -1521 189 216 251
-306.01 -286.102 -1524 196 224 253
-303.225 -286.399 -1526 178 206 240
-300.434 -286.696 -1528 169 198 231
-296.859 -286.244 -1526 160 188 223
-293.296 -285.793 -1524 159 186 221
-290.123 -285.718 -1524 170 195 228
-286.765 -285.456 -1523 168 195 227
-283.787 -285.57 -1524 153 183 216
-280.438 -285.31 -1523 168 200 241
-277.824 -285.8 -1526 171 203 247
-274.659 -285.729 -1526 169 201 243
-271.853 -286.034 -1528 152 181 222
-268.338 -285.59 -1526 175 203 243
-265.181 -285.521 -1526 187 213 250
-262.197 -285.641 -1527 200 223 255
-259.212 -285.761 -1528 197 215 250
-256.393 -286.069 -1530 176 201 234
-254.064 -286.938 -1535 182 209 242
-251.389 -287.434 -1538 183 215 252
-248.866 -288.118 -1542 185 217 254
-246.169 -288.615 -1545 187 218 255
-243.462 -289.113 -1548 191 219 255
-240.434 -289.238 -1549 186 214 253
-237.557 -289.55 -1551 181 208 245
-234.372 -289.49 -1551 184 209 248
-231.188 -289.43 -1551 185 209 250
-227.713 -288.999 -1549 185 209 250
-225.117 -289.687 -1553 189 213 253
-222.364 -290.19 -1556 190 214 254
-219.742 -290.879 -1560 188 212 251
-217.521 -292.129 -1567 189 214 251
-214.863 -292.819 -1571 191 218 250
-212.056 -293.324 -1574 194 219 249
-209.239 -293.829 -1577 196 221 249
-206.933 -295.081 -1584 196 222 248
-204.344 -295.96 -1589 194 219 246
-202.495 -297.957 -1600 192 217 246
-199.607 -298.464 -1603 191 219 244
-197.566 -300.276 -1613 190 218 243
-195.124 -301.529 -1620 191 219 248
-192.773 -302.968 -1628 189 216 250
-189.927 -303.664 -1632 191 218 253
-187.18 -304.547 -1637 201 220 248
-184.526 -305.616 -1643 110 127 152
-181.739 -306.499 -1648 56 68 84
-178.826 -307.197 -1652 56 66 80
-413.315 -304.314 -1589 179 197 218
-411.196 -305.162 -1594 188 210 235
-408.292 -305.436 -1596 185 208 235
-404.369 -304.946 -1594 146 173 212
-399.2 -303.5 -1587 127 157 191
-395.311 -303.012 -1585 163 195 226
-390.198 -301.57 -1578 187 213 243
-385.854 -300.704 -1574 194 219 250
-380.315 -298.883 -1565 197 223 255
-375.781 -297.828 -1560 195 221 253
-371.749 -297.157 -1557 195 221 251
-366.314 -295.342 -1548 192 220 250
-361.624 -294.102 -1542 191 219 248
-357.427 -293.244 -1538 195 223 251
-353.25 -292.388 -1534 199 223 248
-348.865 -291.343 -1529 203 227 249
-345.634 -291.251 -1529 211 236 254
-342.182 -290.97 -1528 212 238 255
-338.96 -290.881 -1528 210 237 255
-335.081 -290.221 -1525 207 235 255
-332.089 -290.324 -1526 207 231 254
-328.448 -289.857 -1524 208 233 255
-325.459 -289.962 -1525 208 231 253
-321.835 -289.496 -1523 206 228 253
-318.222 -289.033 -1521 201 224 251
-314.62 -288.57 -1519 204 225 253
-311.849 -288.868 -1521 200 224 252
-308.667 -288.787 -1521 196 224 253
-305.688 -288.896 -1522 195 223 252
-303.304 -289.576 -1526 169 197 232
-300.119 -289.497 -1526 165 193 225
-296.742 -289.23 -1525 173 201 232
-293.179 -288.773 -1523 192 219 243
-290.199 -288.887 -1524 209 235 253
-286.84 -288.622 -1523 208 236 255
-284.233 -289.116 -1526 187 217 247
-280.694 -288.664 -1524 181 212 253
-277.895 -288.97 -1526 157 188 233
-274.73 -288.898 -1526 150 182 225
-271.924 -289.206 -1528 140 170 211
-268.583 -288.947 -1527 161 189 229
-265.423 -288.877 -1527 173 199 240
-262.609 -289.187 -1529 192 216 251
-259.449 -289.119 -1529 196 215 250
-256.626 -289.431 -1531 177 203 237
-253.964 -289.931 -1534 177 204 239
-251.454 -290.622 -1538 176 208 247
-248.607 -290.935 -1540 184 216 254
-245.914 -291.438 -1543 182 213 252
-243.367 -292.13 -1547 176 205 243
-240.495 -292.445 -1549 174 202 240
-237.618 -292.761 -1551 175 202 239
-234.432 -292.7 -1551 176 201 244
-231.397 -292.829 -1552 178 202 246
-228.065 -292.581 -1551 183 207 249
-225.03 -292.711 -1552 189 213 253
-222.707 -293.785 -1558 191 215 254
-219.939 -294.293 -1561 189 213 252
-217.577 -295.368 -1567 188 213 250
-214.918 -296.066 -1571 181 208 238
-212.111 -296.577 -1574 180 206 232
-209.425 -297.276 -1578 181 207 232
-206.986 -298.353 -1584 184 210 234
-204.396 -299.241 -1589 189 215 241
-202.42 -301.072 -1599 195 220 249
-199.782 -301.962 -1604 193 221 247
-197.616 -303.605 -1613 190 218 244
-194.933 -304.496 -1618 193 220 252
-192.586 -305.951 -1626 192 219 254
-189.742 -306.655 -1630 188 216 253
-187.113 -307.735 -1636 190 211 242
-184.011 -308.064 -1638 127 144 172
-181.124 -308.769 -1642 73 82 100
-178.113 -309.287 -1645 70 77 92
-414.466 -308.431 -1593 177 197 218
-412.338 -309.288 -1598 183 203 224
-409.937 -309.952 -1602 185 206 228
-404.73 -308.488 -1595 145 172 212
-399.306 -306.833 -1587 129 157 195
-395.167 -306.147 -1584 160 189 226
-389.312 -304.11 -1574 184 211 243
-385.711 -303.813 -1573 193 220 251
-381.388 -302.938 -1569 192 220 249
-377.086 -302.064 -1565 186 213 248
-371.848 -300.42 -1557 187 214 249
-367.358 -299.357 -1552 193 220 252
-363.127 -298.488 -1548 203 230 255
-357.289 -296.271 -1537 209 237 255
-353.113 -295.406 -1533 208 234 255
-348.729 -294.349 -1528 209 235 255
-345.499 -294.257 -1528 213 239 255
-341.825 -293.781 -1526 212 238 255
-338.828 -293.883 -1527 205 231 255
-335.17 -293.408 -1525 200 225 255
-331.741 -293.127 -1524 201 227 251
-328.104 -292.655 -1522 202 228 250
-324.904 -292.568 -1522 203 229 253
-321.497 -292.291 -1521 203 229 254
-317.887 -291.822 -1519 199 225 251
-314.495 -291.546 -1518 192 219 247
-311.521 -291.655 -1519 187 214 243
-308.342 -291.573 -1519 185 210 242
-305.567 -291.876 -1521 192 218 251
-302.588 -291.988 -1522 204 229 255
-299.607 -292.1 -1523 199 224 253
-296.625 -292.213 -1524 198 225 253
-293.064 -291.752 -1522 204 233 254
-289.894 -291.675 -1522 212 238 255
-286.35 -291.216 -1520 209 235 255
-283.562 -291.524 -1522 195 223 253
-280.215 -291.259 -1521 190 220 254
-277.239 -291.377 -1522 166 196 240
-274.262 -291.496 -1523 147 179 223
-271.995 -292.381 -1528 132 163 204
-268.653 -292.118 -1527 148 178 218
-265.492 -292.048 -1527 155 184 220
-262.849 -292.553 -1530 156 183 220
-259.347 -292.102 -1528 177 201 237
-256.693 -292.608 -1531 170 197 232
-254.03 -293.114 -1534 160 187 223
-251.519 -293.812 -1538 164 195 236
-248.51 -293.938 -1539 164 196 238
-245.818 -294.446 -1542 157 190 232
-243.273 -295.146 -1546 153 184 227
-240.092 -295.082 -1546 162 192 235
-237.373 -295.593 -1549 170 198 239
-234.644 -296.104 -1552 173 199 243
-231.457 -296.043 -1552 170 196 241
-228.124 -295.792 -1551 170 194 236
-225.378 -296.305 -1554 178 203 242
-222.622 -296.818 -1557 181 208 243
-220.137 -297.714 -1562 187 212 244
-217.633 -298.61 -1567 190 215 246
-214.974 -299.315 -1571 191 218 244
-212.031 -299.641 -1573 195 221 247
-209.346 -300.348 -1577 199 225 252
-206.778 -301.246 -1582 207 233 253
-203.934 -301.764 -1585 204 231 252
-201.966 -303.615 -1595 193 220 245
-199.709 -305.085 -1603 190 217 243
-197.544 -306.747 -1612 191 218 245
-194.621 -307.266 -1615 197 224 255
-192.398 -308.928 -1624 197 224 255
-189.908 -310.21 -1631 189 216 252
-186.932 -310.732 -1634 181 205 235
-183.722 -310.874 -1635 116 137 164
-180.398 -310.827 -1635 63 77 95
-176.751 -310.21 -1632 61 70 86
-416.14 -312.959 -1599 169 191 213
-413.74 -313.629 -1603 167 188 211
-410.559 -313.713 -1604 186 207 231
-406.87 -313.406 -1603 161 188 225
-400.169 -310.756 -1590 112 139 176
-395.024 -309.28 -1583 119 145 182
-389.912 -307.807 -1576 149 175 207
-385.324 -306.725 -1571 165 192 222
-381.004 -305.841 -1567 185 213 240
-376.705 -304.958 -1563 199 227 254
-372.665 -304.271 -1560 204 232 255
-367.93 -303.001 -1554 201 228 255
-362.99 -301.538 -1547 199 227 255
-357.385 -299.492 -1537 201 229 255
-354.129 -299.396 -1537 201 226 254
-349.279 -297.938 -1530 201 226 251
-345.818 -297.65 -1529 202 226 248
-341.468 -296.585 -1524 202 228 252
-338.474 -296.688 -1525 203 228 253
-334.38 -295.819 -1521 206 231 255
-330.959 -295.536 -1520 211 235 255
-327.544 -295.253 -1519 212 236 255
-324.564 -295.36 -1520 208 234 255
-320.948 -294.885 -1518 205 231 255
-317.762 -294.799 -1518 204 230 255
-314.372 -294.521 -1517 201 229 255
-311.398 -294.631 -1518 199 227 253
-308.221 -294.548 -1518 192 219 247
-305.447 -294.854 -1520 189 216 247
-302.271 -294.773 -1520 209 235 255
-299.293 -294.887 -1521 197 222 250
-296.12 -294.807 -1521 197 224 252
-292.756 -294.535 -1520 201 229 254
-289.971 -294.845 -1522 201 229 254
-286.237 -294.187 -1519 198 225 252
-283.637 -294.692 -1522 194 221 254
-279.921 -294.036 -1519 200 229 254
-277.313 -294.543 -1522 194 224 255
-274.334 -294.663 -1523 168 200 243
-271.71 -295.171 -1526 137 169 211
-268.724 -295.293 -1527 145 177 218
-265.562 -295.222 -1527 169 199 235
-263.09 -295.925 -1531 174 203 239
-259.755 -295.662 -1530 191 217 250
-256.929 -295.98 -1532 174 200 234
-254.097 -296.299 -1534 142 168 203
-251.586 -297.005 -1538 140 170 211
-248.414 -296.938 -1538 144 175 217
-245.723 -297.452 -1541 151 184 227
-243.022 -297.967 -1544 165 197 239
-240 -298.096 -1545 176 208 249
-237.282 -298.611 -1548 176 205 248
-234.554 -299.128 -1551 177 204 248
-231.368 -299.066 -1551 180 206 250
-228.479 -299.391 -1553 183 207 246
-225.873 -300.102 -1557 189 214 250
-222.966 -300.429 -1559 194 221 253
-220.335 -301.141 -1563 199 224 252
-217.829 -302.047 -1568 200 226 252
-215.167 -302.76 -1572 201 227 251
-212.221 -303.089 -1574 203 228 251
-209.401 -303.611 -1577 207 232 254
-206.832 -304.519 -1582 214 241 255
-204.116 -305.235 -1586 211 238 254
-201.765 -306.528 -1593 199 227 248
-199.263 -307.63 -1599 194 221 245
-196.983 -309.117 -1607 194 220 246
-194.19 -309.835 -1611 192 219 251
-191.975 -311.515 -1620 189 215 248
-189.026 -312.042 -1623 190 215 248
-186.523 -313.339 -1630 183 211 239
-183.095 -313.098 -1629 117 143 169
-180.225 -313.819 -1633 52 72 91
-176.472 -313.004 -1629 52 65 82
-417.295 -317.119 -1603 159 181 204
-414.111 -317.203 -1604 163 185 211
-411.183 -317.485 -1606 189 211 239
-406.219 -316.187 -1600 171 197 230
-399.774 -313.706 -1588 103 129 163
-394.133 -311.819 -1579 120 144 181
-389.771 -310.922 -1575 154 179 212
-385.674 -310.224 -1572 181 207 238
-381.108 -309.133 -1567 202 230 252
-377.289 -308.635 -1565 205 234 254
-373.005 -307.743 -1561 206 235 255
-367.319 -305.671 -1551 207 235 255
-362.619 -304.389 -1545 204 232 255
-357.714 -302.912 -1538 201 229 254
-353.303 -301.831 -1533 205 230 255
-348.916 -300.751 -1528 206 231 254
-345.911 -300.853 -1529 208 231 254
-341.785 -299.973 -1525 208 234 255
-338.122 -299.487 -1523 209 235 255
-334.47 -299.003 -1521 209 235 255
-331.266 -298.912 -1521 212 236 255
-327.848 -298.627 -1520 212 235 255
-324.438 -298.342 -1519 208 234 255
-321.035 -298.058 -1518 204 230 255
-317.848 -297.972 -1518 200 226 253
-314.456 -297.69 -1517 198 226 253
-311.277 -297.605 -1517 199 227 253
-308.1 -297.521 -1517 193 221 248
-305.328 -297.831 -1519 189 217 247
-302.153 -297.749 -1519 202 229 255
-298.98 -297.668 -1519 189 215 245
-295.81 -297.588 -1519 189 216 245
-292.834 -297.704 -1520 191 219 245
-289.667 -297.626 -1520 184 212 241
-286.314 -297.352 -1519 179 207 237
-283.153 -297.276 -1519 173 202 237
-279.995 -297.2 -1519 174 204 244
-277.204 -297.516 -1521 175 205 247
-274.408 -297.833 -1523 158 190 232
-271.961 -298.542 -1527 131 164 206
-268.972 -298.665 -1528 141 175 217
-265.807 -298.593 -1528 176 207 245
-262.988 -298.913 -1530 190 220 251
-259.824 -298.843 -1530 193 220 250
-257.165 -299.36 -1533 185 210 244
-254.33 -299.682 -1535 173 198 232
-251.653 -300.2 -1538 165 196 235
-248.48 -300.133 -1538 165 196 236
-245.789 -300.652 -1541 167 199 239
-242.772 -300.782 -1542 170 202 243
-239.598 -300.717 -1542 174 205 247
-236.732 -301.044 -1544 175 205 248
-233.86 -301.371 -1546 183 211 252
-231.28 -302.088 -1550 195 222 255
-228.098 -302.027 -1550 200 224 255
-225.207 -302.356 -1552 199 225 255
-222.596 -303.076 -1556 201 229 255
-219.971 -303.796 -1560 204 231 254
-217.331 -304.517 -1564 208 234 254
-214.95 -305.627 -1570 206 232 254
-212.142 -306.154 -1573 205 230 255
-209.324 -306.682 -1576 204 229 255
-206.626 -307.405 -1580 204 231 254
-203.913 -308.129 -1584 204 231 254
-201.692 -309.631 -1592 201 229 250
-198.817 -310.161 -1595 202 229 250
-196.667 -311.859 -1604 198 224 246
-193.879 -312.584 -1608 198 225 255
-191.67 -314.283 -1617 199 226 255
-188.842 -315.01 -1621 200 226 255
-186.229 -316.126 -1627 194 222 250
-183.031 -316.271 -1628 141 167 194
-180.493 -317.583 -1635 69 90 110
-177.169 -317.535 -1635 67 82 99
-173.421 -316.712 -1631 72 84 99
-418.191 -321.099 -1606 166 189 212
-415.517 -321.583 -1609 164 187 214
-411.553 -321.069 -1607 186 209 239
-406.331 -319.557 -1600 189 214 244
-400.136 -317.249 -1589 118 142 174
-394.491 -315.342 -1580 117 139 176
-389.63 -314.036 -1574 157 182 215
-385.044 -312.932 -1569 180 206 238
-381.213 -312.427 -1567 197 224 251
-377.152 -311.725 -1564 208 236 254
-372.151 -310.226 -1557 211 240 255
-367.657 -309.128 -1552 210 239 255
-363.422 -308.231 -1548 206 234 254
-358.277 -306.539 -1540 206 234 255
-354.091 -305.644 -1536 210 236 255
-349.697 -304.553 -1531 214 239 255
-345.78 -303.861 -1528 218 242 255
-341.205 -302.573 -1522 218 244 255
-337.548 -302.082 -1520 214 241 255
-333.902 -301.593 -1518 208 234 252
-330.267 -301.105 -1516 203 227 250
-327.075 -301.014 -1516 198 221 247
-323.885 -300.925 -1516 194 219 247
-320.699 -300.837 -1516 194 219 248
-317.725 -300.948 -1517 190 215 245
-314.334 -300.663 -1516 185 212 245
-311.156 -300.578 -1516 186 213 247
-307.778 -300.295 -1515 187 214 249
-305.009 -300.608 -1517 187 214 247
-301.638 -300.327 -1516 194 221 254
-298.47 -300.245 -1516 175 202 238
-295.5 -300.362 -1517 171 198 233
-292.336 -300.282 -1517 176 203 236
-289.555 -300.598 -1519 184 211 242
-286.203 -300.322 -1518 180 208 240
-283.603 -300.838 -1521 180 208 246
-280.624 -300.959 -1522 174 205 245
-277.826 -301.279 -1524 168 200 241
-274.842 -301.401 -1525 168 200 242
-272.212 -301.92 -1528 156 188 231
-269.044 -301.847 -1528 146 180 223
-266.053 -301.971 -1529 170 201 238
-263.059 -302.097 -1530 165 195 232
-260.234 -302.421 -1532 177 204 238
-257.402 -302.746 -1534 178 203 238
-254.398 -302.874 -1535 172 197 232
-251.557 -303.2 -1537 164 195 233
-248.547 -303.33 -1538 164 195 234
-245.536 -303.46 -1539 169 201 241
-242.207 -303.197 -1538 179 211 250
-239.196 -303.329 -1539 185 216 254
-236.029 -303.265 -1539 188 218 253
-233.318 -303.793 -1542 190 218 253
-231.193 -305.109 -1549 194 221 254
-228.012 -305.047 -1549 193 219 253
-225.412 -305.774 -1553 190 217 251
-222.799 -306.501 -1557 192 219 250
-220.03 -307.031 -1560 193 219 245
-217.111 -307.366 -1562 194 220 244
-214.597 -308.292 -1567 193 219 240
-211.929 -309.021 -1571 199 225 249
-209.247 -309.752 -1575 209 234 255
-206.55 -310.482 -1579 218 246 255
-203.838 -311.214 -1583 219 248 255
-201.239 -312.142 -1588 211 240 255
-198.87 -313.464 -1595 207 233 251
-196.106 -314.197 -1599 200 226 244
-193.449 -315.127 -1604 198 225 255
-191.009 -316.451 -1611 199 226 255
-188.427 -317.579 -1617 197 224 255
-186.05 -319.099 -1625 198 225 254
-183.08 -319.639 -1628 181 208 237
-180.651 -321.161 -1636 142 164 186
-176.891 -320.328 -1632 141 158 175
-419.924 -323.192 -1599 201 219 240
-420.131 -325.903 -1613 171 194 217
-416.924 -325.988 -1614 169 192 218
-412.692 -325.265 -1611 178 200 230
-406.19 -322.728 -1599 191 215 243
-400.248 -320.597 -1589 141 165 195
-394.351 -318.469 -1579 110 132 168
-389.738 -317.351 -1574 170 195 228
-385.397 -316.436 -1570 183 209 241
-381.562 -315.926 -1568 197 224 249
-376.774 -314.611 -1562 212 240 255
-372.493 -313.701 -1558 215 244 255
-367.996 -312.592 -1553 215 244 255
-363.523 -311.483 -1548 213 242 255
-358.144 -309.572 -1539 213 242 255
-353.959 -308.669 -1535 218 245 255
-349.337 -307.365 -1529 220 246 254
-345.196 -306.464 -1525 220 245 254
-341.075 -305.565 -1521 214 239 254
-337.197 -304.868 -1518 207 233 250
-333.774 -304.574 -1517 200 225 250
-330.14 -304.081 -1515 194 218 244
-327.165 -304.19 -1516 192 215 242
-323.975 -304.1 -1516 190 215 244
-320.787 -304.011 -1516 191 216 245
-317.603 -303.923 -1516 190 215 245
-314.628 -304.036 -1517 190 216 248
-311.242 -303.749 -1516 192 218 251
-308.065 -303.664 -1516 195 221 253
-304.892 -303.579 -1516 197 224 255
-301.522 -303.295 -1515 202 229 255
-298.552 -303.412 -1516 176 203 240
-295.386 -303.331 -1516 185 212 245
-292.223 -303.25 -1516 193 221 250
-289.062 -303.17 -1516 195 222 254
-285.904 -303.091 -1516 190 217 251
-282.934 -303.212 -1517 190 218 255
-280.148 -303.535 -1519 182 213 252
-277.538 -304.057 -1522 173 205 246
-274.557 -304.181 -1523 176 209 253
-271.93 -304.706 -1526 174 207 248
-269.118 -305.031 -1528 159 192 234
-266.125 -305.157 -1529 162 193 231
-262.959 -305.084 -1529 154 185 221
-260.304 -305.611 -1532 154 183 217
-257.136 -305.54 -1532 157 184 220
-254.302 -305.869 -1534 170 196 233
-251.625 -306.398 -1537 168 199 235
-248.453 -306.33 -1537 167 198 235
-245.443 -306.462 -1538 168 200 239
-241.958 -305.996 -1536 177 208 246
-238.95 -306.13 -1537 183 214 252
-236.093 -306.463 -1539 186 216 253
-233.684 -307.395 -1544 187 215 253
-230.957 -307.929 -1547 190 217 254
-228.368 -308.662 -1551 193 220 251
-225.619 -309.197 -1554 195 222 252
-222.716 -309.534 -1556 202 229 254
-219.948 -310.071 -1559 206 232 255
-217.031 -310.409 -1561 209 235 255
-214.518 -311.344 -1566 208 234 253
-211.717 -311.883 -1569 207 233 254
-209.171 -312.82 -1574 205 231 254
-206.475 -313.558 -1578 207 236 254
-203.636 -314.098 -1581 211 240 255
-200.913 -314.838 -1585 212 241 255
-198.176 -315.578 -1589 211 238 253
-195.669 -316.716 -1595 206 232 248
-192.777 -317.259 -1598 199 226 255
-190.468 -318.796 -1606 197 224 255
-187.778 -319.737 -1611 196 223 255
-185.527 -321.472 -1620 195 222 255
-182.679 -322.216 -1624 194 221 250
-180.258 -323.754 -1632 167 193 215
-176.397 -322.714 -1627 152 172 191
-419.517 -326.162 -1597 199 218 240
-419.989 -329.106 -1612 181 203 226
-416.525 -328.987 -1612 182 203 229
-412.04 -328.053 -1608 186 207 236
-406.813 -326.51 -1601 194 217 244
-400.36 -323.948 -1589 187 210 238
-394.462 -321.798 -1579 149 171 205
-390.096 -320.872 -1575 185 210 239
-385.014 -319.336 -1568 189 216 247
-380.695 -318.414 -1564 202 229 251
-375.673 -316.882 -1557 214 242 255
-371.88 -316.37 -1555 215 243 255
-367.151 -315.045 -1549 217 246 255
-362.92 -314.129 -1545 216 244 255
-358.709 -313.214 -1541 214 243 254
-354.288 -312.098 -1536 219 247 254
-349.663 -310.78 -1530 215 241 252
-345.519 -309.87 -1526 212 237 249
-341.619 -309.164 -1523 205 231 249
-337.735 -308.46 -1520 199 225 245
-333.867 -307.757 -1517 198 223 250
-330.232 -307.259 -1515 200 224 249
-327.472 -307.572 -1517 204 227 251
-323.851 -307.076 -1515 205 230 254
-320.876 -307.188 -1516 204 229 254
-317.9 -307.301 -1517 203 229 254
-314.716 -307.213 -1517 204 229 255
-311.328 -306.923 -1516 205 231 255
-308.151 -306.836 -1516 205 231 255
-304.976 -306.751 -1516 202 229 255
-301.605 -306.464 -1515 201 229 255
-298.635 -306.583 -1516 172 199 235
-295.468 -306.5 -1516 196 224 252
-292.111 -306.216 -1515 195 224 247
-289.142 -306.337 -1516 191 219 252
-285.983 -306.257 -1516 188 215 250
-283.013 -306.38 -1517 184 213 252
-280.225 -306.706 -1519 179 210 252
-277.796 -307.436 -1523 178 210 252
-274.272 -306.956 -1521 173 207 253
-271.649 -307.485 -1524 170 204 247
-268.84 -307.814 -1526 165 197 236
-265.85 -307.941 -1527 149 180 217
-262.687 -307.868 -1527 136 167 205
-260.206 -308.602 -1531 145 176 214
-257.375 -308.934 -1533 167 196 233
-254.538 -309.266 -1535 182 210 248
-251.53 -309.397 -1536 180 211 246
-248.521 -309.53 -1537 184 215 251
-245.35 -309.462 -1537 182 214 251
-242.024 -309.193 -1536 183 214 251
-239.015 -309.328 -1537 184 215 252
-236.004 -309.464 -1538 188 217 252
-233.293 -310.002 -1541 186 214 250
-230.871 -310.944 -1546 188 215 253
-228.283 -311.685 -1550 197 224 255
-225.39 -312.025 -1552 200 227 255
-222.634 -312.567 -1555 202 229 255
-219.585 -312.707 -1556 206 232 255
-216.812 -313.249 -1559 209 235 255
-214.577 -314.596 -1566 211 237 253
-211.774 -315.14 -1569 213 239 254
-209.095 -315.886 -1573 211 237 254
-206.4 -316.632 -1577 210 239 252
-203.82 -317.58 -1582 210 239 252
-200.714 -317.725 -1583 211 240 254
-198.105 -318.674 -1588 213 240 254
-195.354 -319.422 -1592 208 234 250
-192.588 -320.172 -1596 199 226 255
-189.927 -321.122 -1601 194 221 254
-187.363 -322.274 -1607 189 216 250
-185.234 -324.228 -1617 183 210 246
-182.166 -324.579 -1619 197 224 254
-179.976 -326.534 -1629 187 215 240
-176.336 -325.884 -1626 161 183 203
-422.527 -331.809 -1608 200 220 241
-421.152 -333.338 -1616 199 221 244
-417.678 -333.218 -1616 196 217 241
-412.926 -332.069 -1611 196 216 243
-406.929 -329.89 -1601 199 222 249
-400.474 -327.302 -1589 194 217 245
-395.074 -325.541 -1581 171 193 226
-390.454 -324.4 -1576 203 227 248
-384.877 -322.437 -1567 198 223 253
-380.803 -321.71 -1564 208 235 255
-376.263 -320.574 -1559 211 237 255
-371.507 -319.234 -1553 208 234 255
-366.544 -317.69 -1546 209 235 255
-362.788 -317.175 -1544 208 234 255
-358.112 -315.841 -1538 207 234 254
-353.927 -314.918 -1534 210 235 255
-349.305 -313.587 -1528 205 230 254
-345.616 -313.078 -1526 205 228 251
-341.491 -312.16 -1522 204 229 253
-337.83 -311.653 -1520 203 229 253
-334.401 -311.353 -1519 209 233 253
-331.415 -311.463 -1520 214 238 254
-327.996 -311.165 -1519 219 243 255
-324.797 -311.073 -1519 216 242 255
-321.602 -310.982 -1519 211 237 254
-318.409 -310.891 -1519 210 236 255
-315.011 -310.597 -1518 210 236 255
-311.416 -310.1 -1516 207 233 252
-308.237 -310.012 -1516 205 231 255
-304.86 -309.721 -1515 204 232 255
-301.49 -309.431 -1514 201 230 255
-298.521 -309.551 -1515 166 194 232
-295.551 -309.672 -1516 189 218 250
-292.193 -309.385 -1515 186 217 243
-289.223 -309.508 -1516 185 213 247
-286.063 -309.427 -1516 183 212 247
-282.905 -309.347 -1516 179 209 249
-280.119 -309.676 -1518 177 209 251
-277.327 -310.005 -1520 175 208 252
-274.348 -310.132 -1521 174 209 254
-271.546 -310.463 -1523 181 215 255
