ply
format ascii 1.0
comment Created by Open3D
element vertex 1488
property double x
property double y
property double z
property uchar red
property uchar green
property uchar blue
end_header
-253.601 170.672 -1647 62 63 73
-250.244 170.637 -1647 60 61 71
-247.34 170.913 -1650 60 61 71
-244.129 170.982 -1651 60 61 71
-240.624 170.844 -1650 59 60 70
-237.557 171.017 -1652 58 59 69
-234.2 170.984 -1652 59 60 70
-231.125 171.159 -1654 61 62 72
-227.768 171.126 -1654 61 63 70
-224.82 171.405 -1657 62 63 72
-221.594 171.477 -1658 64 65 77
-218.761 171.86 -1662 66 68 79
-215.525 171.933 -1663 64 67 78
-212.542 172.213 -1666 61 64 75
-209.548 172.494 -1669 59 61 72
-206.297 172.568 -1670 58 59 71
-203.043 172.643 -1671 59 60 72
-199.787 172.718 -1672 57 58 70
-196.294 172.587 -1671 56 57 69
-192.922 172.56 -1671 59 60 73
-189.324 172.326 -1669 63 64 78
-186.071 172.403 -1670 64 65 76
-182.596 172.274 -1669 63 64 75
-179.448 172.456 -1671 61 62 74
-176.084 172.431 -1671 62 63 77
-172.721 172.407 -1671 62 63 77
-169.562 172.589 -1673 64 65 78
-166.396 172.772 -1675 69 69 82
-163.224 172.955 -1677 70 69 83
-160.14 173.242 -1680 68 67 81
-157.512 174.045 -1688 66 65 79
-154.67 174.642 -1694 51 52 64
-151.806 175.239 -1700 47 48 59
-148.919 175.836 -1706 46 47 57
-145.583 175.919 -1707 49 50 60
-142.243 176.002 -1708 50 51 61
-138.901 176.085 -1709 54 55 65
-135.398 175.963 -1708 56 57 66
-132.054 176.048 -1709 55 57 65
-128.933 176.442 -1713 54 55 65
-125.504 176.424 -1713 53 54 64
-122.147 176.51 -1714 50 51 62
-118.787 176.596 -1715 45 46 57
-115.425 176.683 -1716 46 47 58
-111.928 176.564 -1715 47 48 59
-108.69 176.858 -1718 44 45 56
-105.256 176.843 -1718 45 46 57
-101.883 176.931 -1719 48 49 60
-98.2777 176.609 -1716 48 49 61
-94.9062 176.698 -1717 48 49 61
-91.4247 176.582 -1716 49 50 62
-88.102 176.776 -1718 50 52 60
-84.6733 176.764 -1718 49 51 59
-81.3871 177.061 -1721 48 50 57
-78.0445 177.256 -1723 50 51 61
-74.5645 177.142 -1722 50 51 61
-71.0478 176.926 -1720 49 50 60
-67.6182 176.917 -1720 52 53 63
-64.152 176.805 -1719 54 55 65
-60.6901 176.693 -1718 53 54 64
-57.3329 176.891 -1720 55 56 66
-53.9053 176.883 -1720 55 56 66
-50.5076 176.979 -1721 56 57 67
-47.0789 176.972 -1721 58 59 69
-43.7014 177.171 -1723 57 59 66
-40.2461 177.063 -1722 53 55 62
-36.795 176.955 -1721 48 50 57
-33.426 177.258 -1724 47 49 56
-30.0104 177.357 -1725 49 51 58
-26.5756 177.353 -1725 50 52 59
-23.1276 177.246 -1724 50 52 61
-19.6838 177.141 -1723 52 53 63
-16.2535 177.138 -1723 55 56 66
-12.8085 176.931 -1721 56 57 67
-9.39341 177.135 -1723 54 55 65
-5.97396 177.442 -1726 53 54 64
-2.5424 177.75 -1729 54 55 65
0.899321 177.75 -1729 54 55 65
4.34125 177.75 -1729 56 57 67
7.78752 177.854 -1730 58 59 69
11.2183 177.65 -1728 59 60 70
14.667 177.754 -1729 59 60 71
18.1299 177.962 -1731 59 60 72
21.5888 178.068 -1732 58 59 71
25.0515 178.174 -1733 57 58 70
28.5022 178.177 -1733 56 57 71
31.9161 177.976 -1731 56 57 71
35.302 177.672 -1728 58 59 73
38.7433 177.677 -1728 60 61 75
42.1852 177.683 -1728 61 62 76
45.7063 177.997 -1731 60 59 71
49.2116 178.21 -1733 60 59 71
52.7554 178.525 -1736 62 61 73
56.3119 178.841 -1739 62 58 71
59.7432 178.747 -1738 56 52 66
63.2072 178.755 -1738 55 54 68
66.6335 178.661 -1737 60 59 73
70.0563 178.568 -1736 62 61 75
73.5181 178.578 -1736 66 61 74
77.1135 178.897 -1739 70 61 73
80.6288 179.011 -1740 78 65 75
84.1487 179.125 -1741 145 116 101
87.7739 179.446 -1744 201 169 146
91.3595 179.664 -1746 208 167 118
95.0081 179.985 -1749 219 164 112
98.726 180.411 -1753 224 160 107
102.344 180.63 -1755 219 158 106
105.91 180.748 -1756 215 155 103
109.357 180.66 -1755 212 153 101
112.865 180.675 -1755 212 150 102
116.24 180.485 -1753 209 147 100
119.883 180.708 -1755 205 143 98
123.393 180.725 -1755 205 143 97
126.833 180.639 -1754 206 144 98
130.269 180.554 -1753 205 145 103
133.626 180.366 -1751 208 148 109
137.133 180.385 -1751 214 154 118
140.641 180.404 -1751 219 158 126
144.314 180.63 -1753 218 157 125
147.997 180.857 -1755 214 153 123
151.689 181.084 -1757 211 152 119
155.302 181.208 -1758 207 149 115
159.011 181.436 -1760 200 143 108
162.544 181.459 -1760 198 141 107
166.362 181.791 -1763 196 140 106
169.808 181.711 -1762 199 138 107
173.841 182.251 -1767 202 142 110
177.193 182.069 -1765 204 145 113
181.05 182.403 -1768 208 147 113
185.026 182.842 -1772 206 147 112
188.699 182.971 -1773 204 146 110
192.487 183.204 -1775 196 144 104
196.284 183.437 -1777 194 143 102
200.091 183.672 -1779 195 144 103
203.45 183.493 -1777 193 144 103
207.152 183.625 -1778 190 142 101
210.504 183.448 -1776 192 144 103
214.332 183.684 -1778 196 146 104
218.292 184.025 -1781 200 149 106
221.893 184.055 -1781 198 151 108
225.748 184.294 -1783 198 153 111
229.485 184.429 -1784 195 152 111
233.228 184.565 -1785 188 149 108
237.242 184.908 -1788 188 149 108
241.27 185.252 -1791 189 148 109
245.176 185.493 -1793 183 144 106
248.953 185.631 -1794 179 143 106
252.736 185.77 -1795 169 138 107
256.239 185.702 -1794 162 135 107
260.32 186.049 -1797 158 132 105
264.122 186.189 -1798 148 124 95
267.483 186.019 -1796 139 120 96
271.593 186.368 -1799 136 117 96
275.106 186.303 -1798 124 108 98
276.756 184.995 -1785 115 102 96
280.869 185.345 -1788 110 98 94
384.262 194.063 -1861 92 86 92
389.173 194.639 -1866 100 85 80
393.897 195.113 -1870 115 93 87
398.641 195.586 -1874 130 105 98
402.546 195.644 -1874 141 113 106
407.322 196.119 -1878 148 111 104
410.804 195.969 -1876 156 116 108
414.06 195.715 -1873 159 115 105
418.647 196.088 -1876 163 115 101
423.474 196.566 -1880 165 116 101
427.64 196.732 -1881 168 117 101
433.879 197.84 -1891 165 116 100
438.775 198.321 -1895 161 111 99
443.224 198.594 -1897 155 106 94
446.977 198.553 -1896 154 108 95
450.493 198.408 -1894 187 135 120
453.524 198.054 -1890 220 165 150
456.3 197.596 -1885 230 172 157
459.303 197.242 -1881 222 167 155
461.554 196.575 -1874 202 147 136
463.78 195.907 -1867 182 127 116
463.475 194.19 -1850 154 103 92
464.618 193.102 -1839 132 90 80
466.737 192.434 -1832 131 93 84
469.088 191.872 -1826 146 117 103
472.194 191.625 -1823 167 139 131
476.075 191.693 -1823 203 176 166
480.224 191.868 -1824 239 215 199
484.911 192.254 -1827 253 234 221
489.616 192.64 -1830 255 235 221
493.529 192.712 -1830 239 211 196
499.35 193.521 -1837 231 203 189
503.834 193.805 -1839 250 220 207
508.608 194.195 -1842 255 233 220
513.4 194.586 -1845 255 237 224
517.648 194.767 -1846 253 238 228
519.927 194.209 -1840 236 218 212
525.316 194.813 -1845 184 167 163
-688.689 168.715 -1575 217 201 200
-681.889 167.861 -1568 225 210 209
-675.993 167.222 -1563 227 213 214
-668.425 169.489 -1589 243 235 237
-660.115 169.075 -1587 237 228 230
-649.36 167.165 -1570 244 236 238
-644.036 166.642 -1566 243 234 237
-642.01 166.971 -1570 241 229 227
-638.344 166.874 -1570 235 220 218
-633.068 166.354 -1566 221 205 201
-631.836 166.896 -1572 180 166 167
-625.787 166.164 -1566 100 92 94
-618.581 165.116 -1557 59 55 58
-613.791 164.706 -1554 57 53 58
-609.807 164.508 -1553 54 50 56
-606.224 164.417 -1553 51 48 55
-603.423 164.539 -1555 48 47 54
-600.618 164.66 -1557 52 50 57
-597.043 164.571 -1557 51 48 56
-593.474 164.482 -1557 50 49 57
-589.911 164.394 -1557 48 47 56
-586.353 164.307 -1557 45 44 54
-582.801 164.22 -1557 47 44 52
-579.998 164.345 -1559 46 44 52
-577.192 164.47 -1561 44 43 52
-574.015 164.49 -1562 45 44 54
-570.839 164.511 -1563 49 48 58
-567.301 164.427 -1563 51 50 60
-564.129 164.448 -1564 52 51 61
-560.241 164.26 -1563 52 51 61
-557.431 164.388 -1565 54 53 63
-554.618 164.516 -1567 56 55 63
-552.152 164.749 -1570 55 53 62
-548.629 164.669 -1570 54 51 61
-546.501 165.008 -1574 50 49 59
-544.015 165.242 -1577 46 46 56
-540.835 165.267 -1578 44 45 55
-537.315 165.188 -1578 43 46 55
-534.815 165.424 -1581 44 47 55
-531.299 165.346 -1581 48 50 57
-528.789 165.582 -1584 48 49 61
-525.607 165.61 -1585 46 47 59
-522.097 165.533 -1585 46 47 59
-518.918 165.562 -1586 47 48 58
-515.74 165.591 -1587 45 46 56
-511.916 165.412 -1586 46 47 57
-509.063 165.546 -1588 47 48 58
-505.888 165.577 -1589 47 48 58
-502.714 165.608 -1590 47 48 58
-499.539 165.64 -1591 47 48 58
-496.364 165.672 -1592 48 49 59
-493.499 165.808 -1594 49 50 61
-490.323 165.841 -1595 49 51 59
-487.452 165.978 -1597 49 51 58
-484.576 166.116 -1599 48 50 57
-481.997 166.358 -1602 47 49 56
-479.111 166.496 -1604 47 49 55
-476.813 166.843 -1608 48 50 56
-473.325 166.774 -1608 48 50 57
-469.841 166.706 -1608 48 50 57
-466.362 166.639 -1608 49 51 58
-462.598 166.469 -1607 52 54 61
-459.129 166.403 -1607 50 52 60
-456.231 166.544 -1609 49 50 60
-452.766 166.479 -1609 50 51 61
-449.863 166.621 -1611 47 52 61
-446.402 166.558 -1611 46 51 60
-443.219 166.597 -1612 48 53 62
-439.49 166.431 -1611 48 51 60
-437.123 166.782 -1615 48 51 60
-434.475 167.029 -1618 45 48 57
-432.349 167.484 -1623 42 45 54
-429.15 167.525 -1624 40 43 52
-426.998 167.98 -1629 39 41 48
-423.269 167.817 -1628 38 38 46
-420.579 168.066 -1631 43 40 48
-417.369 168.11 -1632 48 47 57
-413.397 167.845 -1630 52 52 62
-409.186 167.478 -1627 52 53 63
-404.992 167.111 -1624 47 47 57
-401.308 166.951 -1623 35 35 45
-397.631 166.792 -1622 36 35 45
-394.449 166.839 -1623 47 47 58
-391.025 166.783 -1623 58 59 71
-387.604 166.728 -1623 60 61 73
-384.423 166.776 -1624 58 59 71
-381.476 166.928 -1626 55 56 68
-377.826 166.772 -1625 55 56 68
-374.645 166.821 -1626 60 61 73
-370.549 166.461 -1623 60 61 73
-367.148 166.409 -1623 61 62 74
-363.526 166.255 -1622 60 61 73
-360.8 166.512 -1625 60 63 76
-357.623 166.564 -1626 57 60 73
-354.664 166.719 -1628 55 56 68
-351.484 166.772 -1629 55 56 68
-348.089 166.723 -1629 56 57 69
-344.908 166.777 -1630 60 61 73
-341.936 166.933 -1632 62 63 75
-339.165 167.192 -1635 57 58 70
-335.975 167.247 -1636 57 57 71
-332.986 167.405 -1638 61 61 75
-329.791 167.461 -1639 62 63 76
-326.196 167.313 -1638 61 62 74
-322.411 167.064 -1636 57 58 70
-319.417 167.223 -1638 53 54 66
-316.803 167.587 -1642 51 52 63
-313.794 167.747 -1644 49 50 60
-310.968 168.01 -1647 50 52 60
-308.132 168.273 -1650 49 51 58
-305.102 168.434 -1652 50 52 59
-302.248 168.698 -1655 50 51 59
-299.566 169.064 -1659 42 43 50
-296.869 169.43 -1663 34 37 44
-293.806 169.593 -1665 34 37 44
-290.214 169.45 -1664 39 38 46
-286.972 169.512 -1665 45 44 52
-283.048 169.167 -1662 56 55 63
-279.139 168.823 -1659 56 58 67
-275.244 168.479 -1656 60 61 70
-271.528 168.238 -1654 59 59 68
-267.498 167.794 -1650 58 59 69
-263.647 167.452 -1647 59 60 70
-260.285 167.416 -1647 58 59 69
-257.08 167.482 -1648 61 62 72
-253.566 167.345 -1647 62 63 73
-250.362 167.412 -1648 60 61 71
-247.305 167.581 -1650 61 62 72
-243.947 167.547 -1650 60 61 71
-240.591 167.514 -1650 60 61 71
-237.668 167.785 -1653 58 59 69
-234.31 167.753 -1653 58 59 69
-231.233 167.924 -1655 59 60 70
-227.874 167.892 -1655 60 62 69
-225.06 168.267 -1659 62 64 73
-221.697 168.236 -1659 64 65 77
-218.863 168.611 -1663 65 67 78
-215.495 168.581 -1663 65 67 78
-212.512 168.856 -1666 62 65 76
-209.393 169.03 -1668 59 61 73
-206.392 169.305 -1671 57 58 70
-203.137 169.378 -1672 57 58 70
-199.76 169.351 -1672 55 56 68
-196.384 169.324 -1672 56 57 69
-192.895 169.196 -1671 57 58 71
-189.185 168.866 -1668 60 61 75
-185.711 168.739 -1667 62 63 74
-182.242 168.613 -1666 65 66 77
-179.209 168.891 -1669 62 63 75
-175.954 168.968 -1670 63 64 77
-172.8 169.147 -1672 63 64 77
-169.437 169.123 -1672 63 64 76
-166.472 169.505 -1676 65 66 78
-163.298 169.685 -1678 68 67 81
-160.308 170.067 -1682 69 68 82
-157.49 170.652 -1688 67 66 80
-154.649 171.237 -1694 51 52 64
-151.607 171.621 -1698 47 48 59
-148.637 172.106 -1703 46 47 57
-145.392 172.288 -1705 49 50 60
-142.141 172.47 -1707 49 50 60
-138.801 172.552 -1708 52 53 63
-135.459 172.634 -1709 54 56 64
-132.113 172.717 -1710 54 56 63
-128.915 173.002 -1713 52 53 63
-125.487 172.985 -1713 52 53 63
-122.273 173.271 -1716 49 50 60
-118.84 173.255 -1716 47 48 58
-115.476 173.34 -1717 49 50 60
-111.978 173.223 -1716 50 51 61
-108.612 173.309 -1717 47 48 59
-105.242 173.396 -1718 47 48 58
-101.81 173.382 -1718 47 48 59
-98.3215 173.267 -1717 47 48 60
-95.0037 173.456 -1719 48 49 61
-91.572 173.443 -1719 50 51 62
-88.1924 173.532 -1720 50 52 59
-84.8095 173.621 -1721 49 51 58
-81.4706 173.811 -1723 48 50 57
-77.9884 173.7 -1722 51 52 62
-74.5109 173.588 -1721 51 52 62
-71.038 173.478 -1720 50 51 61
-67.5304 173.266 -1718 50 51 61
-64.1058 173.258 -1718 53 54 64
-60.6112 173.047 -1716 55 56 66
-57.325 173.443 -1720 57 58 68
-53.8979 173.435 -1720 55 56 66
-50.4713 173.428 -1720 56 57 67
-47.0725 173.522 -1721 53 55 64
-43.7208 173.819 -1724 46 48 55
-40.264 173.712 -1723 43 45 52
-36.8542 173.808 -1724 44 46 53
-33.4602 174.005 -1726 46 48 54
-30.041 174.101 -1727 48 50 56
-26.5873 173.996 -1726 49 51 58
-23.1512 173.993 -1726 49 50 59
-19.6925 173.789 -1724 52 53 63
-16.2514 173.685 -1723 55 56 66
-12.829 173.784 -1724 55 56 66
-9.40851 173.984 -1726 53 54 64
-5.98354 174.286 -1729 52 53 63
-2.54353 174.386 -1730 52 53 63
0.89971 174.386 -1730 52 53 63
4.33794 174.185 -1728 54 55 65
7.77295 174.085 -1727 56 57 67
11.2103 174.086 -1727 57 58 68
14.665 174.289 -1729 58 59 70
18.1275 174.493 -1731 59 60 72
21.5856 174.597 -1732 57 58 70
25.0626 174.801 -1734 56 57 69
28.4982 174.704 -1733 56 57 71
31.9118 174.507 -1731 57 58 72
35.3379 174.411 -1730 58 59 73
38.7829 174.416 -1730 60 61 75
42.2037 174.32 -1729 61 62 76
45.7265 174.629 -1732 57 56 66
49.2615 174.938 -1735 53 52 63
52.8395 175.348 -1739 54 53 65
56.3366 175.456 -1740 58 54 67
59.7693 175.363 -1739 57 54 67
63.1986 175.271 -1738 57 56 70
66.6245 175.179 -1737 59 58 72
70.087 175.188 -1737 60 59 73
73.5503 175.198 -1737 66 61 74
77.1915 175.611 -1741 70 61 71
80.7103 175.723 -1742 93 77 85
84.2338 175.835 -1743 162 131 111
87.8625 176.15 -1746 194 159 133
91.5039 176.464 -1749 202 155 109
94.9951 176.477 -1749 210 154 102
98.8248 177.096 -1755 213 151 97
102.446 177.311 -1757 209 147 98
106.016 177.426 -1758 205 144 95
109.591 177.542 -1759 203 143 94
113.17 177.658 -1760 203 141 96
116.49 177.371 -1757 198 136 92
120.139 177.589 -1759 191 129 87
123.587 177.505 -1758 189 127 86
127.032 177.421 -1757 189 127 86
130.474 177.337 -1756 188 128 91
133.837 177.153 -1754 192 132 97
137.427 177.273 -1755 197 136 105
140.862 177.191 -1754 201 140 114
144.377 177.21 -1754 202 141 115
148.314 177.735 -1759 200 139 112
151.841 177.756 -1759 193 136 107
155.723 178.181 -1763 190 133 103
159.26 178.203 -1763 184 129 97
163.168 178.629 -1767 185 131 99
166.716 178.652 -1767 184 131 100
170.169 178.573 -1766 191 133 104
173.522 178.395 -1764 193 136 106
177.068 178.419 -1764 195 139 109
181.128 178.949 -1769 201 142 108
185 179.277 -1772 200 142 108
188.78 179.505 -1774 196 141 106
192.894 180.037 -1779 187 138 101
196.368 179.963 -1778 184 137 99
199.951 179.99 -1778 184 137 99
203.422 179.917 -1777 181 135 97
207.007 179.945 -1777 179 133 95
210.475 179.872 -1776 181 135 97
214.061 179.901 -1776 182 136 98
218.139 180.336 -1780 184 138 99
221.737 180.366 -1780 181 139 102
225.717 180.701 -1783 182 141 105
229.453 180.833 -1784 176 138 104
233.326 181.068 -1786 166 133 101
236.944 181.1 -1786 167 133 100
241.371 181.742 -1792 164 127 94
245.278 181.978 -1794 154 122 91
249.195 182.215 -1796 148 118 89
253.123 182.452 -1798 141 118 97
256.346 182.183 -1795 133 115 99
259.994 182.219 -1795 123 107 92
266.254 181.581 -1788 111 101 87
390.578 191.56 -1873 71 64 60
395.526 192.127 -1878 83 69 66
399.648 192.285 -1879 101 84 81
403.348 192.239 -1878 119 100 96
408.132 192.705 -1882 135 104 101
411.184 192.353 -1878 146 112 106
414.002 191.899 -1873 155 115 106
418.587 192.265 -1876 163 117 105
424.54 193.246 -1885 169 120 108
429.398 193.717 -1889 171 120 107
435.883 194.906 -1900 166 117 102
441.259 195.583 -1906 163 113 101
445.029 195.543 -1905 158 109 97
448.563 195.401 -1903 160 114 100
452.331 195.361 -1902 175 122 106
455.619 195.117 -1899 183 126 111
458.897 194.874 -1896 189 127 112
463.144 195.042 -1897 191 132 117
466.414 194.799 -1894 203 144 129
469.178 194.351 -1889 215 156 142
468.168 192.359 -1869 200 145 134
468.088 190.778 -1853 168 122 115
468.199 189.3 -1838 134 93 88
470.562 188.749 -1832 112 81 73
473.421 188.404 -1828 115 87 87
477.051 188.368 -1827 141 115 112
480.944 188.436 -1827 199 176 164
485.107 188.608 -1828 237 214 199
489.546 188.884 -1830 253 231 216
493.728 189.057 -1831 254 231 217
499.821 189.954 -1839 232 205 189
504.31 190.233 -1841 222 187 173
509.363 190.718 -1845 236 201 187
513.326 190.792 -1845 252 219 206
517.853 191.072 -1847 254 229 214
520.134 190.526 -1841 255 232 219
524.671 190.808 -1843 253 233 220
527.5 190.469 -1839 222 201 193
530.317 190.13 -1835 162 151 149
-636.612 163.982 -1575 255 249 250
-635.359 164.513 -1581 252 246 250
-626.094 162.964 -1567 169 164 166
-618.886 161.937 -1558 60 60 61
-614.095 161.535 -1555 57 53 58
-609.717 161.237 -1553 54 50 57
-606.134 161.148 -1553 49 46 53
-602.946 161.163 -1554 48 45 52
-600.529 161.386 -1557 52 49 57
-597.339 161.402 -1558 53 50 58
-593.768 161.316 -1558 50 49 56
-590.203 161.229 -1558 47 46 54
-586.267 161.04 -1557 47 46 54
-583.09 161.058 -1558 47 44 52
-580.285 161.18 -1560 44 43 52
-577.478 161.303 -1562 42 41 51
-574.666 161.426 -1564 42 41 51
-571.121 161.343 -1564 44 43 53
-567.581 161.26 -1564 45 44 54
-564.768 161.385 -1566 49 48 58
-560.876 161.2 -1565 50 49 59
-557.35 161.119 -1565 51 50 60
-554.537 161.245 -1567 53 52 60
-552.072 161.474 -1570 54 52 61
-548.899 161.497 -1571 54 51 61
-546.422 161.727 -1574 51 50 60
-543.591 161.854 -1576 48 48 58
-540.757 161.981 -1578 46 47 57
-537.238 161.904 -1578 45 48 57
-534.4 162.032 -1580 45 47 56
-531.558 162.161 -1582 47 48 58
-528.379 162.188 -1583 49 50 60
-524.868 162.113 -1583 47 48 59
-521.692 162.14 -1584 48 49 59
-518.843 162.271 -1586 48 49 59
-515.665 162.299 -1587 48 49 59
-512.488 162.328 -1588 45 46 56
-509.632 162.46 -1590 44 45 55
-506.134 162.387 -1590 48 49 59
-502.958 162.418 -1591 46 47 57
-499.781 162.449 -1592 46 47 58
-496.917 162.582 -1594 47 48 59
-493.429 162.512 -1594 47 48 60
-489.945 162.442 -1594 49 50 59
-487.382 162.679 -1597 50 52 59
-484.204 162.712 -1598 48 50 56
-481.928 163.051 -1602 48 50 56
-479.043 163.186 -1604 49 51 57
-476.449 163.424 -1607 48 50 57
-473.258 163.459 -1608 48 50 57
-470.067 163.494 -1609 47 49 56
-466.585 163.428 -1609 46 48 55
-462.82 163.261 -1608 49 51 58
-459.635 163.298 -1609 49 51 58
-456.45 163.335 -1610 49 51 59
-452.983 163.271 -1610 49 52 61
-449.52 163.208 -1610 48 53 62
-446.616 163.348 -1612 48 53 62
-443.156 163.286 -1612 48 53 62
-439.428 163.123 -1611 50 53 62
-436.791 163.365 -1614 49 52 61
-434.413 163.709 -1618 46 49 58
-432.022 164.053 -1622 43 46 55
-429.089 164.195 -1624 38 41 50
-426.676 164.54 -1628 36 38 45
-423.47 164.582 -1629 37 37 45
-420.263 164.624 -1630 39 38 46
-416.799 164.566 -1630 46 46 56
-412.832 164.306 -1628 50 51 61
-408.626 163.947 -1625 52 53 63
-404.935 163.789 -1624 50 50 60
-401.251 163.633 -1623 38 37 47
-397.821 163.577 -1623 35 34 44
-394.637 163.623 -1624 43 43 54
-390.97 163.468 -1623 55 56 68
-388.266 163.716 -1626 58 59 71
-384.606 163.562 -1625 58 59 71
-381.423 163.61 -1626 55 56 68
-378.006 163.557 -1626 53 54 66
-374.363 163.405 -1625 55 56 68
-370.498 163.152 -1623 55 56 68
-366.871 163.001 -1622 58 59 71
-363.252 162.85 -1621 60 61 73
-360.305 163.002 -1623 60 63 76
-356.914 162.952 -1623 60 63 76
-354.179 163.204 -1626 61 62 74
-351.004 163.256 -1627 60 61 73
-348.04 163.409 -1629 59 60 72
-344.649 163.361 -1629 61 62 74
-341.888 163.615 -1632 61 62 74
-338.704 163.669 -1633 57 58 70
-335.518 163.723 -1634 57 58 71
-332.331 163.777 -1635 62 63 77
-329.544 164.032 -1638 62 63 77
-325.753 163.787 -1636 58 59 72
-322.564 163.843 -1637 55 56 68
-319.958 164.2 -1641 52 53 65
-317.146 164.456 -1644 50 51 62
-314.133 164.613 -1646 47 48 58
-311.114 164.771 -1648 48 49 57
-308.276 165.028 -1651 46 48 55
-305.429 165.286 -1654 47 49 56
-302.207 165.345 -1655 47 48 55
-299.705 165.803 -1660 43 42 50
-296.65 165.963 -1662 37 40 47
-293.942 166.322 -1666 38 40 47
-290.348 166.182 -1665 40 39 47
-286.933 166.143 -1665 42 41 49
-283.01 165.805 -1662 55 54 61
-279.269 165.567 -1660 58 60 67
-275.207 165.131 -1656 58 60 67
-271.327 164.795 -1653 58 60 67
-267.624 164.559 -1651 59 61 69
-263.931 164.324 -1649 60 61 71
-260.565 164.288 -1649 57 58 68
-256.889 164.054 -1647 60 61 71
-253.839 164.219 -1649 61 62 72
-250.631 164.284 -1650 59 60 70
-247.421 164.35 -1651 60 61 71
-243.914 164.217 -1650 60 61 71
-240.558 164.184 -1650 59 60 70
-237.492 164.351 -1652 59 60 70
-234.278 164.419 -1653 60 61 71
-231.201 164.586 -1655 62 63 73
-227.843 164.555 -1655 60 62 69
-224.894 164.823 -1658 61 63 72
-221.667 164.892 -1659 61 62 74
-218.175 164.764 -1658 63 64 76
-215.207 165.032 -1661 66 67 79
-211.846 165.004 -1661 64 67 78
-208.988 165.373 -1665 60 62 73
-205.993 165.643 -1668 57 58 70
-203.109 166.012 -1672 59 60 72
-199.971 166.184 -1674 56 57 69
-196.592 166.157 -1674 55 56 68
-193.1 166.032 -1673 54 55 68
-189.386 165.709 -1670 57 58 70
-185.797 165.485 -1668 60 61 73
-182.108 165.163 -1665 64 65 77
-178.863 165.238 -1666 64 65 77
-175.72 165.412 -1668 64 65 77
-172.57 165.587 -1670 63 64 76
-169.617 165.961 -1674 61 62 74
-166.648 166.335 -1678 63 64 76
-163.471 166.511 -1680 66 65 79
-160.573 166.985 -1685 67 66 80
-157.655 167.459 -1690 65 64 78
-154.902 168.132 -1697 49 50 62
-151.854 168.507 -1701 46 47 59
-148.617 168.685 -1703 48 49 59
-145.543 169.062 -1707 50 51 61
-142.205 169.142 -1708 50 51 61
-138.782 169.123 -1708 50 51 61
-135.361 169.105 -1708 52 53 62
-132.095 169.285 -1710 53 55 62
-128.898 169.564 -1713 53 54 63
-125.616 169.745 -1715 51 52 62
-122.256 169.828 -1716 48 49 59
-118.894 169.911 -1717 46 47 57
-115.595 170.093 -1719 47 48 58
-112.028 169.88 -1717 49 50 62
-108.787 170.162 -1720 49 50 62
-105.412 170.247 -1721 48 49 60
-102.033 170.332 -1722 47 48 60
-98.4801 170.121 -1720 49 50 62
-95.1566 170.306 -1722 51 52 64
-91.7727 170.392 -1723 50 51 62
-88.2831 170.281 -1722 49 51 58
-84.8966 170.368 -1723 49 50 59
-81.5069 170.456 -1724 48 49 58
-78.0232 170.347 -1723 51 52 62
-74.5443 170.238 -1722 53 54 64
-71.0698 170.129 -1721 51 52 62
-67.5605 169.922 -1719 49 50 60
-64.0972 169.815 -1718 51 52 62
-60.6384 169.707 -1717 54 55 65
-57.3173 169.996 -1720 55 57 66
-53.8907 169.989 -1720 56 58 65
-50.4939 170.081 -1721 55 57 65
-47.1208 170.272 -1723 51 53 61
-43.7656 170.562 -1726 47 49 56
-40.2585 170.26 -1723 44 46 53
-36.8706 170.453 -1725 45 47 54
-33.4556 170.547 -1726 46 48 54
-30.0369 170.641 -1727 48 50 57
-26.5684 170.44 -1725 49 51 58
-23.1347 170.437 -1725 49 50 59
-19.6899 170.335 -1724 52 53 63
-16.2303 170.036 -1721 54 55 65
-12.8274 170.331 -1724 53 54 64
-9.40182 170.428 -1725 52 53 63
-5.98276 170.822 -1729 52 54 62
-2.5432 170.921 -1730 52 54 62
0.899582 170.921 -1730 52 53 63
4.33735 170.723 -1728 51 52 62
7.77191 170.625 -1727 53 54 65
11.2088 170.626 -1727 51 52 62
14.663 170.826 -1729 51 52 62
18.1355 171.124 -1732 54 55 67
21.5703 171.028 -1731 56 57 69
25.0448 171.229 -1733 58 59 71
28.4779 171.134 -1732 58 59 73
31.9073 171.039 -1731 58 59 73
35.2924 170.747 -1728 59 60 74
38.7776 170.95 -1730 59 60 74
42.198 170.856 -1729 58 59 73
45.7467 171.257 -1733 56 55 65
49.2834 171.56 -1736 51 50 61
52.8626 171.962 -1740 49 48 60
56.2966 171.871 -1739 54 50 63
59.7957 171.977 -1740 59 56 69
63.19 171.788 -1738 59 58 72
66.6921 171.895 -1739 59 58 72
70.118 171.806 -1738 61 60 74
73.625 171.914 -1739 66 61 74
77.2697 172.319 -1743 71 61 70
80.8384 172.528 -1745 107 89 92
84.4157 172.736 -1747 166 133 110
88.0519 173.045 -1750 187 150 122
91.5962 173.156 -1751 196 144 102
95.1995 173.366 -1753 199 142 93
98.9241 173.774 -1757 200 141 88
102.607 174.084 -1760 200 138 91
106.183 174.197 -1761 196 134 88
109.638 174.113 -1760 194 132 87
113.155 174.128 -1760 192 129 89
116.408 173.747 -1756 187 125 85
120.192 174.159 -1760 182 120 82
123.711 174.175 -1760 176 114 78
127.377 174.39 -1762 173 112 75
130.828 174.308 -1761 171 111 79
134.2 174.128 -1759 172 113 83
137.644 174.047 -1758 173 114 87
141.165 174.066 -1758 175 115 95
144.769 174.184 -1759 179 119 98
148.463 174.401 -1761 180 121 98
152.339 174.818 -1765 176 120 94
156.143 175.136 -1768 174 119 93
159.781 175.256 -1769 173 121 91
163.515 175.476 -1771 178 126 97
166.788 175.2 -1768 181 129 101
170.532 175.421 -1770 185 129 102
173.793 175.147 -1767 186 132 104
177.546 175.369 -1769 187 134 104
181.41 175.69 -1772 189 134 101
185.184 175.913 -1774 189 135 101
189.18 176.335 -1778 188 135 101
193.085 176.658 -1781 181 136 104
196.783 176.783 -1782 175 132 100
200.149 176.612 -1780 172 129 97
203.509 176.44 -1778 171 129 96
206.979 176.369 -1777 170 129 96
210.446 176.297 -1776 169 128 95
214.032 176.326 -1776 165 126 93
217.742 176.454 -1777 163 125 93
221.209 176.384 -1776 161 127 98
225.053 176.613 -1778 157 125 98
228.779 176.743 -1779 152 123 100
232.772 177.072 -1782 144 120 101
236.115 176.905 -1780 136 112 93
240.8 177.732 -1788 125 100 80
244.698 177.964 -1790 108 86 68
249.023 178.494 -1795 99 79 63
253.088 178.827 -1798 111 98 89
255.312 177.866 -1788 111 102 97
394.84 188.008 -1875 90 83 84
398.955 188.162 -1876 92 84 84
403.077 188.318 -1877 100 90 88
408.075 188.875 -1882 119 96 96
411.127 188.53 -1878 135 108 105
414.165 188.185 -1874 146 110 106
419.198 188.745 -1879 154 112 104
425.382 189.807 -1889 162 117 108
431.157 190.67 -1897 164 117 106
437.657 191.836 -1908 156 110 99
442.818 192.4 -1913 157 111 99
446.836 192.461 -1913 158 112 99
449.679 192.02 -1908 160 117 101
453.695 192.082 -1908 166 116 98
457.234 191.944 -1906 168 115 97
461.253 192.008 -1906 172 110 93
465.276 192.072 -1906 170 106 96
469.057 192.036 -1905 177 114 104
472.341 191.799 -1902 186 122 112
473.362 190.654 -1890 200 141 132
473.074 189.004 -1873 208 158 153
472.972 187.455 -1857 190 146 144
473.321 186.108 -1843 130 99 97
474.132 184.962 -1831 113 89 96
477.506 184.826 -1829 113 92 96
480.876 184.69 -1827 138 121 116
485.569 185.061 -1830 186 163 148
489.209 185.028 -1829 222 196 181
493.928 185.4 -1832 248 221 207
499.751 186.178 -1839 252 230 214
504.238 186.451 -1841 235 199 183
509.291 186.927 -1845 197 158 142
513.531 187.1 -1846 213 171 155
517.219 187.071 -1845 227 192 176
520.06 186.738 -1841 244 210 195
524.027 186.812 -1841 252 219 204
526.565 186.378 -1836 255 231 218
530.819 186.554 -1837 237 219 212
-627.201 159.965 -1570 207 206 208
-618.796 158.653 -1558 73 73 74
-614.006 158.259 -1555 58 55 59
-608.843 157.764 -1551 54 51 57
-605.656 157.779 -1552 49 46 53
-602.858 157.895 -1554 47 44 52
-599.671 157.911 -1555 44 42 50
-596.486 157.926 -1556 46 44 52
-593.682 158.044 -1558 49 48 55
-590.118 157.96 -1558 49 48 56
-586.559 157.876 -1558 48 47 55
-583.38 157.894 -1559 46 44 52
-580.946 158.115 -1562 43 41 50
-578.134 158.234 -1564 42 41 50
-574.951 158.254 -1565 39 39 50
-572.134 158.374 -1567 40 40 51
-568.588 158.293 -1567 41 40 51
-565.408 158.314 -1568 43 43 53
-562.229 158.335 -1569 47 46 56
-558.338 158.155 -1568 53 52 62
-555.165 158.177 -1569 53 52 62
-552.696 158.401 -1572 53 51 61
-549.17 158.324 -1572 53 51 61
-545.997 158.347 -1573 50 48 58
-543.169 158.472 -1575 47 46 56
-539.995 158.496 -1576 45 45 55
-536.821 158.521 -1577 48 50 59
-533.986 158.647 -1579 46 47 57
-531.147 158.773 -1581 46 47 57
-528.638 159 -1584 47 48 58
-525.126 158.926 -1584 48 49 59
-522.277 159.053 -1586 48 49 59
-518.77 158.981 -1586 47 48 58
-515.918 159.109 -1588 47 48 58
-512.416 159.037 -1588 45 46 56
-509.88 159.266 -1591 46 47 57
-506.063 159.095 -1590 47 48 58
-503.203 159.225 -1592 48 49 59
-500.339 159.355 -1594 49 50 61
-496.535 159.186 -1593 46 47 58
-493.36 159.217 -1594 45 46 57
-490.184 159.249 -1595 47 49 58
-487.314 159.38 -1597 49 51 59
-485.045 159.712 -1601 48 50 57
-482.162 159.845 -1603 50 51 58
-479.274 159.978 -1605 51 51 59
-476.679 160.21 -1608 46 48 55
-473.486 160.245 -1609 49 51 58
-470.001 160.179 -1609 46 48 55
-466.23 160.015 -1608 47 49 56
-463.044 160.051 -1609 45 47 54
-459.571 159.987 -1609 47 49 56
-456.103 159.924 -1609 47 49 57
-453.202 160.061 -1611 49 52 60
-450.016 160.098 -1612 49 53 62
-446.554 160.036 -1612 49 52 61
-443.645 160.174 -1614 49 52 61
-439.913 160.014 -1613 49 51 60
-436.731 160.053 -1614 48 50 59
-434.353 160.39 -1618 46 49 58
-431.696 160.628 -1621 41 45 54
-428.766 160.768 -1623 34 38 47
-426.617 161.204 -1628 35 37 45
-423.671 161.344 -1630 38 38 46
-420.72 161.485 -1632 38 38 46
-416.997 161.329 -1631 43 43 52
-413.029 161.075 -1629 50 50 59
-408.821 160.722 -1626 49 50 60
-405.129 160.568 -1625 50 50 60
-401.691 160.513 -1625 37 36 46
-398.257 160.459 -1625 37 35 45
-395.312 160.602 -1627 43 42 53
-391.88 160.549 -1627 49 49 60
-388.69 160.595 -1628 55 55 65
-385.027 160.444 -1627 61 61 71
-381.371 160.293 -1626 57 58 67
-378.187 160.34 -1627 54 55 64
-374.311 160.092 -1625 56 57 66
-370.447 159.845 -1623 56 57 69
-366.821 159.697 -1622 58 59 72
-363.426 159.648 -1622 62 63 76
-360.256 159.697 -1623 61 62 76
-357.085 159.747 -1624 58 59 73
-354.131 159.896 -1626 57 58 70
-350.74 159.849 -1626 58 59 71
-347.78 159.998 -1628 60 61 73
-344.39 159.952 -1628 61 62 74
-341.423 160.102 -1630 61 62 74
-338.243 160.155 -1631 58 59 71
-335.062 160.208 -1632 57 58 71
-332.082 160.359 -1634 58 60 72
-328.896 160.413 -1635 59 60 73
-325.51 160.369 -1635 57 59 71
-322.52 160.522 -1637 55 58 69
-319.525 160.675 -1639 51 52 64
-316.717 160.927 -1642 47 49 60
-313.899 161.179 -1645 47 49 59
-310.883 161.333 -1647 49 51 59
-307.861 161.487 -1649 54 56 63
-305.203 161.838 -1653 50 52 59
-302.349 162.091 -1656 45 47 54
-299.484 162.345 -1659 42 43 49
-296.789 162.697 -1663 39 41 48
-294.079 163.048 -1667 37 39 46
-290.658 163.009 -1667 43 42 50
-287.067 162.873 -1666 45 45 53
-283.312 162.64 -1664 52 52 60
-279.568 162.407 -1662 57 57 65
-275.502 161.979 -1658 57 57 65
-271.455 161.552 -1654 57 57 65
-267.588 161.223 -1651 59 59 69
-263.896 160.993 -1649 59 60 70
-260.53 160.958 -1649 59 61 68
-257.167 160.924 -1649 58 60 68
-253.805 160.89 -1649 59 60 70
-250.294 160.759 -1648 58 60 68
-246.939 160.726 -1648 57 59 67
-243.585 160.694 -1648 57 59 67
-240.089 160.564 -1647 58 60 67
-237.173 160.825 -1650 59 61 68
-233.963 160.891 -1651 59 60 70
-231.031 161.153 -1654 59 60 70
-227.813 161.22 -1655 60 62 70
-224.728 161.385 -1657 58 59 68
-221.504 161.453 -1658 60 61 72
-218.146 161.424 -1658 63 64 76
-214.789 161.395 -1658 65 66 78
-211.817 161.659 -1661 65 67 78
-208.835 161.924 -1664 59 60 72
-205.595 161.994 -1665 57 58 71
-202.96 162.55 -1671 56 57 69
-199.825 162.719 -1673 54 55 67
-196.566 162.79 -1674 55 56 68
-192.959 162.57 -1672 57 58 70
-189.474 162.447 -1671 57 58 70
-185.772 162.131 -1668 59 60 72
-182.193 161.912 -1666 63 64 76
-178.839 161.889 -1666 63 64 76
-175.696 162.06 -1668 65 66 78
-172.754 162.425 -1672 62 63 75
-169.29 162.306 -1671 62 63 75
-166.626 162.964 -1678 63 63 76
-163.449 163.136 -1680 67 66 80
-160.647 163.698 -1686 68 68 81
-157.728 164.162 -1691 61 61 74
-154.882 164.724 -1697 49 48 60
-151.655 164.898 -1699 47 47 59
-148.422 165.073 -1701 45 46 57
-145.268 165.345 -1704 47 48 58
-141.936 165.423 -1705 50 51 61
-138.764 165.695 -1708 50 51 61
-135.422 165.775 -1709 50 52 61
-132.078 165.854 -1710 53 55 62
-128.881 166.128 -1713 53 54 64
-125.526 166.208 -1714 50 51 61
-122.169 166.289 -1715 48 49 60
-118.809 166.37 -1716 45 46 57
-115.513 166.549 -1718 46 47 57
-112.014 166.437 -1717 48 49 60
-108.709 166.616 -1719 48 49 61
-105.336 166.699 -1720 47 48 59
-101.961 166.783 -1721 48 49 60
-98.5816 166.867 -1722 50 51 62
-95.2547 167.048 -1724 51 52 64
-91.8139 167.036 -1724 49 50 62
-88.3739 167.024 -1724 49 51 59
-84.9347 167.013 -1724 48 49 59
-81.5435 167.099 -1725 46 47 57
-78.0583 166.991 -1724 49 50 60
-74.5776 166.884 -1723 50 51 61
-71.1017 166.778 -1722 50 51 61
-67.6303 166.672 -1721 48 49 59
-64.1261 166.47 -1719 48 49 59
-60.6657 166.365 -1718 50 51 61
-57.3763 166.745 -1722 51 52 62
-53.9149 166.64 -1721 53 55 63
-50.5459 166.827 -1723 52 54 62
-47.1967 167.111 -1726 49 51 58
-43.8359 167.396 -1729 48 50 57
-40.2999 167.003 -1725 46 48 55
-36.9086 167.192 -1727 46 48 55
-33.4513 167.09 -1726 47 49 55
-30.033 167.183 -1727 48 50 56
-26.5495 166.889 -1724 48 50 58
-23.1183 166.886 -1724 50 51 60
-19.6873 166.883 -1724 52 53 63
-16.2564 166.881 -1724 52 53 63
-12.8257 166.879 -1724 51 52 62
-9.40061 166.974 -1725 52 53 63
-5.98199 167.36 -1729 51 53 61
-2.54288 167.457 -1730 52 54 61
0.898936 167.36 -1729 53 54 64
4.33678 167.263 -1728 51 52 63
7.77089 167.167 -1727 51 52 64
11.2074 167.169 -1727 48 49 59
14.6524 167.267 -1728 47 48 58
18.1122 167.463 -1730 50 51 63
21.555 167.465 -1730 56 57 69
24.998 167.468 -1730 58 59 71
28.4414 167.472 -1730 59 60 74
31.8663 167.379 -1729 58 59 73
35.2878 167.287 -1728 57 58 72
38.7725 167.485 -1730 56 57 71
42.29 167.781 -1733 51 52 66
45.8199 168.077 -1736 50 49 59
49.3052 168.18 -1737 47 46 57
52.8558 168.477 -1740 47 46 58
56.289 168.387 -1739 51 47 60
59.7534 168.395 -1739 58 54 68
63.1818 168.306 -1738 58 57 70
66.6449 168.315 -1738 58 57 71
70.1491 168.42 -1739 62 61 75
73.7001 168.624 -1741 66 61 74
77.3038 168.924 -1744 79 68 75
80.9668 169.322 -1748 122 102 99
84.5978 169.623 -1751 168 134 109
88.2918 170.022 -1755 176 137 109
91.8456 170.131 -1756 191 135 97
95.4584 170.337 -1758 186 131 86
99.1363 170.64 -1761 184 130 79
102.652 170.653 -1761 187 125 81
106.229 170.764 -1762 184 122 79
109.499 170.39 -1758 180 118 76
113.076 170.502 -1759 177 114 78
116.724 170.711 -1761 175 112 77
120.244 170.726 -1761 171 108 76
123.835 170.839 -1762 165 106 73
127.432 170.952 -1763 160 104 71
130.811 170.775 -1761 154 99 72
134.411 170.89 -1762 150 96 71
137.86 170.811 -1761 148 95 71
141.467 170.926 -1762 149 96 78
144.997 170.945 -1762 154 101 83
148.78 171.255 -1765 160 105 86
152.405 171.372 -1766 163 111 88
156.299 171.78 -1770 168 117 93
159.85 171.801 -1770 173 121 94
163.586 172.016 -1772 177 125 97
167.049 171.941 -1771 179 127 99
170.413 171.769 -1769 179 129 99
174.065 171.889 -1770 178 129 98
177.623 171.912 -1770 177 130 98
181.488 172.227 -1773 177 129 95
185.994 173.125 -1782 177 129 95
189.899 173.441 -1785 173 128 95
193.601 173.563 -1786 167 129 100
197.198 173.589 -1786 161 124 97
200.797 173.615 -1786 156 119 92
203.711 173.059 -1780 154 117 91
206.835 172.697 -1776 151 116 89
210.181 172.53 -1774 149 113 87
213.281 172.169 -1770 144 113 88
216.856 172.197 -1770 134 108 84
220.059 171.934 -1767 130 105 87
223.884 172.158 -1769 119 96 80
227.977 172.577 -1773 100 80 68
232.088 172.997 -1777 93 79 72
235.421 172.833 -1775 85 71 65
240.498 173.935 -1786 62 50 44
404.096 184.992 -1882 90 84 88
409.32 185.636 -1888 99 84 85
411.946 185.102 -1882 107 90 91
414.33 184.469 -1875 111 93 93
419.141 184.919 -1879 116 93 91
424.198 185.468 -1884 120 94 93
429.962 186.313 -1892 126 98 96
437.368 187.849 -1907 128 100 96
442.526 188.401 -1912 135 101 94
447.475 188.855 -1916 143 107 98
450.796 188.62 -1913 149 112 102
454.346 188.484 -1911 153 111 99
457.411 188.152 -1907 158 112 99
461.916 188.411 -1909 163 107 94
465.456 188.277 -1907 170 107 100
469.485 188.34 -1907 174 111 103
473.021 188.207 -1905 174 110 102
475.05 187.481 -1897 171 112 103
474.777 185.865 -1880 185 136 130
474.69 184.348 -1864 193 151 147
475.053 183.027 -1850 134 109 111
475.102 181.608 -1835 117 100 108
477.962 181.277 -1831 116 101 108
481.337 181.144 -1829 111 100 101
485.502 181.31 -1830 121 103 92
489.677 181.475 -1831 154 133 119
493.86 181.642 -1832 204 180 165
499.953 182.503 -1840 242 215 201
505.264 183.068 -1845 254 230 215
510.601 183.634 -1850 234 200 185
513.738 183.406 -1847 194 158 143
517.988 183.577 -1848 174 132 116
521.118 183.35 -1845 198 154 139
524.524 183.223 -1843 229 185 169
527.639 182.997 -1840 247 206 191
533.923 183.866 -1848 255 229 218
540.248 184.736 -1856 251 230 222
-630.707 157.553 -1579 236 234 236
-619.899 155.67 -1561 108 106 108
-614.313 155.084 -1556 63 60 63
-609.149 154.599 -1552 59 55 61
-606.35 154.713 -1554 53 48 56
-603.549 154.827 -1556 52 49 58
-600.358 154.842 -1557 45 44 54
-597.551 154.957 -1559 45 44 54
-594.36 154.973 -1560 49 48 56
-591.17 154.99 -1561 49 50 58
-586.852 154.709 -1559 48 50 57
-584.046 154.825 -1561 48 47 55
-581.236 154.942 -1563 46 45 53
-578.422 155.06 -1565 45 44 52
-575.238 155.079 -1566 41 42 54
-572.784 155.296 -1569 37 38 50
-569.597 155.315 -1570 37 38 50
-566.05 155.237 -1570 44 45 55
-562.508 155.158 -1570 49 48 58
-558.972 155.081 -1570 51 50 60
-556.149 155.201 -1572 51 50 62
-553.322 155.322 -1574 51 50 61
-549.443 155.147 -1573 51 50 60
-546.268 155.17 -1574 52 49 59
-543.438 155.292 -1576 49 47 57
-539.92 155.217 -1576 48 47 57
-537.087 155.34 -1578 48 49 59
-534.25 155.463 -1580 47 48 58
-531.073 155.488 -1581 47 48 58
-527.897 155.514 -1582 46 47 57
-525.053 155.638 -1584 48 49 59
-521.875 155.665 -1585 49 50 60
-519.025 155.79 -1587 47 48 58
-516.171 155.915 -1589 47 48 58
-512.99 155.943 -1590 45 46 56
-510.451 156.167 -1593 45 46 56
-506.948 156.098 -1593 47 48 58
-503.766 156.127 -1594 48 49 59
-500.27 156.059 -1594 50 51 61
-496.779 155.991 -1594 47 48 58
-493.601 156.021 -1595 46 47 57
-490.117 155.954 -1595 49 50 60
-487.247 156.084 -1597 50 51 61
-484.979 156.408 -1601 49 51 58
-482.397 156.636 -1604 50 50 58
-479.507 156.766 -1606 50 49 57
-476.614 156.897 -1608 45 47 54
-473.127 156.832 -1608 48 50 57
-470.229 156.964 -1610 46 48 55
-467.037 156.998 -1611 47 49 55
-463.556 156.935 -1611 47 49 56
-460.08 156.873 -1611 48 50 57
-457.175 157.006 -1613 48 51 58
-453.421 156.847 -1612 47 50 57
-450.513 156.981 -1614 48 51 60
-447.047 156.921 -1614 52 55 64
-443.859 156.958 -1615 53 54 64
-440.399 156.899 -1615 49 51 60
-436.942 156.84 -1615 49 51 60
-434.294 157.073 -1618 46 49 58
-431.371 157.209 -1620 40 44 53
-428.708 157.442 -1623 34 38 47
-426.298 157.773 -1627 35 38 47
-423.094 157.813 -1628 37 40 47
-420.148 157.951 -1630 37 39 46
-416.43 157.798 -1629 42 41 49
-412.973 157.743 -1629 46 45 54
-408.766 157.398 -1626 47 48 58
-405.573 157.44 -1627 51 51 61
-402.131 157.387 -1627 41 39 49
-398.448 157.237 -1626 37 34 44
-395.016 157.184 -1626 39 37 47
-391.827 157.228 -1627 44 43 53
-388.4 157.177 -1627 51 50 58
-384.502 156.932 -1625 58 58 66
-381.085 156.881 -1625 55 57 64
-377.904 156.928 -1626 49 51 58
-374.031 156.685 -1624 52 54 61
-370.17 156.443 -1622 57 58 70
-366.998 156.491 -1623 61 62 75
-363.602 156.442 -1623 62 63 77
-360.208 156.394 -1623 62 63 77
-357.038 156.444 -1624 60 61 74
-354.084 156.589 -1626 57 58 70
-350.694 156.543 -1626 59 60 72
-347.733 156.689 -1628 62 63 75
-344.133 156.548 -1627 61 62 74
-341.587 156.887 -1631 59 60 72
-337.991 156.747 -1630 59 60 72
-334.607 156.702 -1630 57 58 70
-331.632 156.851 -1632 56 57 69
-328.45 156.904 -1633 55 58 70
-325.268 156.957 -1634 57 60 71
-322.083 157.01 -1635 56 59 70
-319.483 157.352 -1639 54 55 67
-316.482 157.503 -1641 50 52 63
-313.858 157.845 -1645 47 50 61
-310.842 157.996 -1647 48 51 59
-307.821 158.148 -1649 50 52 59
-305.163 158.491 -1653 49 51 58
-302.126 158.643 -1655 48 50 56
-299.445 158.988 -1659 42 44 50
-296.75 159.332 -1663 38 40 46
-294.04 159.676 -1667 37 39 45
-290.619 159.638 -1667 43 42 50
-287.374 159.697 -1668 44 45 52
-283.615 159.468 -1666 49 51 58
-279.699 159.144 -1663 55 54 62
-275.466 158.63 -1658 56 55 63
-271.583 158.307 -1655 58 57 65
-267.715 157.985 -1652 59 59 68
-264.181 157.855 -1651 58 59 69
-260.654 157.725 -1650 57 59 66
-257.601 157.883 -1652 58 60 67
-253.772 157.563 -1649 59 60 70
-250.565 157.626 -1650 57 59 66
-247.356 157.689 -1651 57 59 66
-243.701 157.466 -1649 58 60 67
-240.349 157.435 -1649 59 61 68
-237.429 157.69 -1652 59 61 68
-234.074 157.66 -1652 60 61 71
-231 157.82 -1654 60 61 71
-227.783 157.886 -1655 60 61 71
-224.428 157.857 -1655 59 60 70
-221.341 158.019 -1657 61 62 72
-217.854 157.895 -1656 63 64 76
-214.762 158.058 -1658 65 66 78
-211.535 158.126 -1659 64 65 77
-208.682 158.48 -1663 60 62 74
-205.568 158.644 -1665 57 60 73
-202.813 159.094 -1670 55 56 68
-199.561 159.163 -1671 53 54 66
-196.423 159.328 -1673 54 55 67
-192.934 159.208 -1672 55 56 68
-189.336 158.993 -1670 56 57 69
-185.748 158.778 -1668 55 56 68
-182.17 158.564 -1666 56 57 69
-178.816 158.541 -1666 58 59 71
-175.884 158.899 -1670 61 62 74
-172.731 159.067 -1672 61 62 74
-169.572 159.235 -1674 62 63 75
-166.704 159.689 -1679 62 63 75
-163.623 159.953 -1682 64 63 77
-160.912 160.598 -1689 64 64 77
-157.801 160.863 -1692 56 57 69
-154.953 161.413 -1698 50 46 59
-151.904 161.774 -1702 50 48 60
-148.578 161.849 -1703 48 49 61
-145.334 162.021 -1705 49 50 60
-141.918 162.002 -1705 51 52 62
-138.746 162.269 -1708 51 52 62
-135.325 162.252 -1708 50 51 61
-132.138 162.519 -1711 51 52 62
-128.789 162.598 -1712 52 53 63
-125.51 162.771 -1714 50 51 61
-122.296 163.04 -1717 46 47 59
-118.863 163.025 -1717 45 46 57
-115.498 163.105 -1718 45 46 58
-112.064 163.09 -1718 46 47 57
-108.758 163.266 -1720 47 48 58
-105.384 163.347 -1721 48 49 59
-102.066 163.524 -1723 49 50 59
-98.6261 163.511 -1723 49 51 59
-95.2976 163.688 -1725 49 50 62
-91.802 163.582 -1724 49 50 62
-88.3626 163.57 -1724 50 51 63
-84.9238 163.559 -1724 49 50 61
-81.5802 163.738 -1726 46 47 57
-78.0934 163.633 -1725 45 46 56
-74.5681 163.434 -1723 48 49 59
-71.1338 163.424 -1723 48 49 59
-67.6609 163.321 -1722 47 48 58
-64.1551 163.123 -1720 48 49 59
-60.6579 162.925 -1718 50 51 61
-57.369 163.297 -1722 49 50 61
-53.9706 163.384 -1723 51 52 63
-50.598 163.567 -1725 49 50 60
-47.2454 163.846 -1728 46 47 56
-43.881 164.124 -1731 46 48 57
-40.3415 163.74 -1727 46 48 56
-36.9251 163.829 -1728 46 48 55
-33.4276 163.541 -1725 44 46 53
-30.0118 163.631 -1726 47 49 56
-26.5461 163.438 -1724 50 51 60
-23.1555 163.719 -1727 52 53 63
-19.6962 163.527 -1725 53 54 64
-16.2638 163.525 -1725 51 52 62
-12.8315 163.523 -1725 49 50 60
-9.40487 163.616 -1726 50 51 61
-5.97778 163.805 -1728 50 51 60
-2.5411 163.899 -1729 49 51 60
0.898813 163.899 -1729 51 52 62
4.33873 163.899 -1729 52 53 63
7.77439 163.805 -1728 53 54 64
11.2189 163.902 -1729 52 53 63
14.6505 163.808 -1728 52 53 63
18.0994 163.905 -1729 53 54 66
21.5398 163.908 -1729 55 56 68
24.9803 163.911 -1729 56 57 69
28.4213 163.914 -1729 59 60 73
31.8807 164.013 -1730 57 58 71
35.3443 164.112 -1731 56 57 71
38.8348 164.306 -1733 53 53 66
42.2846 164.311 -1733 47 47 59
45.8141 164.602 -1736 45 46 56
49.2705 164.608 -1736 46 45 56
52.7883 164.804 -1738 49 48 58
56.2171 164.716 -1737 52 49 63
59.7114 164.818 -1738 56 54 67
63.1008 164.636 -1736 57 56 67
66.6364 164.834 -1738 60 60 76
70.1399 164.938 -1739 62 62 80
73.7329 165.232 -1742 70 61 71
77.3826 165.621 -1746 92 77 80
81.0953 166.105 -1751 134 109 103
84.6351 166.211 -1752 163 127 108
88.5319 166.981 -1760 166 127 104
92.1475 167.182 -1762 179 123 91
95.6632 167.194 -1762 177 121 83
99.0672 167.017 -1760 176 120 78
102.755 167.314 -1763 175 120 83
106.035 166.948 -1759 168 112 77
109.61 167.057 -1760 165 110 76
113.126 167.071 -1760 156 104 70
116.576 166.991 -1759 153 101 68
120.297 167.291 -1762 150 98 68
124.101 167.686 -1766 148 98 72
127.705 167.797 -1767 149 100 76
131.017 167.529 -1764 143 94 74
134.775 167.831 -1767 141 92 73
138.077 167.563 -1764 138 89 72
141.69 167.676 -1765 139 92 78
145.225 167.695 -1765 141 94 79
149.014 167.999 -1768 152 102 83
152.73 168.208 -1770 159 109 87
156.367 168.323 -1771 166 116 93
160.009 168.438 -1772 169 120 94
163.473 168.364 -1771 169 122 96
166.933 168.29 -1770 169 122 97
170.487 168.312 -1770 167 124 96
173.846 168.144 -1768 164 123 95
177.599 168.357 -1770 162 123 95
181.362 168.57 -1772 158 120 93
185.761 169.355 -1780 156 118 91
189.556 169.569 -1782 147 113 86
193.359 169.784 -1784 139 110 90
197.062 169.904 -1785 134 107 89
200.321 169.644 -1782 132 105 86
202.654 168.623 -1771 128 103 86
205.876 168.364 -1768 124 100 83
209.206 168.2 -1766 119 95 79
211.687 167.37 -1757 102 82 68
214.99 167.207 -1755 76 61 49
412.11 181.37 -1883 64 55 59
414.495 180.75 -1876 62 54 57
417.524 180.419 -1872 62 50 53
423.916 181.535 -1883 67 54 58
429.222 182.17 -1889 73 59 64
436.621 183.674 -1904 72 61 65
442.698 184.601 -1913 82 63 63
447.415 184.949 -1916 89 64 63
450.5 184.623 -1912 100 73 73
454.998 184.876 -1914 123 91 86
458.309 184.647 -1911 141 105 98
463.063 184.998 -1914 158 110 102
466.37 184.77 -1911 168 108 101
470.16 184.735 -1910 167 107 100
473.702 184.604 -1908 167 107 99
476.488 184.184 -1903 165 109 99
476.228 182.602 -1886 163 120 113
479.203 178.012 -1836 66 58 65
482.587 177.883 -1834 66 61 67
486.763 178.045 -1835 67 56 51
491.215 178.304 -1837 84 70 61
495.141 178.37 -1837 137 120 107
500.157 178.825 -1841 198 169 157
505.743 179.476 -1847 241 216 202
510.807 179.933 -1851 254 237 224
514.225 179.807 -1849 249 224 214
518.478 179.974 -1850 202 154 139
522.741 180.141 -1851 164 114 100
525.59 179.823 -1847 174 123 109
529 179.699 -1845 208 156 140
534.717 180.355 -1851 231 189 175
539.883 180.818 -1855 247 211 198
-364.093 87.665 -896 0 0 0
-629.82 154.031 -1577 254 251 254
-619.416 152.284 -1560 159 156 159
-615.017 152.004 -1558 65 62 65
-609.849 151.53 -1554 59 55 61
-606.656 151.543 -1555 50 45 53
-604.241 151.752 -1558 49 46 56
-601.045 151.767 -1559 45 44 54
-597.851 151.782 -1560 46 45 55
-594.659 151.798 -1561 48 47 55
-591.467 151.814 -1562 48 49 56
-587.524 151.636 -1561 47 48 56
-584.714 151.75 -1563 49 48 56
-581.528 151.768 -1564 48 47 55
-578.712 151.882 -1566 45 45 53
-575.893 151.998 -1568 44 45 55
-572.705 152.017 -1569 40 41 51
-569.156 151.939 -1569 37 38 49
-566.693 152.152 -1572 44 44 54
-563.864 152.269 -1574 46 45 55
-560.32 152.193 -1574 45 44 54
-557.488 152.31 -1576 47 46 58
-553.598 152.139 -1575 48 47 58
-550.066 152.064 -1575 49 48 58
-546.193 151.893 -1574 50 47 57
-543.709 152.109 -1577 50 48 59
-540.531 152.132 -1578 49 48 59
-536.673 151.964 -1577 47 48 58
-534.177 152.18 -1580 47 48 58
-531.673 152.398 -1583 49 50 60
-528.493 152.423 -1584 46 47 57
-524.982 152.352 -1584 47 48 58
-522.463 152.57 -1587 49 50 60
-519.609 152.693 -1589 45 46 56
-516.426 152.719 -1590 45 46 56
-513.566 152.842 -1592 45 46 56
-511.343 153.158 -1596 44 45 55
-507.834 153.09 -1596 46 47 57
-504.33 153.022 -1596 45 46 56
-500.516 152.859 -1595 44 46 54
-497.023 152.793 -1595 44 46 54
-493.535 152.727 -1595 45 46 56
-490.666 152.853 -1597 48 49 59
-487.792 152.979 -1599 49 50 60
-484.914 153.106 -1601 49 51 58
-482.633 153.424 -1605 49 50 58
-479.443 153.456 -1606 48 48 56
-476.254 153.488 -1607 45 47 54
-473.358 153.617 -1609 46 48 55
-470.166 153.65 -1610 46 48 55
-466.974 153.683 -1611 46 48 55
-463.207 153.526 -1610 48 50 57
-460.304 153.656 -1612 48 50 57
-457.397 153.786 -1614 49 51 58
-453.361 153.536 -1612 46 49 56
-450.174 153.571 -1613 46 49 58
-447.542 153.798 -1616 52 54 63
-443.801 153.644 -1615 50 53 62
-440.34 153.586 -1615 50 52 61
-437.155 153.624 -1616 49 51 60
-433.969 153.662 -1617 45 48 57
-431.048 153.795 -1619 42 45 54
-428.387 154.024 -1622 37 41 50
-425.717 154.253 -1625 35 38 47
-422.519 154.292 -1626 37 40 47
-419.577 154.427 -1628 37 39 46
-416.119 154.372 -1628 42 41 49
-412.666 154.318 -1628 45 44 53
-408.713 154.075 -1626 46 47 57
-405.519 154.117 -1627 51 51 61
-402.078 154.064 -1627 44 42 52
-398.886 154.107 -1628 38 35 45
-395.45 154.055 -1628 36 34 44
-392.498 154.193 -1630 40 39 49
-388.826 154.048 -1629 45 44 52
-384.688 153.714 -1626 52 52 59
-381.035 153.57 -1625 52 54 61
-377.39 153.426 -1624 49 51 58
-373.522 153.188 -1622 50 52 59
-369.893 153.046 -1621 55 56 68
-366.724 153.093 -1622 58 59 73
-363.554 153.14 -1623 60 61 75
-360.383 153.187 -1624 59 60 74
-356.771 153.047 -1623 58 59 72
-353.82 153.189 -1625 57 58 70
-350.432 153.144 -1625 60 61 73
-347.261 153.193 -1626 62 63 75
-344.088 153.243 -1627 60 61 73
-341.543 153.575 -1631 59 60 72
-338.154 153.532 -1631 59 60 72
-334.769 153.488 -1631 57 58 72
-331.792 153.634 -1633 56 57 71
-328.408 153.591 -1633 55 58 71
-325.026 153.549 -1633 57 60 72
-321.845 153.602 -1634 57 60 71
