ply
format ascii 1.0
comment Created by Open3D
element vertex 1485
property double x
property double y
property double z
property uchar red
property uchar green
property uchar blue
end_header
-574.094 214.818 -1683 61 59 67
-570.676 214.844 -1684 60 59 67
-567.26 214.87 -1685 59 56 66
-563.175 214.642 -1684 62 58 67
-559.433 214.542 -1684 60 55 64
-556.025 214.57 -1685 59 58 68
-551.635 214.216 -1683 60 59 71
-547.584 213.992 -1682 61 60 72
-544.513 214.149 -1684 55 58 65
-540.796 214.053 -1684 57 60 67
-537.722 214.211 -1686 58 61 68
-534.327 214.243 -1687 59 62 69
-530.933 214.276 -1688 57 59 68
-526.914 214.056 -1687 58 59 69
-522.595 213.709 -1685 58 60 73
-518.905 213.617 -1685 55 57 70
-514.302 213.146 -1682 53 54 66
-510.932 213.182 -1683 55 55 67
-507.26 213.093 -1683 54 54 66
-504.491 213.383 -1686 52 53 66
-500.822 213.295 -1686 55 57 70
-497.452 213.334 -1687 60 63 76
-494.375 213.5 -1689 49 50 63
-490.713 213.413 -1689 38 39 51
-486.767 213.201 -1688 48 50 62
-482.258 212.738 -1685 49 54 65
-478.617 212.654 -1685 52 57 67
-474.418 212.318 -1683 52 57 67
-471.35 212.488 -1685 55 58 68
-467.445 212.279 -1684 58 60 70
-463.823 212.198 -1684 58 61 70
-459.387 211.74 -1681 54 57 68
-455.509 211.534 -1680 54 57 70
-451.102 211.078 -1677 56 58 73
-447.245 210.874 -1676 57 59 74
-444.191 211.048 -1678 59 61 75
-440.607 210.971 -1678 61 64 77
-437.026 210.895 -1678 61 64 77
-432.933 210.568 -1676 60 63 76
-428.596 210.116 -1673 59 61 76
-424.022 209.54 -1669 60 62 78
-420.224 209.342 -1668 62 63 79
-415.685 208.768 -1664 61 63 78
-411.414 208.32 -1661 57 59 74
-407.159 207.873 -1658 59 60 74
-403.408 207.678 -1657 63 65 79
-399.181 207.232 -1654 65 69 83
-395.928 207.289 -1655 63 67 81
-392.674 207.346 -1656 57 61 76
-388.949 207.154 -1655 57 59 75
-386.163 207.463 -1658 58 60 77
-381.752 206.896 -1654 58 60 78
-378.048 206.706 -1653 61 63 81
-373.444 206.016 -1648 65 67 85
-369.988 205.952 -1648 69 71 89
-366.979 206.139 -1650 75 77 97
-363.965 206.326 -1652 80 82 102
-361.601 206.889 -1657 74 78 98
-358.138 206.827 -1657 67 70 90
-354.678 206.766 -1657 69 72 92
-350.373 206.207 -1653 70 73 93
-346.718 206.022 -1652 77 80 100
-342.862 205.714 -1650 88 90 110
-340.046 206.03 -1653 90 90 111
-336.406 205.847 -1652 85 84 107
-332.974 205.79 -1652 71 71 92
-329.346 205.609 -1651 62 63 83
-325.724 205.429 -1650 63 66 86
-322.305 205.374 -1650 65 68 90
-319.082 205.444 -1651 66 69 92
-315.858 205.514 -1652 66 67 88
-311.875 205.088 -1649 63 63 84
-308.843 205.284 -1651 63 62 83
-304.88 204.859 -1648 60 63 82
-302.03 205.18 -1651 61 62 82
-298.627 205.129 -1651 62 60 79
-295.406 205.203 -1652 60 62 80
-292.006 205.153 -1652 61 65 83
-288.609 205.104 -1652 65 67 87
-285.387 205.18 -1653 66 67 87
-282.333 205.38 -1655 67 66 86
-279.106 205.456 -1656 68 68 84
-275.71 205.41 -1656 67 68 82
-272.152 205.239 -1655 68 71 87
-268.113 204.698 -1651 69 71 86
-264.734 204.653 -1651 69 71 84
-260.882 204.237 -1648 65 70 82
-257.358 204.069 -1647 65 69 81
-253.685 203.778 -1645 73 66 76
-250.479 203.859 -1646 69 64 73
-246.821 203.57 -1644 66 61 70
-243.617 203.652 -1645 68 61 68
-240.12 203.488 -1644 71 63 70
-236.916 203.572 -1645 72 64 70
-233.71 203.656 -1646 73 65 72
-230.362 203.617 -1646 76 68 75
-227.154 203.702 -1647 74 68 75
-224.079 203.912 -1649 73 66 74
-220.597 203.751 -1648 71 64 74
-217.648 204.085 -1651 72 65 75
-214.299 204.048 -1651 70 63 73
-211.208 204.26 -1653 68 65 73
-207.607 203.978 -1651 67 62 69
-204.758 204.437 -1655 63 56 61
-201.286 204.28 -1654 59 52 61
-198.179 204.493 -1656 60 53 63
-194.831 204.46 -1656 59 56 66
-191.83 204.798 -1659 63 59 68
-188.365 204.643 -1658 65 61 69
-185.352 204.982 -1661 65 59 68
-181.89 204.828 -1660 64 60 68
-178.863 205.168 -1663 68 67 75
-175.404 205.015 -1662 68 67 76
-172.054 204.986 -1662 66 65 73
-168.705 204.958 -1662 57 54 65
-165.357 204.93 -1662 54 51 63
-162.109 205.026 -1663 51 51 64
-158.762 204.999 -1663 63 64 77
-155.417 204.973 -1663 74 75 89
-151.889 204.701 -1661 77 79 96
-148.64 204.799 -1662 82 84 101
-145.562 205.144 -1665 85 86 102
-142.389 205.367 -1667 84 85 101
-139.125 205.466 -1668 82 83 100
-135.695 205.32 -1667 84 86 107
-132.667 205.79 -1671 87 89 110
-129.238 205.645 -1670 85 87 107
-125.888 205.624 -1670 83 82 100
-122.76 205.973 -1673 83 81 99
-119.479 206.076 -1674 83 83 100
-116.125 206.056 -1674 85 84 102
-112.839 206.16 -1675 84 82 101
-109.55 206.265 -1676 79 79 97
-106.131 206.124 -1675 80 81 99
-102.778 206.107 -1675 77 78 95
-99.3674 205.967 -1674 70 71 88
-96.0759 206.074 -1675 67 68 84
-92.8918 206.427 -1678 65 65 81
-89.5898 206.535 -1679 64 63 79
-86.2331 206.52 -1679 66 65 80
-83.0252 206.875 -1682 64 64 79
-79.6166 206.739 -1681 63 64 79
-76.3941 207.095 -1684 65 66 82
-73.1167 207.328 -1686 63 64 80
-69.8321 207.562 -1688 62 63 79
-66.5006 207.674 -1689 63 64 80
-63.1656 207.786 -1690 64 65 81
-59.8272 207.899 -1691 63 64 80
-56.4853 208.012 -1692 62 63 79
-53.2339 208.495 -1696 61 62 77
-49.9671 208.978 -1700 59 60 75
-46.63 209.216 -1702 61 62 77
-43.2852 209.454 -1704 60 61 76
-39.9796 209.939 -1708 58 59 75
-36.5727 209.933 -1708 58 59 74
-33.1855 210.05 -1709 60 61 75
-29.812 210.291 -1711 56 57 72
-26.4153 210.409 -1712 54 55 69
-23.0283 210.651 -1714 53 54 68
-19.645 211.016 -1717 52 53 67
-16.2498 211.381 -1720 50 51 65
-12.8205 211.379 -1720 49 51 64
-9.40211 211.623 -1722 51 53 65
-5.97239 211.745 -1723 55 56 69
-2.53894 211.867 -1724 54 55 69
0.898164 211.867 -1724 55 56 70
4.34282 212.236 -1727 55 55 68
7.78145 212.114 -1726 56 55 67
11.2356 212.361 -1728 52 53 65
14.7064 212.732 -1731 52 53 65
18.1576 212.735 -1731 50 53 66
21.5841 212.492 -1729 48 51 63
25.0173 212.373 -1728 45 48 59
28.4797 212.501 -1729 47 50 60
31.9094 212.383 -1728 54 57 66
35.4171 212.757 -1731 54 57 66
38.8923 212.886 -1732 53 54 64
42.3717 213.016 -1733 50 52 62
45.8289 213.023 -1733 51 53 64
49.315 213.154 -1734 52 54 65
52.775 213.163 -1734 51 52 64
56.3004 213.417 -1736 54 55 69
59.7999 213.55 -1737 54 55 69
63.2672 213.56 -1737 54 55 68
66.8119 213.817 -1739 52 53 67
70.2441 213.705 -1738 51 52 66
73.7574 213.84 -1739 52 53 67
77.2312 213.853 -1739 52 53 65
80.7517 213.989 -1740 55 54 64
84.2287 214.003 -1740 59 58 70
87.9079 214.509 -1744 55 55 66
91.3416 214.401 -1743 52 53 63
94.7722 214.293 -1742 49 50 58
98.1997 214.186 -1741 49 51 57
101.799 214.449 -1743 53 52 62
105.226 214.343 -1742 53 53 63
108.837 214.607 -1744 53 54 64
112.328 214.626 -1744 61 60 72
115.887 214.768 -1745 66 66 78
119.382 214.787 -1745 68 67 79
122.948 214.93 -1746 69 68 84
126.664 215.321 -1749 66 64 81
130.394 215.711 -1752 151 134 124
134.289 216.349 -1757 228 205 191
137.97 216.618 -1759 236 208 191
141.821 217.134 -1763 239 209 189
145.36 217.158 -1763 241 210 191
148.899 217.182 -1763 243 211 193
152.441 217.207 -1763 245 212 183
155.806 216.987 -1761 245 211 182
159.255 216.89 -1760 242 211 185
162.608 216.67 -1758 242 211 182
166.239 216.821 -1759 244 213 182
169.682 216.726 -1758 252 212 181
173.615 217.247 -1762 252 213 183
177.364 217.523 -1764 250 212 183
181.225 217.923 -1767 246 212 181
185.1 218.324 -1770 246 213 183
188.882 218.602 -1772 246 212 184
192.457 218.634 -1772 247 211 181
195.59 218.173 -1768 246 211 181
199.385 218.452 -1770 244 209 179
202.387 217.869 -1765 242 205 175
205.603 217.533 -1762 240 202 172
209.403 217.814 -1764 236 198 165
212.971 217.85 -1764 230 193 157
216.91 218.256 -1767 227 191 152
220.862 218.664 -1770 227 188 150
224.954 219.195 -1774 224 185 150
228.292 218.986 -1772 215 177 144
232.54 219.643 -1777 211 169 141
236.013 219.558 -1776 205 165 137
239.888 219.846 -1778 197 158 131
243.089 219.515 -1775 188 149 125
247.113 219.927 -1778 181 143 119
250.305 219.598 -1775 174 137 115
253.774 219.517 -1774 166 131 110
257.385 219.56 -1774 159 124 105
261.441 219.975 -1777 154 120 109
265.361 220.267 -1779 144 116 106
269.594 220.807 -1783 140 115 105
272.007 219.862 -1775 128 117 108
275.321 219.66 -1773 113 112 107
278.786 219.583 -1772 108 110 107
-756.386 218.703 -1699 156 127 113
-752.745 218.693 -1700 159 125 109
-747.786 218.298 -1698 169 131 112
-744.159 218.29 -1699 176 136 115
-737.484 217.383 -1693 181 140 115
-733.012 217.12 -1692 183 148 120
-729.414 217.115 -1693 187 151 121
-725.39 216.982 -1693 189 151 119
-720.947 216.722 -1692 194 155 123
-718.211 216.975 -1695 202 161 126
-714.204 216.845 -1695 211 167 129
-710.624 216.843 -1696 215 174 138
-706.628 216.714 -1696 221 180 144
-703.883 216.969 -1699 226 184 149
-699.071 216.587 -1697 229 189 157
-695.094 216.461 -1697 231 192 160
-691.532 216.463 -1698 233 195 163
-687.162 216.211 -1697 239 198 169
-682.803 215.96 -1696 240 200 170
-679.657 216.092 -1698 243 203 173
-676.508 216.224 -1700 244 204 176
-672.96 216.23 -1701 246 207 180
-669.808 216.363 -1703 249 209 182
-666.653 216.497 -1705 249 211 182
-661.164 215.87 -1701 250 212 187
-658.017 216.006 -1703 250 213 187
-653.331 215.635 -1701 250 215 187
-649.806 215.645 -1702 242 213 186
-644.386 215.023 -1698 242 212 185
-641.253 215.161 -1700 242 211 184
-636.617 214.794 -1698 231 207 187
-633.488 214.934 -1700 177 158 142
-627.392 214.063 -1694 93 82 77
-622.802 213.699 -1692 70 67 67
-618.227 213.337 -1690 71 68 70
-613.304 212.849 -1687 69 66 74
-609.483 212.74 -1687 66 64 72
-605.31 212.507 -1686 61 60 68
-601.147 212.274 -1685 58 59 68
-597.348 212.168 -1685 59 59 69
-593.555 212.063 -1685 61 61 71
-589.068 211.707 -1683 60 59 69
-584.595 211.352 -1681 61 60 69
-581.173 211.375 -1682 62 60 69
-577.409 211.273 -1682 60 58 66
-573.992 211.297 -1683 59 57 66
-570.236 211.197 -1683 59 57 66
-566.486 211.097 -1683 57 55 65
-563.076 211.123 -1684 61 59 68
-559.334 211.025 -1684 62 59 69
-555.267 210.802 -1683 60 59 69
-551.866 210.83 -1684 63 62 72
-547.488 210.484 -1682 60 59 69
-543.448 210.264 -1681 54 55 64
-540.38 210.419 -1683 55 57 65
-537.309 210.575 -1685 58 59 68
-532.967 210.232 -1683 57 58 69
-530.211 210.514 -1686 56 57 68
-526.822 210.547 -1687 57 58 70
-522.503 210.206 -1685 58 59 72
-518.814 210.116 -1685 56 57 70
-514.824 209.902 -1684 54 55 67
-511.146 209.813 -1684 53 54 66
-507.473 209.725 -1684 53 54 66
-504.403 209.886 -1686 53 54 68
-500.734 209.799 -1686 56 59 72
-497.365 209.838 -1687 60 63 76
-494.289 210.001 -1689 52 53 67
-490.047 209.667 -1687 36 39 52
-486.683 209.707 -1688 44 48 61
-482.46 209.375 -1686 48 53 64
-479.102 209.417 -1687 50 55 67
-474.899 209.086 -1685 52 57 69
-471.268 209.005 -1685 51 55 66
-467.641 208.925 -1685 53 57 68
-463.743 208.721 -1684 55 58 69
-459.581 208.394 -1682 53 56 67
-455.702 208.191 -1681 54 57 68
-451.562 207.866 -1679 55 58 71
-447.702 207.665 -1678 55 58 72
-444.114 207.589 -1678 55 57 73
-441.056 207.761 -1680 57 60 73
-436.43 207.192 -1676 59 62 75
-432.859 207.117 -1676 59 62 75
-428.779 206.797 -1674 60 62 77
-424.457 206.354 -1671 59 61 77
-420.152 205.911 -1668 60 62 78
-415.114 205.1 -1662 60 63 77
-410.848 204.659 -1659 58 61 74
-406.598 204.22 -1656 58 59 73
-402.608 203.905 -1654 61 63 77
-399.113 203.837 -1654 62 67 80
-395.621 203.769 -1654 61 66 81
-392.607 203.949 -1656 56 61 76
-388.882 203.76 -1655 56 58 74
-385.631 203.817 -1656 55 57 74
-381.456 203.383 -1653 56 58 76
-377.526 203.073 -1651 59 61 79
-373.607 202.764 -1649 64 66 84
-370.149 202.701 -1649 67 69 87
-366.472 202.516 -1648 71 73 92
-363.903 202.946 -1652 76 78 98
-361.539 203.499 -1657 70 74 94
-357.429 203.07 -1654 66 70 90
-353.976 203.01 -1654 67 71 91
-349.89 202.583 -1651 70 74 94
-346.24 202.401 -1650 76 79 100
-341.973 201.853 -1646 85 87 108
-339.371 202.286 -1650 87 88 110
-335.942 202.23 -1650 82 82 105
-332.313 202.051 -1649 70 68 89
-328.293 201.628 -1646 60 60 80
-324.485 201.329 -1644 60 62 82
-321.86 201.764 -1648 62 66 89
-318.255 201.588 -1647 65 68 92
-314.849 201.535 -1647 65 66 88
-311.066 201.238 -1645 64 63 85
-307.482 201.064 -1644 66 64 86
-304.089 201.013 -1644 63 66 85
-301.247 201.329 -1647 63 66 84
-298.034 201.402 -1648 64 63 81
-295.356 201.841 -1652 61 63 80
-291.604 201.548 -1650 61 65 81
-288.735 201.866 -1653 64 66 88
-285.511 201.94 -1654 64 66 88
-281.945 201.771 -1653 65 66 87
-278.89 201.968 -1655 67 68 85
-275.33 201.8 -1654 68 69 85
-272.106 201.877 -1655 67 70 85
-268.23 201.466 -1652 68 70 84
-265.01 201.544 -1653 68 70 82
-260.997 201.012 -1649 65 71 83
-257.315 200.726 -1647 65 70 82
-253.488 200.318 -1644 73 64 75
-250.285 200.398 -1645 70 64 72
-246.78 200.235 -1644 68 63 70
-243.429 200.194 -1644 70 63 69
-240.225 200.276 -1645 71 64 70
-236.732 200.115 -1644 74 67 72
-233.245 199.954 -1643 77 69 75
-230.184 200.159 -1645 80 72 78
-227.116 200.365 -1647 78 71 77
-223.906 200.449 -1648 75 67 74
-220.694 200.534 -1649 73 64 74
-217.48 200.62 -1650 73 64 74
-214.134 200.584 -1650 69 60 71
-210.789 200.549 -1650 66 61 69
-207.572 200.636 -1651 64 58 66
-204.353 200.724 -1652 62 55 61
-201.253 200.933 -1654 60 53 63
-198.027 201.022 -1655 62 55 65
-194.681 200.99 -1655 61 57 66
-191.683 201.322 -1658 62 57 66
-188.334 201.291 -1658 64 59 67
-185.321 201.624 -1661 64 60 68
-181.75 201.351 -1659 66 63 70
-178.619 201.564 -1661 70 70 80
-175.058 201.293 -1659 69 68 77
-171.715 201.264 -1659 68 66 73
-168.372 201.236 -1659 58 55 64
-165.231 201.452 -1661 53 51 60
-161.79 201.303 -1660 51 52 64
-158.449 201.277 -1660 66 67 79
-155.204 201.373 -1661 75 77 89
-151.681 201.105 -1659 78 81 97
-148.168 200.838 -1657 80 83 99
-145.101 201.178 -1660 79 80 96
-142.109 201.639 -1664 79 80 97
-138.768 201.616 -1664 76 78 96
-135.428 201.593 -1664 79 81 99
-132.328 201.935 -1667 86 87 105
-128.907 201.792 -1666 86 87 105
-125.491 201.65 -1665 83 82 99
-122.447 202.115 -1669 81 80 96
-119.245 202.337 -1671 81 79 96
-115.967 202.439 -1672 81 79 97
-112.618 202.42 -1672 80 78 97
-109.336 202.523 -1673 79 80 98
-106.05 202.627 -1674 79 80 98
-102.516 202.246 -1671 74 75 91
-99.2324 202.351 -1672 70 71 87
-95.9454 202.456 -1673 68 69 85
-92.7658 202.804 -1676 63 64 80
-89.5217 203.031 -1678 63 63 79
-86.219 203.137 -1679 65 63 80
-83.0116 203.487 -1682 62 62 77
-79.6508 203.473 -1682 60 61 75
-76.3815 203.702 -1684 64 65 81
-73.018 203.69 -1684 64 65 81
-69.6965 203.8 -1685 63 64 80
-66.3321 203.789 -1685 60 62 78
-63.0805 204.141 -1688 60 62 78
-59.7466 204.252 -1689 61 63 79
-56.4426 204.484 -1691 63 65 80
-53.1939 204.959 -1695 62 65 78
-49.9002 205.313 -1698 61 64 77
-46.5676 205.547 -1700 64 67 80
-43.2272 205.782 -1702 64 67 80
-39.973 206.5 -1708 63 66 79
-36.6095 206.736 -1710 62 65 78
-33.1994 206.73 -1710 59 61 77
-29.8419 207.088 -1713 55 57 72
-26.4418 207.204 -1714 52 53 67
-23.0514 207.442 -1716 52 53 67
-19.6418 207.559 -1717 52 53 67
-16.2471 207.919 -1720 51 52 66
-12.811 207.796 -1719 50 51 65
-9.40061 208.157 -1722 51 52 66
-5.96798 208.155 -1722 53 54 68
-2.53855 208.396 -1724 54 55 69
0.898529 208.517 -1725 54 55 69
4.34463 208.88 -1728 53 54 67
7.7937 209.002 -1729 54 55 67
11.2338 208.883 -1728 52 54 67
14.6953 209.127 -1730 51 53 66
18.1442 209.129 -1730 50 53 66
21.5682 208.891 -1728 48 51 63
24.9988 208.774 -1727 47 50 61
28.4422 208.778 -1727 50 53 63
31.8858 208.783 -1727 54 57 67
35.3703 209.03 -1729 52 55 65
38.9082 209.52 -1733 49 51 62
42.3891 209.648 -1734 47 49 59
45.8478 209.655 -1734 48 51 62
49.3069 209.663 -1734 52 54 65
52.7055 209.429 -1732 53 54 66
56.2264 209.68 -1734 54 56 68
59.7212 209.81 -1735 53 55 67
63.2568 210.062 -1737 54 54 67
66.8009 210.315 -1739 53 53 65
70.2728 210.326 -1739 51 51 64
73.7453 210.338 -1739 50 51 64
77.2627 210.471 -1740 52 52 64
80.7385 210.484 -1740 57 56 67
84.2631 210.618 -1741 58 58 70
87.8429 210.874 -1743 53 53 65
91.2743 210.768 -1742 49 50 60
94.7024 210.662 -1741 50 51 59
98.1836 210.678 -1741 52 52 60
101.782 210.936 -1743 52 54 62
105.209 210.832 -1742 54 56 65
108.757 210.971 -1743 55 57 67
112.245 210.989 -1743 62 63 76
115.868 211.25 -1745 65 66 79
119.294 211.148 -1744 67 67 79
122.928 211.41 -1746 69 70 80
126.861 212.157 -1752 73 75 84
130.521 212.42 -1754 185 166 153
134.42 213.047 -1759 224 201 184
138.026 213.191 -1760 229 203 182
141.637 213.335 -1761 234 201 178
145.253 213.479 -1762 237 203 180
148.875 213.625 -1763 239 204 181
152.588 213.892 -1765 242 203 171
155.957 213.675 -1763 241 203 170
159.409 213.579 -1762 240 204 174
162.674 213.242 -1759 239 204 171
166.306 213.39 -1760 241 206 171
169.847 213.418 -1760 248 202 167
173.586 213.689 -1762 246 201 167
177.536 214.203 -1766 243 199 166
181.503 214.717 -1770 238 197 163
185.279 214.99 -1772 238 197 163
188.851 215.021 -1772 238 198 165
192.859 215.538 -1776 238 197 164
195.89 214.963 -1771 237 196 163
199.127 214.631 -1768 233 193 159
202.812 214.785 -1769 230 189 156
206.036 214.455 -1766 226 185 152
209.487 214.368 -1765 220 180 145
213.419 214.767 -1768 215 176 136
217.61 215.41 -1773 210 173 130
220.825 215.081 -1770 212 171 131
224.79 215.483 -1773 210 169 133
228.512 215.642 -1774 202 161 128
232.501 216.044 -1777 197 154 128
236.106 216.083 -1777 191 151 128
239.983 216.366 -1779 176 142 121
243.185 216.041 -1776 164 130 114
246.794 216.081 -1776 155 122 106
249.277 215.149 -1768 146 115 101
252.444 214.825 -1765 140 112 101
-751.173 215.672 -1706 156 129 122
-747.527 215.663 -1707 153 125 116
-739.528 214.392 -1698 159 128 114
-736.345 214.512 -1700 162 133 117
-732.297 214.38 -1700 166 137 118
-726.972 213.871 -1697 170 138 116
-721.669 213.363 -1694 179 144 117
-718.929 213.611 -1697 185 149 120
-714.497 213.357 -1696 191 155 124
-710.077 213.104 -1695 201 162 130
-706.501 213.103 -1696 208 166 134
-702.514 212.978 -1696 213 170 139
-699.357 213.104 -1698 219 177 146
-696.198 213.23 -1700 220 181 148
-691.815 212.982 -1699 218 182 147
-688.658 213.11 -1701 224 187 152
-684.291 212.863 -1700 230 190 155
-680.736 212.867 -1701 234 192 159
-675.989 212.496 -1699 235 191 160
-672.445 212.502 -1700 238 192 166
-668.902 212.509 -1701 243 195 169
-665.362 212.516 -1702 247 196 167
-661.435 212.399 -1702 247 201 169
-656.741 212.033 -1700 247 203 170
-652.447 211.793 -1699 245 204 170
-649.31 211.928 -1701 244 204 178
-645.41 211.814 -1701 240 201 174
-641.894 211.826 -1702 240 201 172
-637.629 211.589 -1701 233 203 178
-633.003 211.229 -1699 187 164 145
-628.022 210.746 -1696 96 85 76
-623.428 210.388 -1694 75 72 65
-618.85 210.031 -1692 71 68 66
-614.286 209.675 -1690 65 64 71
-610.099 209.445 -1689 61 62 68
-605.203 208.967 -1686 56 58 64
-601.398 208.862 -1686 57 60 67
-597.243 208.634 -1685 59 58 68
-593.451 208.53 -1685 63 62 72
-589.665 208.428 -1685 62 61 71
-585.188 208.078 -1683 60 59 69
-581.763 208.101 -1684 60 59 69
-577.652 207.877 -1683 59 59 67
-573.892 207.778 -1683 59 57 67
-570.137 207.679 -1683 60 58 68
-566.724 207.704 -1684 57 56 66
-562.978 207.607 -1684 57 56 66
-558.904 207.387 -1683 58 57 67
-554.841 207.168 -1682 59 58 68
-551.77 207.319 -1684 60 59 69
-547.719 207.101 -1683 59 58 68
-543.677 206.885 -1682 56 57 67
-539.966 206.792 -1682 57 58 68
-536.897 206.945 -1684 58 59 69
-532.875 206.731 -1683 59 60 72
-530.119 207.008 -1686 58 59 71
-526.731 207.041 -1687 58 59 71
-522.413 206.705 -1685 59 60 72
-518.725 206.617 -1685 57 58 70
-515.041 206.529 -1685 55 56 68
-511.362 206.441 -1685 53 54 66
-507.386 206.232 -1684 52 53 66
-504.914 206.635 -1688 54 55 69
-501.54 206.672 -1689 57 59 72
-497.28 206.343 -1687 59 62 75
-493.912 206.381 -1688 52 53 67
-489.963 206.175 -1687 33 36 49
-486.312 206.093 -1687 37 41 54
-482.092 205.766 -1685 48 53 64
-478.737 205.807 -1686 52 57 68
-474.536 205.482 -1684 53 58 71
-470.908 205.403 -1684 52 56 67
-467.839 205.567 -1686 52 56 67
-462.839 204.879 -1681 53 56 67
-459.229 204.802 -1681 55 58 69
-455.624 204.725 -1681 54 57 68
-451.485 204.405 -1679 53 56 69
-447.626 204.207 -1678 54 56 71
-444.304 204.254 -1679 55 57 73
-440.456 204.058 -1678 56 59 72
-436.877 203.984 -1678 58 61 74
-432.786 203.668 -1676 59 62 75
-428.45 203.232 -1673 60 62 77
-423.878 202.675 -1669 58 60 76
-419.83 202.361 -1667 58 60 76
-415.044 201.685 -1662 60 63 77
-410.531 201.13 -1658 57 60 73
-406.53 200.819 -1656 57 58 72
-402.784 200.631 -1655 57 60 73
-398.805 200.321 -1653 58 63 76
-395.794 200.497 -1655 60 63 78
-392.304 200.432 -1655 57 60 76
-388.582 200.246 -1654 55 57 73
-385.334 200.302 -1655 53 55 72
-380.7 199.634 -1650 55 57 75
-377.463 199.692 -1651 60 62 80
-373.318 199.267 -1648 64 66 84
-369.863 199.205 -1648 64 66 84
-366.633 199.265 -1649 67 69 87
-363.402 199.325 -1650 72 74 93
-360.606 199.627 -1653 71 74 94
-356.721 199.326 -1651 66 69 89
-353.489 199.388 -1652 65 69 89
-349.62 199.089 -1650 71 73 93
-346.602 199.273 -1652 73 76 96
-342.747 198.975 -1650 77 81 101
-339.109 198.798 -1649 80 84 104
-335.682 198.742 -1649 75 79 100
-331.653 198.326 -1646 67 67 86
-327.64 197.91 -1643 61 61 79
-324.431 197.977 -1644 62 61 80
-321.026 197.924 -1644 65 64 85
-317.43 197.751 -1643 68 67 88
-314.414 197.939 -1645 61 65 83
-310.636 197.647 -1643 65 66 85
-306.87 197.356 -1641 72 70 91
-303.114 197.065 -1639 75 73 95
-300.466 197.497 -1643 72 71 92
-296.9 197.328 -1642 67 68 89
-294.592 198 -1648 64 66 84
-291.025 197.832 -1647 66 67 85
-287.814 197.905 -1648 65 67 88
-284.601 197.978 -1649 65 68 87
-281.387 198.052 -1650 65 69 87
-278.002 198.006 -1650 69 69 86
-274.786 198.081 -1651 72 70 87
-271.404 198.036 -1651 72 69 82
-267.861 197.872 -1650 71 70 81
-264.486 197.829 -1650 69 70 80
-260.638 197.426 -1647 69 71 83
-257.116 197.264 -1646 68 69 81
-253.293 196.863 -1643 74 65 76
-249.94 196.822 -1643 74 66 73
-246.739 196.902 -1644 76 69 73
-243.241 196.742 -1643 73 69 74
-240.04 196.822 -1644 71 67 71
-236.549 196.664 -1643 72 68 71
-233.207 196.626 -1643 76 69 74
-229.866 196.588 -1643 78 70 76
-226.803 196.79 -1645 78 70 76
-223.462 196.754 -1645 74 66 73
-220.524 197.076 -1648 72 65 73
-217.313 197.161 -1649 71 63 71
-213.969 197.126 -1649 67 59 68
-210.755 197.211 -1650 64 56 64
-207.538 197.296 -1651 64 56 64
-204.196 197.263 -1651 66 59 65
-200.855 197.23 -1651 65 58 66
-197.755 197.437 -1653 64 57 66
-194.531 197.524 -1654 64 57 65
-191.536 197.851 -1657 64 58 65
-188.303 197.94 -1658 67 60 67
-185.068 198.029 -1659 66 63 70
-181.83 198.119 -1660 68 65 73
-178.267 197.851 -1658 74 70 81
-174.713 197.584 -1656 73 69 78
-171.066 197.198 -1653 71 66 75
-167.939 197.409 -1655 61 58 67
-164.706 197.502 -1656 55 52 63
-161.373 197.476 -1656 58 57 71
-158.042 197.45 -1656 70 70 84
-154.898 197.663 -1658 78 78 92
-151.565 197.638 -1658 84 82 101
-148.144 197.495 -1657 83 83 100
-144.903 197.591 -1658 77 78 94
-141.915 198.044 -1662 74 75 93
-138.662 198.141 -1663 75 76 94
-135.244 198 -1662 80 81 99
-131.989 198.097 -1663 84 85 103
-128.808 198.314 -1665 81 82 100
-125.395 198.175 -1664 77 78 95
-122.207 198.393 -1666 78 78 94
-119.012 198.612 -1668 80 78 95
-115.671 198.593 -1668 78 76 94
-112.33 198.575 -1668 79 77 96
-109.122 198.795 -1670 80 81 99
-105.906 199.016 -1672 77 78 96
-102.561 198.999 -1672 71 72 88
-99.2162 198.983 -1672 69 70 86
-95.9298 199.086 -1673 68 69 85
-92.6402 199.19 -1674 64 65 81
-89.4005 199.413 -1676 62 63 79
-86.1537 199.637 -1678 62 62 78
-82.9488 199.981 -1681 59 60 75
-79.5433 199.849 -1680 59 61 75
-76.3237 200.193 -1683 64 65 81
-72.9629 200.181 -1683 64 65 81
-69.6852 200.407 -1685 62 63 79
-66.2821 200.278 -1684 59 61 77
-63.033 200.624 -1687 59 61 77
-59.7016 200.733 -1688 61 63 79
-56.4335 201.081 -1691 62 64 79
-53.1539 201.428 -1694 61 64 77
-49.9215 202.015 -1699 62 65 78
-46.5874 202.245 -1701 62 65 78
-43.2964 202.713 -1705 61 64 77
-39.9665 203.063 -1708 61 64 77
-36.625 203.414 -1711 62 65 78
-33.2135 203.408 -1711 57 59 75
-29.8545 203.76 -1714 53 55 71
-26.4685 203.993 -1716 50 51 65
-23.0746 204.227 -1718 49 50 64
-19.65 204.223 -1718 52 53 67
-16.254 204.577 -1721 53 54 68
-12.8312 204.694 -1722 53 54 68
-9.41004 204.93 -1724 52 53 67
-5.97397 204.928 -1724 54 55 69
-2.5411 205.166 -1726 56 57 71
0.898376 205.046 -1725 53 54 68
4.3389 205.166 -1726 50 51 64
7.77894 205.167 -1726 53 54 66
11.2123 205.049 -1725 51 54 67
14.659 205.17 -1726 51 54 67
18.0888 205.054 -1725 47 50 63
21.5023 204.82 -1723 48 51 63
24.9368 204.823 -1723 51 54 65
28.4045 205.065 -1725 52 55 66
31.899 205.427 -1728 52 55 66
35.4056 205.789 -1731 49 52 63
38.9469 206.27 -1735 47 50 61
42.4312 206.396 -1736 47 50 61
45.8669 206.284 -1735 49 52 63
49.3275 206.292 -1735 51 53 65
52.7275 206.062 -1733 54 55 67
56.2173 206.19 -1734 56 59 70
59.6771 206.199 -1734 54 56 67
63.2101 206.447 -1736 54 54 66
66.7901 206.814 -1739 53 53 65
70.221 206.706 -1738 52 52 64
73.691 206.718 -1738 50 51 63
77.117 206.611 -1737 53 53 65
80.818 207.218 -1742 55 54 66
84.2979 207.232 -1742 53 54 66
87.879 207.483 -1744 50 51 63
91.3118 207.379 -1743 49 50 60
94.8501 207.513 -1744 51 51 61
98.224 207.29 -1742 55 54 64
101.649 207.187 -1741 53 55 63
105.131 207.204 -1741 54 57 66
108.864 207.697 -1745 57 59 70
112.227 207.477 -1743 61 64 77
115.982 207.971 -1747 62 65 78
119.411 207.871 -1746 67 68 80
123.119 208.248 -1749 68 73 75
126.84 208.625 -1752 94 99 98
130.574 209.003 -1755 197 176 163
134.321 209.382 -1758 217 196 177
137.925 209.523 -1759 220 198 173
141.614 209.784 -1761 226 193 166
145.23 209.926 -1762 230 194 165
148.851 210.069 -1763 234 194 160
152.39 210.093 -1763 238 193 157
155.843 209.999 -1762 237 192 156
159.293 209.905 -1761 235 190 153
162.647 209.693 -1759 232 189 151
166.09 209.6 -1758 232 191 152
169.626 209.627 -1758 237 189 151
173.459 210.012 -1761 232 185 147
177.507 210.637 -1766 229 183 146
181.371 211.024 -1769 225 180 146
185.249 211.411 -1772 224 178 146
189.246 211.919 -1776 222 178 148
192.828 211.95 -1776 219 178 144
196.411 211.981 -1776 217 177 142
199.432 211.416 -1771 213 175 140
202.779 211.21 -1769 209 172 137
206.236 211.124 -1768 204 167 132
210.046 211.396 -1770 200 162 127
213.022 210.834 -1765 197 160 123
216.961 211.227 -1768 191 156 118
220.664 211.382 -1769 191 153 119
224.754 211.896 -1773 185 148 118
228.346 211.933 -1773 178 142 116
232.202 212.209 -1775 173 135 118
236.068 212.486 -1777 159 127 112
239.404 212.286 -1775 137 113 101
241.639 211.129 -1765 111 88 82
244.391 210.45 -1759 101 81 76
246.275 209.054 -1747 114 103 100
-737.219 210.14 -1693 190 168 163
-734.914 210.506 -1697 172 151 144
-732.598 210.873 -1701 160 137 127
-726.843 210.248 -1697 152 127 113
-721.967 209.873 -1695 161 132 112
-719.225 210.117 -1698 169 140 118
-715.213 209.991 -1698 173 145 121
-710.788 209.742 -1697 184 150 123
-706.376 209.494 -1696 191 153 127
-703.218 209.618 -1698 197 158 131
-698.822 209.371 -1697 201 162 136
-696.485 209.743 -1701 202 165 135
-693.322 209.868 -1703 205 168 137
-689.751 209.87 -1704 211 174 143
-685.781 209.75 -1704 216 175 143
-681.817 209.631 -1704 219 176 143
-678.257 209.636 -1705 223 176 144
-673.909 209.395 -1704 223 179 150
-669.965 209.278 -1704 228 183 153
-666.809 209.408 -1706 234 186 154
-662.873 209.293 -1706 234 189 155
-658.558 209.056 -1705 234 191 156
-653.485 208.574 -1702 235 193 158
-649.96 208.584 -1703 235 194 165
-645.298 208.227 -1701 235 194 165
-642.159 208.361 -1703 236 196 166
-637.893 208.128 -1702 230 198 173
-634.011 208.019 -1702 197 171 152
-628.283 207.299 -1697 110 95 85
-623.32 206.826 -1694 77 71 66
-619.108 206.597 -1693 69 65 65
-614.18 206.125 -1690 67 65 72
-609.993 205.898 -1689 64 64 70
-605.817 205.672 -1688 57 58 64
-602.007 205.569 -1688 57 57 65
-597.141 205.101 -1685 59 58 68
-594.053 205.243 -1687 64 63 73
-590.263 205.142 -1687 63 62 72
-586.131 204.92 -1686 62 61 71
-582.354 204.821 -1686 59 59 68
-578.582 204.722 -1686 57 58 65
-573.793 204.26 -1683 59 58 67
-570.04 204.163 -1683 60 58 68
-566.291 204.066 -1683 58 57 67
-562.213 203.849 -1682 58 57 67
-558.145 203.633 -1681 59 58 68
-555.076 203.781 -1683 59 58 68
-551.021 203.567 -1682 59 58 68
-547.3 203.474 -1682 59 58 68
-542.938 203.14 -1680 57 58 68
-539.553 203.17 -1681 58 59 69
-535.85 203.079 -1681 59 60 70
-532.784 203.231 -1683 60 61 73
-529.715 203.383 -1685 59 60 72
-526.33 203.415 -1686 59 60 72
-522.635 203.327 -1686 59 60 72
-518.945 203.24 -1686 58 59 71
-514.954 203.032 -1685 56 57 69
-511.275 202.947 -1685 54 55 67
-507.903 202.982 -1686 53 54 66
-504.53 203.017 -1687 52 55 68
-501.158 203.054 -1688 54 57 70
-497.197 202.85 -1687 55 58 71
-493.537 202.767 -1687 51 52 66
-489.01 202.325 -1684 34 37 50
-485.653 202.364 -1685 33 36 49
-482.011 202.283 -1685 46 51 62
-478.089 202.083 -1684 52 57 68
-474.457 202.004 -1684 54 59 72
-471.389 202.166 -1686 55 58 69
-467.206 201.848 -1684 54 57 68
-462.761 201.411 -1681 54 57 68
-459.426 201.455 -1682 55 58 69
-455.277 201.14 -1680 53 56 67
-451.679 201.065 -1680 52 55 68
-447.551 200.751 -1678 53 56 70
-444.23 200.797 -1679 55 57 73
-440.12 200.485 -1677 56 59 72
-436.024 200.173 -1675 57 60 73
-432.456 200.102 -1675 58 61 74
-428.379 199.792 -1673 59 61 77
-424.061 199.364 -1670 59 61 77
-420.263 199.175 -1669 58 60 76
-415.724 198.629 -1665 59 62 76
-410.463 197.726 -1658 57 60 73
-406.463 197.421 -1656 56 59 72
-402.717 197.235 -1655 55 59 72
-398.739 196.931 -1653 56 61 74
-395.011 196.747 -1652 58 60 76
-391.528 196.683 -1652 55 57 73
-388.048 196.619 -1652 53 55 71
-384.106 196.318 -1650 51 53 70
-380.637 196.255 -1650 54 56 74
-376.486 195.836 -1647 59 61 79
-373.257 195.894 -1648 63 65 83
-369.578 195.715 -1647 67 69 87
-365.906 195.536 -1646 68 70 88
-362.682 195.595 -1647 70 72 90
-359.675 195.774 -1649 71 73 93
-355.798 195.478 -1647 66 68 89
-352.575 195.54 -1648 63 67 87
-348.927 195.364 -1647 70 71 90
-345.706 195.426 -1648 69 71 90
-341.86 195.133 -1646 70 75 92
-338.437 195.078 -1646 73 77 96
-334.813 194.905 -1645 68 72 92
-330.793 194.496 -1642 64 65 83
-326.988 194.205 -1640 61 61 80
-323.786 194.271 -1641 63 62 82
-320.192 194.101 -1640 64 63 83
-316.798 194.049 -1640 65 64 84
-313.216 193.88 -1639 68 68 85
-309.641 193.711 -1638 71 70 89
-306.072 193.543 -1637 75 73 94
-302.695 193.494 -1637 73 72 94
-299.503 193.564 -1638 70 70 92
-296.852 193.989 -1642 67 68 89
-294.008 194.295 -1645 66 67 86
-290.448 194.13 -1644 69 70 88
-287.418 194.32 -1646 71 72 92
-284.037 194.274 -1646 69 70 89
-280.659 194.228 -1646 70 71 87
-277.283 194.184 -1646 72 73 89
-274.242 194.375 -1648 76 77 93
-271.031 194.449 -1649 71 69 81
-267.656 194.406 -1649 71 70 81
-264.603 194.599 -1651 69 70 80
-260.754 194.204 -1648 71 71 83
-256.762 193.691 -1644 71 70 81
-253.252 193.532 -1643 73 66 77
-249.899 193.492 -1643 76 68 77
-246.399 193.334 -1642 81 73 80
-243.053 193.295 -1642 77 72 80
-239.563 193.139 -1641 74 69 77
-235.936 192.866 -1639 75 71 77
-232.743 192.946 -1640 76 70 78
-229.409 192.909 -1640 73 65 74
-226.491 193.225 -1643 76 64 74
-223.29 193.307 -1644 73 63 72
-220.489 193.742 -1648 71 63 72
-217.146 193.707 -1648 68 60 69
-214.064 193.908 -1650 67 59 67
-210.593 193.756 -1649 64 57 66
-207.38 193.841 -1650 64 57 65
-204.04 193.808 -1650 67 60 67
-200.701 193.776 -1650 66 59 68
-197.484 193.861 -1651 64 57 66
-194.383 194.065 -1653 68 60 67
-191.159 194.152 -1654 70 62 69
-187.932 194.239 -1655 72 64 70
-184.48 194.092 -1654 68 65 73
-181.144 194.063 -1654 70 67 75
-177.701 193.917 -1653 79 71 84
-174.263 193.772 -1652 77 71 83
-170.832 193.627 -1651 70 65 76
-167.405 193.483 -1650 61 56 68
-164.282 193.691 -1652 59 54 67
-160.958 193.666 -1652 61 57 72
-157.73 193.757 -1653 71 67 83
-154.593 193.967 -1655 80 77 93
-151.084 193.708 -1653 87 84 104
-147.942 193.919 -1655 85 83 102
-144.618 193.896 -1655 78 79 97
-141.551 194.225 -1658 74 75 93
-138.306 194.32 -1659 76 77 95
-135.059 194.415 -1660 81 82 100
-131.809 194.511 -1661 82 83 101
-128.556 194.608 -1662 77 78 96
-125.3 194.705 -1663 74 74 90
-122.041 194.802 -1664 74 74 90
-118.85 195.017 -1666 74 72 89
-115.513 194.999 -1666 72 70 88
-112.245 195.098 -1667 75 73 92
-108.909 195.081 -1667 79 80 98
-105.699 195.298 -1669 74 75 93
-102.361 195.281 -1669 68 69 85
-99.0818 195.382 -1670 68 69 85
-95.7425 195.367 -1670 68 69 85
-92.57 195.703 -1673 63 64 80
-89.2796 195.806 -1674 61 62 78
-86.0886 196.143 -1677 60 61 77
-82.8863 196.48 -1680 59 61 75
-79.5307 196.467 -1680 61 64 77
-76.2663 196.689 -1682 64 65 80
-72.9079 196.677 -1682 63 65 80
-69.6328 196.9 -1684 61 63 79
-66.2716 196.889 -1684 60 62 78
-63.023 197.23 -1687 61 63 78
-59.7275 197.454 -1689 61 63 79
-56.3912 197.562 -1690 61 63 78
-53.1455 198.021 -1694 60 63 76
-49.8842 198.48 -1698 60 63 76
-46.5526 198.706 -1700 60 63 76
-43.2642 199.167 -1704 58 61 74
-39.9602 199.628 -1708 58 61 74
-36.6192 199.972 -1711 58 61 74
-33.2276 200.084 -1712 57 59 75
-29.8846 200.546 -1716 53 55 70
-26.4797 200.659 -1717 50 51 65
-23.0843 200.889 -1719 48 49 63
-19.6584 200.885 -1719 51 52 66
-16.2514 201.116 -1721 53 54 68
-12.8292 201.231 -1722 53 54 68
-9.40859 201.463 -1724 53 54 68
-5.97305 201.461 -1724 53 54 68
-2.5405 201.694 -1726 55 56 70
0.899266 201.811 -1727 51 52 66
4.33821 201.695 -1726 50 51 64
7.77771 201.696 -1726 51 52 64
11.2106 201.58 -1725 51 54 67
14.6567 201.699 -1726 49 52 65
18.065 201.351 -1723 46 49 62
21.4863 201.238 -1722 47 50 62
24.9618 201.592 -1725 50 53 64
28.4165 201.713 -1726 49 52 63
31.9309 202.185 -1730 48 51 62
35.4203 202.424 -1732 45 48 59
38.9855 203.014 -1737 48 51 62
42.4732 203.138 -1738 50 53 64
45.9124 203.028 -1737 51 54 65
49.348 202.918 -1736 51 53 65
52.7495 202.693 -1734 54 55 67
56.2083 202.701 -1734 55 58 69
59.6331 202.594 -1733 52 54 66
63.0909 202.603 -1733 50 51 63
66.7027 203.081 -1737 52 53 65
70.2906 203.443 -1740 53 53 65
73.7641 203.454 -1740 51 52 64
77.238 203.466 -1740 51 51 63
80.8516 203.829 -1743 50 49 61
84.3329 203.842 -1743 47 48 60
87.8651 203.973 -1744 50 51 62
91.2974 203.87 -1743 51 52 62
94.7805 203.885 -1743 52 53 63
98.0955 203.549 -1740 54 55 65
101.691 203.799 -1742 54 56 65
105.175 203.815 -1742 55 57 67
108.784 204.066 -1744 59 60 72
112.145 203.85 -1742 61 64 77
115.897 204.336 -1746 62 64 77
119.529 204.588 -1748 65 66 78
123.17 204.842 -1750 75 74 78
126.892 205.213 -1753 126 126 126
130.702 205.701 -1757 202 177 163
134.376 205.957 -1759 212 186 165
137.981 206.095 -1760 218 190 163
141.672 206.351 -1762 226 188 156
145.289 206.491 -1763 226 187 153
148.996 206.749 -1765 225 184 146
152.366 206.538 -1763 226 181 144
156.083 206.797 -1765 227 181 144
159.267 206.354 -1761 224 178 142
162.714 206.262 -1760 221 177 140
165.969 205.936 -1757 220 178 140
169.599 206.08 -1758 216 171 133
173.431 206.459 -1761 211 168 131
177.478 207.073 -1766 209 168 131
181.239 207.336 -1768 205 163 132
185.323 207.952 -1773 202 160 130
189.429 208.568 -1778 199 157 130
192.362 207.894 -1772 194 156 127
196.379 208.395 -1776 191 154 124
199.287 207.722 -1770 186 153 123
202.975 207.871 -1771 181 148 118
205.969 207.317 -1766 176 143 114
209.775 207.585 -1768 174 142 112
213.229 207.501 -1767 168 139 109
216.681 207.418 -1766 160 133 102
220.254 207.453 -1766 155 124 98
223.957 207.606 -1767 147 117 95
227.537 207.642 -1767 135 107 89
231.51 208.031 -1770 125 96 87
234.967 207.95 -1769 109 85 78
238.422 207.871 -1768 77 63 59
239.821 206.027 -1752 63 49 51
-725.431 206.263 -1694 199 181 175
-721.415 206.137 -1694 166 145 134
-718.676 206.378 -1697 148 127 112
-715.088 206.375 -1698 152 132 115
-710.246 206.009 -1696 163 138 118
-706.67 206.009 -1697 174 143 123
-702.682 205.887 -1697 181 148 128
-699.524 206.009 -1699 182 149 128
-697.593 206.495 -1704 183 148 123
-695.237 206.86 -1708 189 153 128
-690.846 206.62 -1707 192 156 130
-686.065 206.26 -1705 198 156 127
-682.099 206.143 -1705 203 160 130
-677.743 205.905 -1704 206 160 128
-673.397 205.669 -1703 207 166 134
-669.85 205.675 -1704 211 169 136
-666.304 205.682 -1705 215 171 138
-662.759 205.689 -1706 216 173 140
-658.445 205.456 -1705 218 175 142
-654.141 205.224 -1704 222 177 145
-650.23 205.114 -1704 225 182 152
-647.084 205.244 -1706 225 183 153
-642.427 204.894 -1704 226 183 153
-640.033 205.267 -1708 219 184 159
-634.275 204.558 -1703 199 172 152
-628.916 203.971 -1699 125 106 95
-622.846 203.145 -1693 75 69 65
-619.369 203.16 -1694 69 65 66
-614.439 202.697 -1691 68 65 72
-610.612 202.593 -1691 65 64 71
-606.432 202.371 -1690 61 59 66
-601.905 202.03 -1688 59 57 65
-597.748 201.81 -1687 56 55 65
-594.305 201.83 -1688 61 60 70
-590.513 201.73 -1688 63 62 72
-587.075 201.751 -1689 62 62 72
-582.601 201.414 -1687 58 59 68
-578.142 201.079 -1685 58 60 68
-574.038 200.863 -1684 61 60 70
-569.605 200.529 -1682 62 61 71
-566.196 200.554 -1683 61 60 70
-562.119 200.341 -1682 60 59 69
-557.72 200.009 -1680 60 59 69
-554.324 200.036 -1681 59 58 68
-551.256 200.182 -1683 58 57 67
-547.534 200.091 -1683 57 56 66
-543.171 199.763 -1681 58 59 69
-540.105 199.911 -1683 59 60 70
-536.079 199.703 -1682 59 60 70
-532.063 199.496 -1681 60 61 73
-528.998 199.645 -1683 60 61 73
-526.242 199.914 -1686 59 60 72
-521.928 199.59 -1684 60 61 73
-518.551 199.623 -1685 59 60 72
-514.563 199.42 -1684 55 56 68
-511.19 199.454 -1685 53 54 66
-507.818 199.488 -1686 55 56 68
-504.746 199.642 -1688 53 56 69
-500.481 199.323 -1686 54 57 70
-497.115 199.359 -1687 53 56 69
-493.455 199.278 -1687 53 55 68
-488.639 198.725 -1683 41 43 57
-484.709 198.527 -1682 33 36 49
-481.073 198.448 -1682 44 49 60
-477.442 198.37 -1682 51 56 68
-474.097 198.41 -1683 54 59 72
-469.913 198.097 -1681 55 58 69
-466.852 198.257 -1683 55 58 69
-462.41 197.828 -1680 56 59 70
-459.077 197.87 -1681 55 58 69
-455.202 197.678 -1680 55 58 69
-451.605 197.605 -1680 54 57 70
-447.211 197.179 -1677 55 58 72
-444.157 197.341 -1679 58 60 74
-440.311 197.152 -1678 58 61 74
-435.952 196.729 -1675 56 59 72
-431.869 196.424 -1673 55 58 71
-428.053 196.237 -1672 57 59 75
-423.484 195.698 -1668 60 62 78
-419.691 195.513 -1667 59 61 77
-415.407 195.094 -1664 60 62 76
-410.397 194.324 -1658 58 61 74
-406.397 194.023 -1656 54 57 70
-402.409 193.724 -1654 55 59 72
-398.915 193.659 -1654 57 62 75
-394.708 193.244 -1651 60 63 78
-391.227 193.181 -1651 57 59 75
-387.75 193.119 -1651 53 55 71
-383.811 192.823 -1649 53 55 72
-379.653 192.411 -1646 55 57 75
-376.197 192.35 -1646 56 58 76
-372.744 192.29 -1646 60 62 80
-369.294 192.23 -1646 67 69 87
-365.624 192.055 -1645 71 73 91
-362.183 191.997 -1645 73 75 93
-358.744 191.939 -1645 75 76 96
-354.877 191.648 -1643 67 69 89
-351.449 191.592 -1643 62 66 86
-348.659 191.886 -1646 70 71 89
-344.811 191.597 -1644 68 70 88
-341.39 191.543 -1644 69 74 89
-337.766 191.372 -1643 76 79 96
-334.352 191.319 -1643 75 77 95
-330.337 190.916 -1640 68 70 88
-326.737 190.748 -1639 64 66 85
-323.143 190.58 -1638 66 67 87
-319.555 190.412 -1637 68 68 86
-316.555 190.594 -1639 68 67 85
-312.593 190.196 -1636 72 67 84
-309.213 190.146 -1636 75 72 91
-305.649 189.981 -1635 76 75 95
-302.092 189.817 -1634 75 75 96
-299.272 190.118 -1637 76 75 96
-295.72 189.954 -1636 72 71 92
-292.889 190.256 -1639 69 68 87
-289.342 190.094 -1638 71 70 88
-286.325 190.28 -1640 73 71 92
-282.784 190.119 -1639 73 71 89
-279.591 190.191 -1640 73 72 86
-276.397 190.263 -1641 73 74 90
-273.699 190.683 -1645 74 75 91
-270.331 190.641 -1645 73 73 85
-267.126 190.714 -1646 72 72 84
-263.92 190.788 -1647 73 74 84
-260.238 190.515 -1645 75 74 86
-256.409 190.127 -1642 75 73 85
-253.057 190.087 -1642 75 70 81
-249.556 189.932 -1641 75 70 80
-246.21 189.893 -1641 78 72 81
-242.719 189.738 -1640 78 73 83
-239.525 189.816 -1641 77 72 81
-235.898 189.548 -1639 75 70 79
-232.423 189.395 -1638 73 67 77
-229.233 189.475 -1639 70 63 74
-226.455 189.901 -1643 71 59 69
-223.119 189.866 -1643 69 58 69
-220.454 190.409 -1648 67 58 68
-217.112 190.375 -1648 65 58 66
-213.901 190.456 -1649 66 59 67
-210.56 190.423 -1649 63 58 67
-207.221 190.39 -1649 64 58 67
-203.76 190.243 -1648 66 59 67
-200.426 190.211 -1648 69 62 70
-197.334 190.411 -1650 69 62 70
-193.999 190.38 -1650 71 63 69
-190.898 190.581 -1652 72 64 71
-187.449 190.436 -1651 72 64 70
-184.005 190.292 -1650 72 68 76
-180.568 190.148 -1649 72 68 78
-177.243 190.12 -1649 79 71 85
-173.814 189.977 -1648 78 72 85
-170.391 189.835 -1647 71 66 79
-167.176 189.924 -1648 63 55 69
-163.958 190.014 -1649 59 51 65
-160.738 190.104 -1650 58 53 67
-157.515 190.194 -1651 66 62 78
-154.382 190.4 -1653 77 73 90
-151.06 190.376 -1653 86 83 104
-147.918 190.583 -1655 86 84 104
-144.77 190.791 -1657 79 80 100
-141.699 191.114 -1660 77 78 97
-138.285 190.977 -1659 79 80 98
-134.875 190.841 -1658 81 82 100
-131.55 190.82 -1658 81 82 100
-128.304 190.915 -1659 76 77 95
-125.054 191.01 -1660 72 71 88
-121.802 191.106 -1661 70 68 85
-118.617 191.318 -1663 71 69 86
-115.218 191.185 -1662 71 69 87
-112.093 191.512 -1665 76 74 93
-108.826 191.61 -1666 77 78 96
-105.683 191.938 -1669 72 73 91
-102.406 192.037 -1670 68 69 85
-99.007 191.906 -1669 67 68 84
-95.6703 191.891 -1669 66 67 83
-92.4449 192.107 -1671 62 63 79
-89.1057 192.093 -1671 60 61 77
-85.9725 192.539 -1675 61 62 78
-82.7747 192.871 -1678 61 63 77
-79.5182 193.088 -1680 64 67 80
-76.2091 193.191 -1681 66 67 82
-72.9399 193.409 -1683 63 65 79
-69.5806 193.398 -1683 62 65 78
-66.2218 193.388 -1683 62 65 78
-62.9384 193.607 -1685 62 65 78
-59.6475 193.828 -1687 61 64 77
-56.3824 194.163 -1690 59 62 75
-53.1685 194.729 -1695 58 61 74
-49.9645 195.411 -1701 59 62 75
-46.6274 195.633 -1703 61 64 77
-43.3336 196.085 -1707 59 62 75
-39.9773 196.309 -1709 58 61 74
-36.6349 196.647 -1712 58 61 74
-33.203 196.527 -1711 57 59 75
-29.88 197.097 -1716 54 55 71
-26.4601 197.092 -1716 51 52 66
-23.0673 197.318 -1718 51 52 66
-19.6553 197.43 -1719 51 52 66
-16.2395 197.542 -1720 50 51 65
-12.8271 197.769 -1722 48 49 63
-9.40715 197.997 -1724 50 51 65
-5.97214 197.996 -1724 51 52 66
-2.53865 198.11 -1725 51 52 66
0.898597 198.225 -1726 50 51 65
4.33251 197.996 -1724 51 53 65
7.76729 197.997 -1724 50 53 64
11.2023 197.998 -1724 49 52 65
14.629 197.885 -1723 47 50 63
18.062 197.888 -1723 46 49 62
21.483 197.776 -1722 49 52 64
24.9435 198.009 -1724 47 50 61
28.4614 198.588 -1729 42 45 56
31.9996 199.167 -1734 43 46 57
35.4762 199.287 -1735 44 47 58
38.9795 199.522 -1737 47 50 61
42.4667 199.643 -1738 50 53 64
45.8787 199.421 -1736 51 54 65
49.3118 199.313 -1735 51 53 65
52.7108 199.091 -1733 52 53 65
56.2319 199.329 -1735 50 53 64
59.555 198.879 -1731 47 49 60
63.1174 199.233 -1734 46 47 59
66.6539 199.473 -1736 51 52 64
70.1585 199.598 -1737 54 55 67
73.8371 200.184 -1742 51 52 64
77.3147 200.196 -1742 48 49 61
80.8854 200.438 -1744 47 46 58
84.3195 200.336 -1743 47 48 60
87.9018 200.579 -1745 52 53 65
91.2829 200.363 -1743 52 53 63
94.7658 200.378 -1743 52 53 63
98.1367 200.163 -1741 53 54 64
101.792 200.523 -1744 54 55 65
105.158 200.309 -1742 57 58 69
108.767 200.556 -1744 60 61 73
112.256 200.573 -1744 60 62 75
116.078 201.166 -1749 61 63 76
119.647 201.299 -1750 63 64 76
123.432 201.778 -1754 83 77 80
127.017 201.913 -1755 149 141 141
130.756 202.278 -1758 201 173 158
134.355 202.414 -1759 208 177 156
137.881 202.435 -1759 211 178 150
141.73 202.917 -1763 217 176 139
145.431 203.169 -1765 216 175 138
149.226 203.538 -1768 216 174 135
152.342 202.986 -1763 215 169 131
156.059 203.24 -1765 211 165 128
159.152 202.689 -1760 207 162 129
162.688 202.714 -1760 204 160 128
166.132 202.624 -1759 198 155 123
169.669 202.65 -1759 190 151 114
173.502 203.023 -1762 186 149 114
177.45 203.511 -1766 182 147 114
181.518 204.115 -1771 177 143 114
185.19 204.259 -1772 174 140 112
189.293 204.865 -1777 172 136 110
192.658 204.664 -1775 162 129 107
195.795 204.233 -1771 157 125 103
199.143 204.033 -1769 153 124 103
203.287 204.641 -1774 148 120 102
206.403 204.212 -1770 142 116 98
209.505 203.783 -1766 136 112 94
212.954 203.701 -1765 126 107 89
216.156 203.388 -1762 114 99 81
218.723 202.499 -1754 95 76 62
221.767 202.071 -1750 89 71 61
225.569 202.337 -1752 65 49 43
229.12 202.373 -1752 76 59 58
232.274 202.062 -1749 71 58 58
-718.311 201.691 -1687 241 227 225
-717.283 202.405 -1694 220 208 201
-713.702 202.403 -1695 201 189 180
-710.543 202.521 -1697 179 162 151
-708.215 202.878 -1701 168 146 134
-702.562 202.282 -1697 165 143 130
-701.052 202.878 -1703 161 136 123
-697.474 202.879 -1704 161 133 118
-693.898 202.881 -1705 166 137 121
-689.92 202.764 -1705 172 142 124
-687.558 203.124 -1709 178 141 120
-681.984 202.533 -1705 181 142 120
-678.026 202.419 -1705 192 149 123
-673.679 202.187 -1704 190 150 120
-670.522 202.311 -1706 193 153 123
-667.363 202.436 -1708 198 155 126
-663.813 202.443 -1709 200 158 130
-658.72 201.978 -1706 205 160 132
-655.566 202.105 -1708 213 164 137
-650.884 201.759 -1706 213 167 138
-646.975 201.651 -1706 214 169 138
-642.696 201.425 -1705 217 172 141
-639.551 201.555 -1707 211 174 147
-634.169 200.977 -1703 197 168 147
-629.551 200.636 -1701 135 113 98
-624.581 200.178 -1698 73 67 66
-619.265 199.603 -1694 69 65 67
-615.063 199.383 -1693 66 63 70
-611.593 199.4 -1694 67 64 71
-606.69 198.946 -1691 67 64 71
-602.162 198.611 -1689 61 58 66
-598.357 198.512 -1689 55 54 64
-594.206 198.296 -1688 58 57 67
-590.066 198.081 -1687 60 59 69
-586.63 198.102 -1688 60 61 71
-582.85 198.006 -1688 58 59 69
-578.046 197.559 -1685 59 60 70
-573.602 197.23 -1683 61 60 70
-569.172 196.902 -1681 61 60 70
-564.757 196.575 -1679 60 59 69
-561.692 196.717 -1681 62 61 71
-557.296 196.391 -1679 62 61 71
-554.232 196.534 -1681 61 60 70
-550.838 196.561 -1682 60 59 69
-547.769 196.705 -1684 58 57 67
-543.404 196.383 -1682 57 58 68
-540.016 196.411 -1683 59 60 70
-536.31 196.324 -1683 59 60 70
-532.925 196.354 -1684 58 59 71
-529.226 196.267 -1684 57 58 70
-526.156 196.415 -1686 56 57 69
-521.843 196.097 -1684 58 59 71
-518.158 196.013 -1684 59 60 72
-514.479 195.929 -1684 56 57 69
-511.107 195.962 -1685 54 55 67
-507.133 195.764 -1684 54 56 68
-504.365 196.031 -1687 53 55 69
-500.4 195.834 -1686 55 58 71
-496.444 195.637 -1685 54 57 70
-492.498 195.442 -1684 54 57 70
-488.56 195.247 -1683 46 50 63
-484.342 194.936 -1681 37 40 53
-481.281 195.091 -1683 41 46 57
-477.649 195.014 -1683 48 53 65
-473.739 194.822 -1682 52 57 70
-470.396 194.862 -1683 53 56 67
-467.331 195.018 -1685 54 57 68
-462.611 194.481 -1681 56 59 70
-458.184 194.06 -1678 55 58 69
-454.858 194.103 -1679 54 57 68
-450.994 193.915 -1678 54 57 70
-447.139 193.728 -1677 56 59 71
-443.821 193.772 -1678 57 60 73
-439.453 193.356 -1675 56 59 72
-435.622 193.17 -1674 54 57 70
-431.541 192.871 -1672 53 56 69
-427.473 192.572 -1670 55 57 72
-423.417 192.274 -1668 58 60 75
-419.876 192.207 -1668 60 62 77
-415.091 191.564 -1663 61 64 77
-410.331 190.923 -1658 59 62 75
-406.332 190.628 -1656 55 58 71
-402.344 190.334 -1654 54 58 71
-398.128 189.925 -1651 57 62 75
-394.406 189.748 -1650 64 67 81
-390.928 189.686 -1650 64 66 81
-387.219 189.509 -1649 60 62 78
-383.052 189.104 -1646 57 59 76
-379.593 189.043 -1646 56 58 75
-375.68 188.754 -1644 58 60 77
-372.684 188.925 -1646 61 63 80
-368.338 188.408 -1642 66 68 86
-365.344 188.579 -1644 69 71 89
-361.465 188.293 -1642 70 72 90
-357.815 188.122 -1641 74 73 93
-354.389 188.066 -1641 68 69 88
-350.965 188.01 -1641 66 68 87
-347.545 187.955 -1641 74 73 90
-344.337 188.016 -1642 71 72 88
-340.713 187.848 -1641 72 76 90
-336.89 187.566 -1639 79 81 97
-333.689 187.628 -1640 83 84 100
-330.285 187.576 -1640 74 78 94
-326.286 187.181 -1637 69 71 88
-323.486 187.473 -1640 74 72 92
-319.31 186.966 -1636 80 74 94
-315.732 186.802 -1635 79 73 93
-311.971 186.525 -1633 74 71 88
-308.787 186.591 -1634 77 76 93
-304.853 186.2 -1631 76 77 94
-301.859 186.381 -1633 82 79 96
-298.494 186.335 -1633 91 87 104
-295.132 186.288 -1633 91 86 100
-292.486 186.699 -1637 79 70 89
-289.297 186.768 -1638 74 64 85
-285.931 186.723 -1638 70 65 86
-282.395 186.565 -1637 70 67 86
-279.548 186.863 -1640 70 70 86
-276.017 186.706 -1639 73 72 89
-273.157 187.005 -1642 73 72 90
-269.96 187.077 -1643 72 74 90
-267.085 187.377 -1646 72 72 87
-263.398 187.108 -1644 74 73 86
-260.039 187.068 -1644 75 74 86
-256.057 186.573 -1640 75 73 85
-252.556 186.42 -1639 75 71 80
-249.213 186.381 -1639 73 71 79
-246.022 186.456 -1640 72 70 78
-242.681 186.419 -1640 74 69 79
-239.488 186.495 -1641 74 68 78
-236.293 186.572 -1642 73 65 74
-232.67 186.309 -1640 69 62 72
-229.477 186.387 -1641 67 62 71
-226.558 186.692 -1644 66 60 67
-223.22 186.658 -1644 64 58 66
