ply
format ascii 1.0
comment Created by Open3D
element vertex 739
property double x
property double y
property double z
property double nx
property double ny
property double nz
property uchar red
property uchar green
property uchar blue
end_header
-58.8678 -620.112 -1782.95 0.890417 -0.0844214 -0.453168 19 19 17
-56.9747 -608.659 -1782.46 0.890982 -0.122563 -0.412442 23 23 21
-55.9759 -607.173 -1780.63 0.836531 -0.118206 -0.446939 22 22 20
-52.9412 -592.408 -1781.97 0.777627 -0.198404 -0.459701 20 20 19
-28.8982 -593.344 -1777.17 -0.731454 -0.302914 -0.555943 21 21 21
138.904 -1105.61 -1780.95 0.288766 0.245464 -0.854631 40 42 37
141.821 -1100.5 -1779.03 0.133372 0.141994 -0.883085 40 42 37
154.957 -1116.05 -1781.74 0.29368 0.0672837 -0.89433 39 40 36
162.815 -1118.46 -1779.81 0.206539 0.0533708 -0.936512 41 41 38
161.841 -1116.93 -1779.9 0.236266 0.0539375 -0.925594 41 41 38
147.402 -1108.59 -1781.51 0.21133 0.117258 -0.893561 39 41 35
147.218 -1103.14 -1779.27 0.0551692 0.132028 -0.90568 39 42 37
157.38 -1110.49 -1780.39 0.211849 0.101202 -0.910157 40 41 37
156.167 -1102.77 -1779.43 -0.000312129 0.0709659 -0.959929 40 42 38
166.362 -1103.25 -1777.71 0.262054 0.0397524 -0.948148 41 42 39
143.612 -1096.88 -1778.22 0.00421199 0.0617915 -0.912618 40 42 37
139.456 -1092.61 -1779.58 0.20714 0.0249794 -0.868552 40 42 37
94.1012 -871.755 -1782.5 0.907287 -0.0755788 -0.330936 35 36 30
98.7086 -870.974 -1777.49 0.712226 -0.0491077 -0.688906 36 37 30
113.204 -874.677 -1779.23 0.575103 0.00499689 -0.775787 36 37 32
116.459 -866.607 -1777.6 0.669789 0.0327201 -0.723645 37 38 32
98.8945 -856.392 -1780.98 0.506881 0.0276292 -0.651331 35 35 31
114.378 -860.813 -1779.2 0.589607 0.0442215 -0.764871 36 37 32
115.394 -855.867 -1778.24 0.646148 0.00983255 -0.727223 36 37 32
100.359 -842.254 -1780.99 0.700447 0.0464624 -0.566247 35 35 31
114.38 -850.012 -1778.87 0.670372 -0.051042 -0.690623 36 36 31
98.8412 -837.497 -1782.51 0.701193 0.100865 -0.569077 35 35 31
100.162 -832.122 -1781.23 0.700861 0.0467144 -0.621496 35 36 32
115.986 -840.382 -1778.26 0.722899 -0.15656 -0.639598 35 35 31
113.336 -830.916 -1782.34 0.334688 -0.161213 -0.882781 34 36 33
137.377 -878.347 -1779 0.362994 -0.0535903 -0.925571 37 39 36
137.47 -869.437 -1779.93 0.375578 -0.0841735 -0.921692 37 39 36
135.58 -863.439 -1781.42 0.387753 -0.0737038 -0.917117 37 39 36
136.546 -858.489 -1781.4 0.378486 -0.0774674 -0.922242 37 39 36
143.521 -871.795 -1777.63 0.310517 -0.082664 -0.944461 37 40 37
145.321 -855.955 -1778.07 0.364584 -0.0496022 -0.929421 38 41 38
141.971 -851.864 -1779.53 0.36409 -0.062224 -0.928912 37 40 37
139.413 -842.047 -1781.59 0.339384 -0.139497 -0.926548 35 39 36
146.844 -851.221 -1777.82 0.355768 -0.0643246 -0.929579 37 41 38
156 -845.2 -1777.12 0.299993 -0.27434 -0.915779 37 40 37
145.879 -840.571 -1781.02 0.256355 -0.210535 -0.93919 36 39 36
153.014 -831.148 -1781.22 0.328172 0.0154599 -0.914657 37 40 37
156.05 -832.634 -1779.27 0.389031 -0.0012106 -0.876783 38 40 38
150.22 -622.24 -1782.23 0.777955 -0.00303269 -0.498451 42 45 46
134.886 -595.411 -1780.18 0.775592 -0.171015 -0.57916 41 43 38
135.411 -594.613 -1779.66 0.776543 -0.179758 -0.580969 41 43 38
136.752 -586.514 -1778.52 0.759026 -0.0309853 -0.63647 40 42 37
131.747 -571.805 -1781.9 0.826624 0.0512372 -0.529385 41 42 38
133.734 -565.06 -1779.69 0.782453 0.0132414 -0.613581 41 42 37
133.758 -563.387 -1779.72 0.782415 -0.00951175 -0.612535 41 42 37
136.656 -546.649 -1776.93 0.794555 -0.10172 -0.584356 43 43 39
135.884 -544.885 -1779.05 0.827474 -0.158248 -0.510781 42 43 39
137.932 -531.79 -1782.53 0.899519 -0.233059 -0.368159 42 42 38
-109.419 143.572 -1777.93 0.554776 0.525083 0.637017 199 202 158
-114.217 154.539 -1780.95 0.0510982 0.519968 0.517416 127 126 108
-99.2765 134.755 -1778.85 0.146441 0.679202 0.70937 181 183 145
-93.5831 142.566 -1779.53 -0.0182337 0.642973 0.699037 177 179 145
-90.8909 144.531 -1777.57 -0.155704 0.641369 0.681576 179 181 149
-93.5522 153.084 -1777.75 -0.211821 0.58127 0.604407 154 155 131
-90.9452 158.987 -1777.8 -0.137825 0.624448 0.299553 77 72 66
-84.0062 161.067 -1779.61 -0.102652 0.842829 -0.214081 38 35 37
-76.2937 162.713 -1778.39 -0.266611 0.682425 -0.318559 71 58 51
-61.7735 164.115 -1778.32 -0.357646 0.58674 -0.130489 121 95 77
-53.5595 166.01 -1777.17 -0.392595 0.619457 -0.232279 120 95 78
-40.1109 169.275 -1779.59 -0.368347 0.798837 -0.489139 69 56 49
-31.5887 172.277 -1777.97 -0.230414 0.834035 -0.446904 80 60 48
-33.7057 200.288 -1778.2 -0.470138 -0.412913 -0.568431 44 36 33
-79.1216 223.957 -1782.76 -0.59168 -0.567932 -0.000485451 28 24 25
316 17.8595 -1777.52 -0.0030247 -0.850458 0.494538 180 138 116
328.201 17.2186 -1781.45 -0.0493684 -0.873491 0.427634 170 132 111
340.695 17.225 -1777.75 -0.0770663 -0.849993 0.461775 170 133 113
355.58 15.7438 -1780.69 -0.0555651 -0.888681 0.402022 164 125 108
-6.4195 161.394 -1782.52 0.328517 -0.312325 -0.306114 86 67 55
-27.6762 175.125 -1778.93 -0.204094 0.482426 -0.484018 72 56 46
-2.07859 157.718 -1781.08 0.396297 -0.236644 -0.30271 103 79 65
4.47451 156.231 -1782.24 0.393775 -0.136914 -0.278365 109 84 69
16.8512 157.841 -1780 0.568233 -0.0970226 -0.386042 143 111 90
-1.2953 173.869 -1777.83 0.775442 -0.27218 -0.416731 141 106 86
-23.5363 190.048 -1778.51 -0.168831 -0.236995 -0.699417 49 38 32
-27.7163 196.07 -1779.04 -0.326986 -0.356446 -0.628056 46 37 32
-1.26909 190.972 -1780.76 0.767066 -0.0375427 -0.133186 99 74 55
-0.778595 194.499 -1780.87 0.75013 -0.0342323 -0.161071 83 61 45
-238.737 -968.323 -1771.71 -0.741574 0.0514314 -0.658408 35 38 33
-233.764 -966.898 -1776.3 -0.634233 -0.00154917 -0.78746 36 38 33
-235.208 -961.881 -1774.38 -0.53889 -0.105243 -0.745793 36 39 34
-238.254 -950.579 -1772.06 -0.452155 -0.0106848 -0.528631 37 40 35
-232.948 -940.711 -1776.48 -0.579833 0.148566 -0.746213 37 40 34
-232.989 -934.747 -1775.38 -0.610613 0.102367 -0.73989 37 39 34
-233.22 -922.32 -1772.66 -0.55317 0.0927869 -0.76732 38 40 35
-228.605 -915.296 -1775.51 -0.363344 0.130586 -0.820962 37 40 35
-234.742 -913.413 -1772.52 -0.433204 -0.014203 -0.865647 38 40 36
-224.88 -908.829 -1774.24 -0.416054 -0.0306243 -0.44311 36 38 34
-227.252 -905.284 -1771.19 -0.468908 -0.052088 -0.780198 36 39 34
-230.942 -899.879 -1771.99 -0.569919 0.0307451 -0.797817 37 40 35
-41.8821 -577.305 -1775.45 0.260186 -0.354914 -0.767138 15 16 16
-35.2553 -583.019 -1774.64 -0.350941 -0.349616 -0.713275 15 16 16
-223.947 -527.191 -1771.75 -0.896458 0.0398955 0.445345 43 45 41
-225.085 -504.653 -1773.79 -0.947224 0.112526 0.263325 44 47 44
-223.526 -492.024 -1772.61 -0.982665 0.121077 0.0945335 45 47 44
-223.39 -484.856 -1771.04 -0.977147 0.0361377 0.0669572 45 47 43
-222.422 -471.694 -1771.26 -0.934932 0.136353 -0.136159 44 47 44
-219.568 -457.053 -1771.16 -0.950377 0.178573 -0.248643 44 47 44
-217.284 -450.875 -1774.17 -0.941542 0.159976 -0.270908 45 48 45
-214.557 -439.293 -1776.8 -0.918811 0.200085 -0.332648 46 49 46
93.9714 -958.991 -1775.31 0.553773 -0.00358145 -0.831956 37 38 31
102.96 -970.829 -1772.43 0.4587 0.0310665 -0.88202 37 38 32
97.5319 -965.661 -1774.45 0.476023 0.0422059 -0.878885 37 38 31
111.458 -974.479 -1775.98 0.44775 0.0184385 -0.880884 38 38 32
110.837 -968.325 -1776.42 0.44043 0.0275125 -0.883575 38 39 32
100.127 -960.248 -1772.63 0.45133 0.0344622 -0.886347 38 39 32
99.8475 -955.152 -1771.77 0.46997 0.0149212 -0.875387 37 38 32
113.443 -951.745 -1772.84 0.45691 0.00863153 -0.872636 37 38 31
95.6328 -946.651 -1774.49 0.672654 -0.151976 -0.717227 36 37 30
99.621 -943.973 -1771.17 0.642672 -0.125701 -0.750087 36 37 30
111.839 -942.627 -1774.39 0.533955 -0.0524801 -0.822005 36 37 31
100.751 -935.596 -1773.02 0.650965 -0.0759925 -0.750817 37 38 31
99.0041 -928.919 -1774.52 0.646111 0.0388205 -0.756207 37 38 31
110.834 -934.674 -1775.97 0.561421 -0.0421875 -0.805894 36 38 31
142.773 -952.566 -1776.07 0.419515 0.139117 -0.897836 39 39 37
157.952 -975.843 -1776.9 0.118078 0.0328221 -0.984582 39 39 37
160.546 -969.093 -1777.04 0.121487 0.0811098 -0.977903 38 38 36
147.534 -960.229 -1775.71 0.293337 0.166021 -0.929375 40 40 38
148.899 -951.94 -1772.62 0.346284 0.18257 -0.91215 40 40 38
158.346 -960.806 -1773.98 0.141277 0.294227 -0.939305 40 40 38
167.91 -958.454 -1770.95 0.280541 0.331045 -0.902766 41 41 39
140.751 -941.505 -1776.1 0.354156 0.0989122 -0.927631 38 39 37
139.186 -937.431 -1776.29 0.314645 0.0669215 -0.944091 38 40 37
149.103 -944.819 -1771.72 0.375904 0.056241 -0.921696 40 40 38
153.909 -939.862 -1771.97 0.21943 -0.112011 -0.956118 40 40 38
156.902 -942.739 -1771.08 0.156861 -0.103333 -0.960465 40 40 38
148.233 -933.541 -1774.19 0.265746 -0.0456286 -0.956917 39 40 38
148.096 -927.468 -1774.97 0.254543 0.013593 -0.960186 39 40 37
157.19 -936.807 -1773.03 0.0898572 -0.156857 -0.967116 41 41 39
157.639 -931.613 -1773.99 0.073557 -0.0608617 -0.971778 41 41 39
165.913 -930.068 -1774.74 -0.0496145 0.0731653 -0.962162 42 41 40
142.737 -513.854 -1772.42 0.911125 0.0233348 -0.406132 43 43 39
141.779 -497.789 -1774.88 0.937929 -0.045124 -0.315147 43 43 39
141.983 -484.86 -1776.81 0.913361 -0.0754158 -0.366393 45 45 41
143.444 -478.929 -1774.09 0.901771 -0.0363712 -0.398348 46 46 41
141.027 -464.888 -1776.17 0.906036 0.233952 -0.301018 45 45 42
138.83 -454.519 -1773.86 0.950835 0.199341 -0.193756 47 47 44
137.256 -446.375 -1776.86 0.97798 0.152129 -0.0396373 49 49 45
135.68 -441.115 -1774.69 0.949042 0.245308 -0.0807735 49 49 45
-109.992 147.033 -1775.33 0.618763 0.517613 0.624951 208 211 166
-109.216 150.96 -1772.56 0.538679 0.552321 0.574526 204 206 164
-94.8181 131.143 -1775.25 0.00380198 0.709561 0.714993 177 178 136
-82.8776 140.918 -1770.82 -0.424958 0.590454 0.648922 171 175 152
-93.174 154.111 -1773.76 -0.263706 0.63165 0.569716 155 156 133
-114.023 155.573 -1773.8 0.21544 0.741717 0.292284 163 161 135
-91.0067 160.818 -1771.88 -0.198898 0.94457 0.146849 103 92 81
-78.6181 163.504 -1771.86 -0.171419 0.977572 -0.0924915 89 73 63
-67.4174 163.872 -1776.84 -0.320133 0.675148 -0.108645 117 92 75
-56.0768 165.781 -1773.77 -0.328378 0.759331 -0.0932567 136 105 85
-46.7266 169.007 -1773.71 -0.495577 0.661862 -0.425037 110 90 75
-37.9377 171.212 -1775.64 -0.372994 0.78216 -0.498462 79 62 52
-29.3466 178.32 -1774.23 -0.426797 0.442701 -0.62751 73 57 48
-31.3052 191.576 -1773.18 -0.593938 -0.386845 -0.669401 56 44 36
-31.9326 194.226 -1774.22 -0.570976 -0.462608 -0.675854 44 36 31
-33.3524 197.949 -1775.62 -0.53635 -0.531127 -0.65359 33 28 27
-80.6 222.82 -1772.63 -0.581222 -0.630395 0.388321 22 19 22
420.324 78.6291 -1774.75 0.00907649 0.478866 0.874488 255 226 214
432.013 85.4791 -1775.88 0.0314859 0.259756 0.927844 254 227 215
435.383 82.3395 -1771.46 -0.0124098 0.331832 0.921292 254 227 215
448.323 85.7936 -1772.81 0.0604785 0.203493 0.943944 253 226 213
473.727 59.3018 -1772.86 0.408023 -0.294514 0.86007 242 210 193
476.414 61.3523 -1773.65 0.414354 -0.268318 0.868079 243 211 195
474.029 73.4662 -1773.11 0.461199 0.13129 0.839575 240 216 204
470.765 78.0249 -1773.4 0.396071 0.281605 0.857357 237 216 205
476.565 74.5884 -1775.34 0.46437 0.209131 0.840685 241 217 205
512.032 74.4882 -1776.13 -0.257466 0.214171 0.940467 249 221 208
513.822 60.7166 -1776.87 0.0304422 -0.322933 0.92424 218 183 164
518.375 73.8713 -1776 -0.0174274 0.0235366 0.961 246 217 201
518.303 78.9888 -1776.62 -0.0517044 0.074502 0.949424 240 215 202
-166.649 142.016 -1777.94 -0.380337 0.829327 -0.192285 254 251 239
-166.561 140.979 -1783.39 -0.368184 0.768189 -0.26724 254 251 240
-84.5453 143.274 -1772.42 -0.374187 0.600887 0.655621 173 176 151
9.34706 153.945 -1773.2 0.571088 -0.0928643 -0.572467 155 126 102
-276.128 -1013.51 -1765.02 -0.900199 -0.0202329 0.490769 60 58 56
-271.544 -1022.22 -1764.86 -0.733242 0.00938545 -0.0618253 44 45 42
-273.283 -1010.4 -1767.27 -0.840318 0.0108255 0.0965733 52 52 49
-264.73 -1002.01 -1765.03 -0.645505 0.114682 -0.294972 37 40 35
-240.224 -1024.95 -1770.48 -0.781994 0.00207945 -0.629192 37 40 35
-243.534 -1017.49 -1769.64 -0.825094 -0.0147106 -0.554081 37 40 35
-246.699 -1006.08 -1764.8 -0.757045 0.0350705 -0.680704 37 40 35
-269.126 -1000.51 -1768.21 -0.708616 0.116399 -0.0599848 43 44 40
-268.305 -992.111 -1766.85 -0.620063 0.223717 0.535262 46 46 43
-233.167 -689.358 -1766.03 -0.855461 0.053764 0.400007 39 41 38
-228.837 -679.347 -1765.91 -0.80265 0.375475 0.296256 39 41 37
-227.685 -672.003 -1770.76 -0.817753 0.204188 0.273868 39 42 38
-226.699 -660.656 -1768.8 -0.897765 0.0438395 0.289216 39 42 39
-226.75 -645.315 -1765.47 -0.904046 -0.0348182 0.313643 39 42 39
-227.986 -633.383 -1767.95 -0.903989 -0.0586919 0.289923 38 41 38
-222.708 -820.964 -1769.32 -0.868161 -0.140516 0.0435601 36 36 33
-225.179 -667.738 -1766.19 -0.882564 0.147063 0.273572 40 42 39
189.914 -1139.33 -1766.36 0.615567 0.125863 -0.631422 44 44 40
186.923 -1124.38 -1769.54 0.634589 0.229845 -0.717982 41 41 38
186.342 -1123.01 -1768.61 0.656752 0.210877 -0.677959 40 40 37
180.143 -1101.49 -1765.52 0.650502 0.311138 -0.216526 38 40 32
181.928 -1094.32 -1767.55 0.549989 0.00194411 -0.61378 40 42 37
186.504 -1085.75 -1768.37 0.663718 -0.174016 -0.668577 41 43 40
185.889 -1072.38 -1770.86 0.41032 0.166279 -0.879882 39 41 39
185.401 -1065.78 -1768.99 0.465604 0.175735 -0.841352 40 42 40
178.823 -1057.51 -1769.89 0.168046 0.120332 -0.94999 40 43 40
178.508 -1051.07 -1770.53 0.11801 0.0137768 -0.988334 41 44 41
181.895 -1052.98 -1768.77 0.251358 0.0522382 -0.940321 41 43 41
180.839 -1048.78 -1769.97 0.186832 0.0154254 -0.973182 41 44 41
185.673 -1048.6 -1766.83 0.406526 0.0477936 -0.894022 43 44 43
180.175 -1031.56 -1766.84 0.422131 0.154209 -0.903811 41 41 40
178.903 -1026.57 -1766.74 0.418007 0.0920636 -0.909621 42 42 41
144.867 -531.949 -1766.34 0.890211 -0.0408387 -0.44774 43 44 38
146.827 -517.342 -1765.58 0.881112 -0.0305319 -0.467798 44 44 40
144.568 -512.652 -1768.47 0.88416 0.0477026 -0.457521 44 44 40
146.548 -496.72 -1766.17 0.88952 -0.105523 -0.398769 45 45 42
146.48 -485.6 -1768.25 0.847816 -0.00757706 -0.506836 45 45 42
141.311 -460.836 -1767.47 0.932468 0.297243 -0.194565 46 46 44
144.892 -473.791 -1769.71 0.939267 0.143278 -0.274347 45 45 42
139.432 -454.467 -1766.81 0.945378 0.272104 -0.157312 47 47 45
138.927 -452.8 -1766.98 0.952037 0.25904 -0.138581 47 47 44
136.212 -440.9 -1765.45 0.961015 0.225679 -0.104334 47 47 45
-215.234 -426.793 -1767.69 -0.90684 0.235949 -0.265214 46 49 46
-33.6525 183.738 -1769.16 -0.66556 -0.0212217 -0.664893 85 66 51
-34.3505 189.07 -1770 -0.663008 -0.277784 -0.625919 75 58 44
-43.8084 201.055 -1769.2 -0.575022 -0.603039 -0.527317 40 32 28
-79.5092 227.099 -1768.13 -0.581744 -0.617969 0.468099 23 19 21
-88.0221 234.863 -1768.68 -0.762485 -0.501791 0.326222 22 19 21
-85.8755 235.971 -1765.11 -0.707734 -0.521957 0.485714 20 17 20
-95.7059 243.686 -1769.81 -0.762159 -0.51911 0.0984138 22 19 20
-54.9274 212.871 -1769.02 -0.575471 -0.788289 -0.0361832 27 24 25
-67.796 222.047 -1765.08 -0.48479 -0.782042 0.417475 27 23 22
-76.6369 229.041 -1764.86 -0.537284 -0.675842 0.51577 25 21 21
-46.842 204.486 -1769.69 -0.589848 -0.652492 -0.433723 38 31 29
340.962 21.1913 -1766.59 -0.102157 -0.821397 0.533451 180 140 118
217.252 104.753 -1764.93 0.0717862 -0.540434 0.585525 196 164 140
235.556 101.858 -1766.52 0.0600041 -0.583146 0.567591 193 159 134
264.305 93.8207 -1768.07 0.0176351 -0.200743 0.767362 223 194 174
181.263 115.365 -1767.39 0.0675353 -0.586433 0.576011 193 159 135
641.442 46.0184 -1769.86 0.213558 -0.36515 0.850888 223 189 171
635.875 50.1048 -1768.95 -0.00244534 -0.254972 0.875207 228 196 178
633.493 61.1348 -1770.25 -0.0698612 0.30119 0.934825 246 214 194
-223.909 -1098.03 -1759.47 -0.406581 0.273471 0.868153 37 38 33
-223.939 -1091.99 -1761.43 -0.466261 0.254307 0.840516 38 38 33
-216.23 -1081.21 -1759.64 -0.414679 0.159666 0.890958 38 38 34
-218.316 -1079.63 -1760.71 -0.422352 0.157652 0.890872 38 38 34
-215.861 -1069.38 -1762.14 -0.362367 0.194196 0.915928 38 38 33
-214.55 -1064.74 -1763.02 -0.355074 0.222836 0.90934 38 38 33
-208.808 -1066.95 -1760.45 -0.392661 0.209303 0.898176 37 38 33
-207.405 -1058.91 -1762.05 -0.443654 0.242162 0.85704 36 36 32
-207.148 -1053.06 -1764.21 -0.436767 0.266919 0.853764 35 35 31
-199.388 -1052.07 -1760.4 -0.609025 0.273559 0.725955 34 34 30
-224.756 -1030.04 -1759.77 -0.481689 0.128007 0.524204 36 36 32
-197.539 -1045.19 -1761.7 -0.574948 0.223388 0.760835 35 35 30
-198.276 -1036.02 -1761.97 -0.591202 0.0270007 0.768043 35 35 30
-199.857 -1027.65 -1761.62 -0.697436 -0.0969104 0.689712 34 34 30
-223.956 -919.567 -1764.39 -0.721566 -0.108577 -0.294057 36 37 33
-212.476 -923.297 -1764.76 -0.982744 -0.220787 0.0846938 34 34 32
-214.518 -905.535 -1758.48 -0.990276 -0.0401542 0.169929 34 34 32
-214.825 -898.687 -1764.07 -0.950741 0.013886 0.312676 34 34 32
-213.799 -885.743 -1760.47 -0.970079 -0.018516 0.209111 34 34 31
-215.211 -874.902 -1764.96 -0.917105 -0.00536403 0.341891 34 34 30
-214.982 -863.104 -1760.16 -0.986992 -0.0256928 0.0971776 33 33 30
-216.227 -851.776 -1760.4 -1.00412 -0.093157 -0.0304946 35 35 31
-216.789 -841.83 -1763.35 -0.968986 -0.115299 -0.0276351 36 36 32
129.838 -860.495 -1764.07 0.369225 -0.0637058 -0.923716 37 40 37
126.182 -854.91 -1762.61 0.352813 -0.0784255 -0.931655 37 40 37
126.799 -849.561 -1763.05 0.358309 -0.104958 -0.925253 37 39 36
127.754 -842.478 -1762.54 0.400138 -0.143315 -0.899135 37 39 34
123.676 -838.124 -1761.72 0.451512 -0.153449 -0.865965 37 39 34
123.941 -835.118 -1761.84 0.461511 -0.156991 -0.863574 38 39 33
165.644 -828.976 -1760.49 0.816856 0.207959 -0.383022 43 44 43
182.904 -1016.83 -1760.4 0.612298 0.0936249 -0.735229 44 43 41
182.142 -1005.84 -1760.36 0.671343 0.0464884 -0.684849 43 42 39
179.003 -991.575 -1761.58 0.642254 -0.0497711 -0.729663 40 40 37
178.791 -988.074 -1762.1 0.640374 -0.0570335 -0.732533 40 40 38
178.044 -974.901 -1759.7 0.55715 0.0439756 -0.734178 40 41 37
181.55 -969.318 -1762.89 0.339545 0.0987746 -0.905964 44 43 42
181.733 -954.098 -1763.36 0.165338 0.032234 -0.975137 45 44 43
178.957 -940.375 -1761.22 -0.0381643 -0.115482 -0.984009 46 44 44
181.764 -940.298 -1763.37 -0.0547155 -0.105719 -0.983354 47 45 45
178.487 -926.573 -1761.11 0.0624826 0.0920129 -0.841229 46 44 43
-162.002 -51.088 -1761.08 -0.97887 -0.145994 -0.0663558 216 212 154
-310.366 52.2662 -1759.14 -0.142411 -0.8957 0.434124 156 123 109
-297.094 50.2454 -1762.52 -0.149164 -0.891369 0.434145 155 124 108
-286.253 49.7392 -1759.96 -0.103707 -0.904157 0.414574 157 125 108
-250.331 26.637 -1759.88 -0.644646 -0.66736 0.348394 177 175 136
-248.749 25.247 -1758.88 -0.606839 -0.710356 0.335722 183 181 141
-235.704 20.665 -1760.97 -0.522336 -0.774856 0.246841 185 183 140
-263.078 42.9867 -1761.96 -0.491217 -0.678786 0.488379 142 118 90
-260.404 40.4214 -1761.46 -0.56379 -0.64528 0.468117 135 115 85
-272.504 46.8794 -1763.59 -0.259544 -0.823737 0.46074 152 122 102
-164.693 -34.3537 -1763.13 -0.984408 -0.0578959 -0.114701 214 209 150
-164.721 -22.3876 -1764.88 -0.982968 -0.0975434 -0.0181141 207 201 141
-165.946 -14.2392 -1763.62 -0.980689 -0.181178 0.0193728 203 197 137
-168.639 0.760718 -1762.21 -0.960932 -0.251871 0.0204014 192 184 121
102.025 -74.838 -1761.33 0.953048 -0.216393 -0.194717 219 209 146
103.038 -65.9129 -1764.54 0.951058 -0.133352 -0.266966 221 210 147
103.488 -60.3033 -1764.91 0.955628 -0.0780548 -0.27442 216 205 142
104.15 -44.8737 -1762.63 0.976995 -0.0755161 -0.184224 203 191 128
108.516 -33.4432 -1762.19 0.929844 -0.317945 -0.165497 200 188 124
114.129 -25.9382 -1765.37 0.939292 -0.33266 -0.182592 199 186 121
141.203 -8.76093 -1758.8 0.334429 -0.697874 0.140302 189 184 141
146.528 -7.91908 -1763.79 0.271982 -0.769636 0.17375 183 179 138
166.275 -5.35026 -1762.4 -0.00866721 -0.92346 0.398256 190 185 140
105.729 19.7668 -1759.66 0.906621 0.0612959 0.41312 110 76 37
110.301 15.3531 -1761.92 0.899922 0.149191 0.392736 110 75 38
106.268 21.6458 -1759.74 0.906706 0.021798 0.41562 115 81 45
114.029 24.1278 -1761.4 0.898335 0.0116335 0.358709 127 94 63
442.591 57.1049 -1764.1 0.354152 -0.141533 0.925963 254 224 211
438.742 69.8543 -1764.18 0.0981471 0.189475 0.960022 255 227 215
-372.456 65.8762 -1760.4 -0.241112 -0.600435 0.0232929 165 144 123
-338.569 59.3287 -1764.24 -0.20953 -0.46791 0.145625 186 163 141
-329.024 58.1453 -1768.19 -0.28976 -0.31879 -0.0527473 190 174 148
-229.839 -855.159 -1755.74 -0.635342 -0.0739111 -0.0287474 39 39 37
-255.656 -849.641 -1755.29 -0.719504 0.307055 0.608666 45 43 43
-250.599 -835.387 -1758.18 -0.744374 0.118894 0.67617 43 42 43
-229.839 -850.195 -1755.23 -0.660949 -0.0653074 -0.0172076 39 39 36
-229.964 -835.864 -1755.14 -0.683863 0.0387927 0.0531201 38 39 36
-230.115 -832.536 -1756.7 -0.690276 0.100093 -0.138699 38 39 36
-197.915 -1017.51 -1755.22 -0.869038 -0.12247 0.483886 33 33 29
-199.429 -1006.65 -1755.85 -0.850847 -0.0300835 0.44975 32 33 29
-198.292 -995.745 -1752.49 -0.940885 -0.0210543 0.32264 32 32 29
-199.049 -986.35 -1753.62 -0.95039 -0.0621926 0.237837 33 33 30
-202.115 -973.619 -1758.27 -0.886616 -0.131322 0.307314 34 34 31
-223.809 -962.219 -1756.62 -0.837472 -0.0804731 0.260618 35 35 32
-204.858 -959.084 -1758.18 -0.873594 -0.162215 0.422934 35 34 32
-199.577 -974.42 -1752.87 -0.947966 -0.109559 0.131802 33 33 31
-223.717 -943.387 -1754.81 -0.903656 -0.11443 0.118707 34 34 32
-207.002 -943.558 -1752.64 -0.975759 -0.211223 0.0412618 35 35 33
-224.13 -939.292 -1756.46 -0.903333 -0.104619 0.173224 34 34 32
-209.957 -933.842 -1753.2 -0.983258 -0.234205 -0.029313 33 34 32
-225.88 -613.069 -1758.02 -0.577118 0.123381 -0.168656 41 44 42
-221.948 -621.367 -1753.58 -0.703495 -0.0728938 0.448827 39 42 39
-219.244 -609.294 -1753.62 -0.72614 0.100348 0.636547 39 42 39
-220.213 -603.786 -1754.26 -0.761764 0.0438768 0.606715 39 42 39
-222.519 -600.406 -1756.22 -0.793218 0.0257103 0.54427 39 42 39
-221.188 -592.207 -1754.26 -0.829817 0.000231728 0.551194 39 42 39
-221.074 -581.088 -1755.2 -0.853368 0.0495606 0.482092 40 42 39
-223.34 -569.293 -1756.17 -0.909117 -0.0267254 0.259299 41 43 40
-222.574 -558.522 -1752.8 -0.908141 0.0505663 0.250658 41 44 41
148.756 -750.976 -1753.47 0.594048 0.0842848 -0.794761 42 42 38
145.851 -748.08 -1755.22 0.559572 0.0548074 -0.818284 41 41 37
146.296 -734.457 -1754.38 0.64014 -0.0590155 -0.746933 40 40 36
145.789 -722.721 -1757.64 0.625013 -0.0824012 -0.67429 40 41 38
145.943 -712.225 -1758.12 0.665673 -0.0410254 -0.627271 39 40 38
147.444 -710.011 -1756.67 0.69254 -0.0117169 -0.638352 39 40 37
149.737 -702.164 -1752.52 0.734283 0.126054 -0.662148 41 42 36
146.024 -698.063 -1755.42 0.629367 0.120331 -0.759268 39 41 36
146.104 -684.369 -1755.92 0.705155 -0.0766887 -0.66702 40 42 39
149.052 -678.143 -1754.13 0.748402 -0.0654324 -0.630985 40 43 38
147.633 -662.746 -1755.93 0.771477 0.0129816 -0.557016 40 43 40
148.837 -659.906 -1754.13 0.7955 -0.00139511 -0.544855 41 44 40
-364.072 63.7051 -1755.97 -0.115147 -0.900681 0.337541 150 118 105
-350.851 60.7828 -1756.31 -0.100684 -0.788063 0.400191 169 135 121
-340.591 58.6882 -1755.09 -0.095088 -0.738215 0.460815 176 142 127
-165.296 -39.3006 -1755.37 -0.984038 -0.110989 -0.0755691 216 211 151
-164.715 -28.8459 -1755.99 -0.989282 0.091647 -0.00259133 213 208 148
-165.493 -14.0013 -1754.24 -0.967569 -0.202348 0.0378496 207 201 140
-167.883 -4.92895 -1754.78 -0.967282 -0.238294 -0.0269558 199 193 129
-169.478 2.46924 -1756.7 -0.937639 -0.311713 -0.05581 189 180 115
-215.766 21.2485 -1758 -0.52433 -0.455314 -0.125135 185 181 136
-202.082 23.9515 -1754.52 -0.449365 -0.585826 0.0973503 182 176 129
-177.87 14.1601 -1757.79 -0.834186 -0.535801 -0.228923 161 149 91
-199.208 27.0891 -1754.75 -0.586906 -0.442388 0.0226944 178 168 119
324.71 57.0007 -1753.71 -0.199076 -0.133067 0.96271 255 228 216
325.672 64.5217 -1752.55 -0.231797 -0.218055 0.944926 255 230 219
323.299 73.8739 -1754.27 -0.232915 0.0142329 0.946683 254 229 217
324.131 76.3122 -1755.83 -0.188917 0.12044 0.936307 253 227 216
338.129 71.3073 -1753.05 -0.171499 -0.122793 0.953659 255 229 218
337.969 77.1766 -1758.39 -0.102976 0.0543921 0.933054 254 228 217
342.463 64.796 -1752.56 0.0831995 0.108062 0.92127 254 229 218
359.334 57.6181 -1755.97 -0.0136899 0.353419 0.918187 253 227 216
359.77 60.4569 -1757.55 -0.0330092 0.394973 0.911803 252 225 215
4.05013 156.439 -1759.63 0.391961 -0.353944 -0.576083 162 136 109
8.17819 164.148 -1754.31 0.740005 -0.335531 -0.510738 186 149 119
9.95445 179.28 -1757.38 0.916078 -0.207054 -0.264325 182 142 114
11.7013 189.03 -1754.87 0.912375 -0.0770607 -0.282533 185 143 115
12.8599 200.237 -1756.64 0.841233 -0.128955 -0.495874 161 117 91
15.3863 207.715 -1755.57 0.842814 -0.234105 -0.426473 139 97 73
15.2748 217.561 -1758.21 0.738401 -0.189536 -0.631856 68 44 34
20.0374 226 -1753.12 0.774401 -0.501691 -0.240856 63 36 26
-214.105 -1111.45 -1752.16 -0.448038 0.133732 0.882315 39 40 34
-211.941 -1117.24 -1750.3 -0.481622 0.160182 0.858178 39 39 33
-209.772 -1109 -1751.56 -0.404604 0.215615 0.883759 38 39 33
-204.675 -1102.61 -1752.16 -0.359131 0.254794 0.896986 39 39 35
-197.164 -1099.56 -1749.54 -0.422514 0.245205 0.869634 37 37 33
-197.724 -1096.29 -1750.52 -0.422583 0.203653 0.880921 37 37 33
-196.346 -1089.17 -1751.04 -0.510596 0.120512 0.845049 35 35 31
-194.143 -1082.67 -1750.7 -0.623514 0.0585324 0.773513 33 33 29
-190.394 -1080.88 -1747.1 -0.705124 0.0161786 0.695973 33 33 28
-223.796 -1051.3 -1750.03 -0.678552 0.00621188 0.601097 35 35 30
-194.336 -1073.65 -1751.54 -0.693702 0.00248703 0.722141 32 32 28
-193.342 -1059.64 -1749.65 -0.748348 0.125261 0.635366 32 32 29
-192.569 -1049.79 -1752.93 -0.79487 0.261502 0.550197 33 33 30
-191.98 -1039.07 -1751.33 -0.878363 -0.00866906 0.396501 34 33 29
-193.48 -1029.94 -1748.65 -0.933678 -0.214451 0.246311 34 33 29
-223.121 -796.81 -1751.32 -0.938167 -0.091893 0.267277 36 38 36
-223.302 -789.592 -1751.59 -0.938561 -0.0710932 0.344755 36 38 36
-222.315 -773.773 -1747.65 -0.944602 0.0212682 0.331509 39 39 37
-222.15 -765.197 -1748.98 -0.925993 0.0524401 0.323046 38 39 37
-223.374 -754.849 -1752.37 -0.921234 -0.0316981 0.291441 38 39 37
-224 -744.239 -1748.07 -0.875 -0.095331 0.395064 40 40 37
-49.4731 -827.609 -1751.46 0.52598 -0.183058 0.829722 25 28 25
-48.3579 -820.618 -1749.17 0.529352 -0.214997 0.82525 26 29 26
-39.4223 -823.689 -1752 0.113468 -0.26345 0.895202 22 24 21
-35.9705 -820.007 -1746.7 -0.374914 -0.230822 0.828713 21 21 19
-47.374 -805.559 -1746.92 0.223114 -0.168908 0.96098 21 22 19
-39.857 -811.127 -1747.41 -0.0524931 -0.197428 0.920814 20 20 18
-47.0552 -795.161 -1747.65 0.193132 0.0581899 0.971648 24 25 22
-40.6609 -803.935 -1747.22 -0.0442872 -0.0795726 0.974048 19 19 16
-50.8454 -791.026 -1746.94 0.322528 0.0690276 0.927227 27 29 26
-48.6036 -784.728 -1747.26 0.264054 -0.0262532 0.95324 25 28 25
-40.1833 -787.849 -1747.66 -0.0823791 0.0177265 0.975375 26 26 24
163.746 -950.332 -1746.6 0.678642 0.190131 -0.702966 41 42 34
160.813 -938.22 -1751.4 0.724165 0.0190355 -0.702169 40 41 34
162.145 -927.76 -1748.33 0.740511 -0.0209154 -0.669676 39 40 33
161.193 -916.138 -1749.28 0.761198 -0.00683231 -0.672349 39 40 33
161.637 -904.189 -1746.8 0.787802 0.0682041 -0.609774 39 41 36
-189.984 -320.105 -1749.12 -0.945848 0.231106 0.118484 45 49 45
-184.053 -305.796 -1750.29 -0.911945 0.3936 0.0496108 47 50 47
-181.721 -299.872 -1749.47 -0.951891 0.312355 0.00171591 49 51 48
-179.236 -290.109 -1752.82 -0.947182 0.271191 0.0230687 54 56 53
-173.37 -275.9 -1751.37 -0.90415 0.357972 0.163634 60 61 60
-170.969 -268.72 -1752.31 -0.900384 0.377737 0.0947498 47 49 46
-167.288 -258.212 -1750.67 -0.939889 0.268973 0.0315869 45 47 44
-165.088 -247.928 -1750.81 -0.942837 0.263598 0.0937637 46 48 46
-160.954 -237.078 -1750.36 -0.913266 0.377552 0.0689531 46 48 45
-156.974 -225.52 -1746.61 -0.976123 0.176301 0.131037 47 47 45
-156.197 -212.825 -1752.04 -0.976814 0.158864 0.147875 46 47 44
-156.446 -202.369 -1752.12 -0.942598 -0.143674 0.0126343 90 87 65
-156.524 -201.488 -1747.69 -0.92655 -0.230401 0.0329255 104 101 73
-108.001 310.917 -1746.01 -0.680698 -0.589528 -0.388163 42 34 38
-116.597 320.659 -1750.17 -0.729114 -0.514683 -0.38518 47 43 47
-109.218 315.692 -1751.9 -0.670314 -0.645394 -0.347916 42 37 40
-117.361 332.203 -1750.22 -0.795207 0.142623 -0.204209 49 46 51
-115.94 340.626 -1747.99 -0.644061 0.244486 -0.0256881 51 48 52
137.135 -429.644 -1751.38 0.969205 0.171196 -0.14641 49 49 47
136.99 -427.954 -1750.47 0.972336 0.159581 -0.129087 49 49 47
137.852 -416.542 -1752.42 0.986461 -0.112146 -0.0754413 47 47 44
134.507 -400.137 -1747.79 0.922214 0.229145 0.0466109 46 46 43
132.02 -394.012 -1746.62 0.917844 0.299613 0.0969965 45 45 42
118.706 -340.325 -1746.87 0.936826 0.304847 0.0453609 50 51 47
128.697 -378.617 -1748.88 0.956813 0.126203 -0.0399937 46 46 42
125.858 -365.546 -1748.18 0.928401 0.209615 0.0292022 46 46 43
204.624 93.0984 -1748.27 -0.0282381 0.457192 0.891965 255 255 248
199.048 97.2448 -1750.87 -0.0127451 0.392039 0.919915 255 253 247
201.978 98.0849 -1751.71 -0.00907392 0.404162 0.913286 254 253 247
216.94 94.3816 -1750.28 0.0554498 0.544237 0.857534 255 255 252
238.475 61.1067 -1752.29 0.374039 -0.0703489 0.908453 233 215 188
238.236 66.9895 -1752.05 0.45762 -0.0641303 0.882942 240 228 205
238.236 73.9152 -1750.73 0.489947 -0.131765 0.868457 248 244 227
240.395 77.6471 -1751.17 0.428557 -0.140539 0.886597 251 247 234
228.998 87.4173 -1746.42 0.266491 0.566166 0.787217 253 252 250
228.69 87.6059 -1746.51 0.263282 0.565766 0.788625 253 252 250
236.465 82.0581 -1749.27 0.462871 -0.0260745 0.870102 254 253 243
237.577 89.8074 -1752.75 0.390421 0.188102 0.86079 251 249 244
249.765 81.5915 -1752.55 0.174486 -0.260139 0.960622 252 241 233
272.147 59.0286 -1752.07 -0.104794 -0.05918 0.967324 248 218 205
279.301 65.9689 -1752.2 -0.0627401 0.0880031 0.989212 253 225 213
-267.153 -1211.14 -1759.04 -0.522714 0.0271419 0.126139 33 31 28
-673.203 94.1816 -1751.54 -0.0326659 -0.982633 0.15011 110 85 75
-656.852 94.6364 -1748.91 0.143533 -0.965059 0.117622 111 89 76
-659.412 95.5102 -1753.17 0.116289 -0.961908 0.143461 111 89 76
-601.811 97.5573 -1749.64 -0.0913995 -0.906336 0.398529 152 119 105
-598.877 97.6436 -1755.83 -0.107922 -0.900477 0.406149 154 121 107
-548.465 86.6453 -1746.28 -0.233393 -0.809323 0.401654 149 125 113
-536.242 85.1528 -1750.57 -0.25328 -0.394391 0.346683 172 149 129
-542.673 86.0236 -1747.41 -0.240616 -0.614899 0.387095 161 137 121
-186.885 -1059.49 -1740.31 -0.853953 -0.0601609 0.479838 34 33 30
-189.479 -1042.77 -1742.68 -0.940407 -0.0433237 0.281758 31 30 27
-193.11 -1032.19 -1741.8 -0.964721 -0.224683 0.0702668 33 32 28
-55.3617 -1120.98 -1740.95 0.157062 0.288454 0.894723 29 29 25
-56.1271 -1117.44 -1741.53 0.161812 0.229197 0.909936 29 29 26
-57.9094 -1104.94 -1741.78 0.248869 0.0148735 0.954678 32 32 29
-51.4721 -1122.19 -1740.44 -0.0242983 0.346144 0.883751 26 26 22
-53.3476 -1105.91 -1742.32 0.0638472 0.0129625 0.971805 28 28 25
-45.7616 -1100.05 -1740.79 -0.299782 0.0438645 0.940037 21 21 19
-56.4291 -1093.27 -1742.36 0.182608 0.11439 0.96281 31 31 28
-58.4006 -1090.38 -1742.45 0.232742 0.146572 0.948895 32 32 29
-68.6323 -1077.23 -1741.55 0.280034 0.240577 0.92732 32 32 29
-55.9883 -1080.76 -1745.47 0.201813 0.266478 0.938925 30 30 26
-60.9912 -1074.59 -1744.68 0.275131 0.221276 0.933957 31 31 27
-49.9791 -1093.11 -1742.47 -0.0114179 0.133552 0.971974 26 26 23
-42.0382 -1092.39 -1740.51 -0.271105 0.246314 0.923343 21 21 18
-49.4013 -1082.11 -1745.91 0.0743967 0.312724 0.940741 24 24 21
-41.3464 -1080.18 -1744.47 -0.222675 0.304308 0.892946 23 23 20
-38.082 -1077.68 -1743.22 -0.427164 0.193225 0.827325 24 24 21
-217.628 -820.382 -1742.76 -0.984779 -0.0143795 0.153127 36 37 35
-219.474 -812.034 -1745.12 -0.953829 -0.182037 0.1678 37 38 35
-221.162 -799.185 -1744.14 -0.835348 -0.0343773 0.348316 37 38 36
-219.793 -786.348 -1740.89 -0.878935 0.00410331 0.0850055 39 39 36
-219.668 -777.925 -1741.32 -0.984446 0.0429796 0.0874255 41 41 38
-219.819 -764.593 -1743.48 -0.934238 0.0552737 0.292151 41 41 38
-218.171 -760.331 -1740.76 -0.918996 0.0922577 0.316154 41 41 39
-220.704 -746.569 -1743.05 -0.901464 -0.0494678 0.402297 41 41 39
-224.214 -738.602 -1746.14 -0.878932 -0.0954391 0.453014 40 40 37
218.817 -1184.41 -1742.19 0.151499 0.848738 -0.395889 39 33 30
243.462 -1196.63 -1744.23 0.11495 0.831874 -0.233656 32 28 25
194.964 -1165.87 -1741.08 0.894174 -0.222215 0.0497517 47 45 38
197.791 -1150.74 -1745.29 0.973477 -0.0991477 -0.185258 45 44 37
197.433 -1142.85 -1745.22 1.00174 0.025738 -0.145425 43 42 35
194.283 -1131.16 -1743.87 0.878002 0.30299 -0.035903 41 42 34
188.38 -1121.08 -1739.83 0.85544 0.406242 0.152955 41 42 34
184.553 -1106.89 -1742.63 0.94679 0.214793 0.00871499 41 42 34
184.165 -1096.73 -1745.4 0.96091 0.089791 -0.208353 41 42 34
152.756 -667.108 -1741.62 0.989432 0.0168426 -0.199361 41 44 38
152.081 -650.419 -1744.36 0.964706 -0.00778682 -0.24538 42 44 39
152.098 -643.203 -1741.15 0.993212 0.044871 -0.142003 40 43 37
151.278 -634.847 -1745.31 0.974084 0.0103144 -0.182358 41 44 38
152.353 -623.393 -1744.92 0.971681 -0.17671 -0.0785522 40 43 38
152.785 -611.019 -1741.51 0.957414 -0.014023 0.0696308 39 42 37
149.76 -596.755 -1744.94 0.96318 0.192658 0.126512 41 44 38
150.845 -589.236 -1745.9 0.96881 -0.0489774 0.16088 41 44 39
152.022 -579.984 -1745.79 0.950938 0.00623089 0.279782 40 43 38
147.985 -564.511 -1741.46 0.955511 0.0927544 0.267715 41 43 39
148.231 -561.186 -1742.41 0.965723 0.0613701 0.230799 41 43 39
-453.857 72.911 -1742.79 -0.119016 -0.761296 0.540489 168 135 120
-443.451 71.7819 -1740.79 -0.122571 -0.764178 0.535535 167 135 120
-424.121 70.4925 -1742.86 -0.0550722 -0.85911 0.40367 157 123 109
-310.107 54.6528 -1745.8 -0.106427 -0.915488 0.404098 159 121 110
-298.239 54.7584 -1740.75 -0.0392721 -0.911288 0.429784 165 126 112
-285.007 55.5061 -1740.7 0.00887862 -0.89875 0.467549 173 134 112
-280.319 53.3305 -1745.44 -0.0326167 -0.899399 0.449486 170 135 112
-247.217 32.0748 -1742.92 -0.682174 -0.584586 0.429505 204 194 147
-225.87 23.3321 -1741.95 -0.0669549 -0.952702 0.360001 188 187 130
-250.191 38.413 -1742.47 -0.746365 -0.497287 0.445369 173 160 119
-264.643 53.0576 -1745 -0.175779 -0.789426 0.56295 179 140 114
-255.134 48.3242 -1741.8 -0.577438 -0.616064 0.507552 155 128 96
-248.289 33.3113 -1743.54 -0.70801 -0.558923 0.429502 193 182 136
-104.71 305.295 -1743.75 -0.736675 -0.56311 -0.390866 42 34 37
-107.752 309.943 -1744.6 -0.680288 -0.596914 -0.395004 42 34 37
-119.026 326.749 -1744.02 -0.812546 -0.0411292 -0.285853 47 43 46
-118.015 337.839 -1741.84 -0.560084 0.0257965 -0.104485 51 49 53
-115.041 345.595 -1745.44 -0.651761 0.0545116 0.11171 49 46 50
137.882 -431.31 -1744.86 0.948702 0.294877 -0.0984254 48 48 47
136.853 -422.872 -1742.83 0.979478 0.102102 0.0411674 43 42 42
134.741 -409.502 -1741.85 0.937581 0.148134 0.301793 42 42 41
130.887 -394.299 -1742.5 0.88878 0.284319 0.310237 44 44 43
119.03 -346.064 -1740.66 0.944013 0.17538 0.248848 49 49 47
128.564 -382.007 -1744.09 0.950597 0.146874 0.126136 44 44 41
174.464 77.9074 -1740.79 0.221294 0.276782 0.929287 253 252 229
188.847 72.7341 -1741.02 0.169382 0.337872 0.917893 255 252 234
190.346 76.2378 -1742.47 0.119413 0.339311 0.926945 255 252 235
201.516 57.8817 -1741.65 0.237187 -0.0199115 0.972342 236 233 185
200.91 65.0379 -1741.47 0.218577 0.0125022 0.971663 246 243 208
211.757 60.1323 -1742.52 0.0621039 -0.0850216 0.994671 240 236 184
212.025 64.8816 -1741.99 0.0191167 -0.0753789 1.00004 245 242 197
199.852 71.0774 -1741.86 0.150689 0.0980739 0.973085 252 250 228
204.174 78.5385 -1742.74 -0.0284003 0.135591 0.983696 255 253 238
207.863 71.3889 -1741.84 0.000807628 0.00278879 1.00023 251 249 221
207.599 78.525 -1742.16 -0.0637129 0.0988964 0.991805 255 252 238
172.238 84.0766 -1741.63 0.235024 0.239164 0.940579 254 252 232
172.697 88.5878 -1742.83 0.225619 0.264146 0.932687 255 252 236
184.473 84.0633 -1745.03 0.17913 0.301973 0.931162 255 252 235
181.598 88.2873 -1745.59 0.211803 0.268042 0.934434 255 253 237
176.083 97.7304 -1746.13 0.179468 0.446755 0.860444 254 252 247
204.877 85.5734 -1744.34 -0.0610137 0.2875 0.941535 255 253 244
210.435 83.3215 -1742.84 -0.0646166 0.213733 0.95932 255 253 243
205.962 89.7207 -1746.06 -0.044487 0.409461 0.902098 255 254 246
218.358 62.2096 -1742.72 0.0869154 -0.173829 0.968565 247 242 192
217.124 66.1572 -1741.48 -0.0031827 -0.132171 0.99639 249 245 199
218.896 72.762 -1741.03 0.021622 -0.0522126 0.988351 253 250 219
222.133 78.1723 -1741.91 0.113407 0.0973674 0.947373 254 252 232
-248.337 -1028.65 -1735.23 -0.638383 0.202703 0.74251 39 40 36
-220.057 -1173.64 -1736.56 -0.349884 0.564781 0.631481 25 20 18
-213.114 -1167.41 -1738.81 -0.391154 0.283725 0.783354 30 27 23
-202.967 -1169.17 -1734.92 -0.410218 0.17249 0.812411 32 30 26
-204.895 -1167.23 -1736.24 -0.428729 0.0752752 0.861952 37 35 29
-204.757 -1158.84 -1738.19 -0.474203 -0.046317 0.890228 42 40 34
-197.317 -1166.82 -1734.8 -0.489227 0.00775991 0.8525 40 38 33
-198.841 -1158 -1735.46 -0.515127 -0.0621779 0.861666 43 41 35
-201.169 -1143.34 -1736.36 -0.571221 0.0202266 0.818099 42 40 34
-200.018 -1147.24 -1735.5 -0.557497 -0.0298343 0.827209 43 41 35
-199.086 -1130.68 -1737.43 -0.615345 0.171167 0.768406 39 39 32
-31.4095 -950.053 -1738.05 -0.825164 -0.020451 0.572084 28 28 26
-31.8296 -941.192 -1739.3 -0.800537 0.0595867 0.587326 29 29 27
-29.8772 -929.358 -1740.32 -0.778151 0.182842 0.592509 30 30 28
-221.97 -918.316 -1739.98 -1.02826 0.0509045 -0.0621649 35 35 33
-212.528 -921.069 -1739.38 -0.998389 0.0122141 -0.0774701 35 35 33
-221.592 -906.637 -1737.19 -0.930804 0.0107999 0.155291 35 35 33
-211.283 -906.997 -1737.38 -1.00121 0.0754258 0.0440409 35 35 33
-220.208 -895.865 -1737.36 -0.954301 -0.0695947 0.123341 35 35 33
-211.319 -900.808 -1738.56 -1.00268 -0.00685911 0.0973292 35 35 33
-220.121 -887.132 -1738.59 -0.974266 -0.107597 -0.00287148 36 36 34
-222.243 -880.311 -1739.27 -0.920998 -0.0907037 0.0661841 37 37 35
-221.177 -878.129 -1736.38 -0.944975 -0.126373 -0.0190103 37 37 35
-217.172 -869.348 -1736.39 -0.954772 -0.0697753 0.0134119 37 37 35
-217.157 -856.813 -1737.21 -0.999342 -0.0439312 0.0303899 38 38 35
-217.693 -846.046 -1735.71 -1.00304 -0.068344 0.12159 38 38 35
-217.673 -836.273 -1736.97 -0.979838 -0.00489963 0.161297 38 38 35
-68.6883 -926.228 -1737.8 0.746591 0.0597183 0.660528 30 33 30
-71.0362 -918.077 -1736.79 0.729372 0.0847565 0.676869 30 33 30
-72.612 -907.693 -1735.9 0.696537 -0.0641959 0.701787 31 34 31
222.85 -1181.11 -1735.63 0.217837 0.879995 -0.295487 38 31 28
232.05 -1184.41 -1735.67 0.23386 0.890826 -0.328861 29 24 21
191.111 -1172.02 -1737.2 0.754461 0.142477 0.40678 46 44 37
192.91 -1164.41 -1736.21 0.796127 -0.131785 0.315539 46 45 38
196.656 -1153.34 -1739.07 0.962051 -0.137798 0.0941472 46 44 37
190.318 -1125.65 -1739.22 0.823787 0.411249 0.1361 41 42 34
195.776 -1142.38 -1735.81 0.932346 0.103138 0.235371 43 42 35
186.936 -1118.96 -1738.69 0.887495 0.396901 0.232581 41 42 34
182.977 -1106.19 -1737.19 0.964704 0.157687 0.148501 40 41 33
183.521 -1103.01 -1739.69 0.97383 0.134244 0.0873085 40 41 34
183.243 -1089.95 -1737.14 0.979757 0.0582882 0.0833473 41 42 35
156.303 -772.105 -1737.24 0.895749 -0.227659 -0.37201 42 44 38
158.249 -755.046 -1734.5 0.931589 0.000912746 0.0135934 40 41 36
157.37 -744.964 -1735.35 0.912508 0.166116 0.0695946 40 41 36
154.12 -734.985 -1733.88 0.926458 0.223439 0.0551862 41 42 38
153.544 -721.912 -1735.89 0.976037 -0.0806358 -0.0594757 40 41 37
156.229 -712.245 -1734.72 0.976522 -0.188285 0.000630096 40 41 37
155.357 -702.359 -1738.52 0.940261 0.168172 -0.21585 41 43 38
153.798 -687.751 -1736.93 0.983953 0.0133906 -0.180295 39 42 37
153.648 -676.441 -1739.71 0.988141 -0.0108556 -0.224392 39 43 37
-159.768 -62.1263 -1734.28 -0.912384 -0.0504012 0.410227 223 218 163
-160.961 -55.8249 -1736.12 -0.920009 -0.0511766 0.390546 220 216 159
-161.43 -44.1166 -1734.97 -0.903686 -0.0818535 0.367794 214 210 153
-755.226 97.0138 -1739.56 -0.379085 -0.829368 0.390297 153 118 110
-758.915 101.297 -1734.61 -0.438394 -0.774129 0.448048 166 132 123
-735.288 92.0516 -1735.42 -0.101286 -0.96263 0.229774 112 76 61
-722.761 92.3274 -1734.37 0.0503637 -0.992245 0.163378 99 64 50
-722.865 91.9713 -1737.67 0.0483722 -0.989591 0.164511 99 64 51
-773.59 118.486 -1738.33 -0.514635 -0.664328 0.539991 203 170 158
-712.512 93.5876 -1740.1 0.0528149 -0.985189 0.152447 107 73 62
-704.503 94.5629 -1737.77 0.0454677 -0.988078 0.144591 110 75 65
-681.88 93.0662 -1738.86 -0.0706105 -0.983088 0.16962 110 83 73
-673.286 92.4967 -1735.69 -0.0577827 -0.991923 0.133959 111 86 76
-662.528 92.8118 -1739.04 0.0760544 -0.976532 0.116046 110 88 76
-74.7904 155.583 -1736.05 -0.361305 0.751821 0.518988 201 172 133
-67.1161 161.184 -1739.98 -0.429752 0.838121 0.241984 197 163 120
-56.882 172.011 -1738.95 -0.79689 0.433591 -0.235425 202 162 112
-59.3899 182.745 -1735.14 -0.795465 -0.307968 -0.514448 199 158 108
-64.3306 190.16 -1735.02 -0.68599 -0.472151 -0.557486 193 150 100
-68.6452 200.811 -1735.48 -0.733705 -0.315126 -0.577894 182 135 95
-77.8264 218.937 -1736.03 -0.701404 -0.552813 -0.354145 186 135 101
-81.1347 229.949 -1736.91 -0.94411 -0.146269 0.139778 227 166 131
-80.8508 239.508 -1734.88 -0.947404 -0.0880927 0.0112137 200 137 107
98.2646 -94.7278 -1738.7 0.9893 -0.0877123 0.0703496 206 200 139
100.996 -80.6193 -1739.44 0.962023 -0.171612 0.141076 209 204 142
102.173 -71.6452 -1740.09 0.948772 -0.132744 0.214226 211 205 144
102.932 -56.0983 -1738.71 0.970106 -0.0626916 0.214108 208 202 140
103.459 -53.0835 -1738.3 0.973651 -0.101758 0.169241 206 200 138
108.559 -37.516 -1737.24 0.744621 -0.443554 0.408887 198 193 134
114.199 -31.8419 -1737.9 0.545883 -0.609297 0.536033 202 198 151
121.146 -25.9121 -1740.08 0.623138 -0.571396 0.441668 205 203 168
127.538 -15.7615 -1734.65 0.66524 -0.588961 0.437737 207 206 175
132.594 -9.89855 -1737.92 0.637895 -0.633162 0.429313 206 204 169
138.986 -2.63768 -1737.33 0.626365 -0.616911 0.460959 205 202 163
-228.189 -1114.04 -1739.07 -0.461757 0.171175 0.84785 38 39 33
-228.18 -1119.03 -1737.57 -0.449451 0.255528 0.832113 38 38 33
-230.865 -1102.22 -1744.19 -0.542478 0.122901 0.754537 38 40 35
-228.314 -1106.31 -1741.07 -0.479338 0.15737 0.830196 38 39 34
-226.313 -1100.13 -1740.97 -0.517625 0.170586 0.768075 38 40 34
-229.048 -1097.03 -1744.09 -0.592822 0.130151 0.679426 38 40 35
-332.57 136.324 -1736.71 0.212942 0.285369 0.911566 248 229 219
-297.621 130.408 -1735.95 -0.0818122 0.251822 0.919813 253 235 225
-313.609 135.269 -1741.64 0.0180889 0.272713 0.910811 252 233 222
-299.469 131.848 -1738.19 -0.0596339 0.264636 0.914287 253 235 224
-293.725 131.365 -1735.76 -0.154145 0.178461 0.942503 254 236 227
-294.77 133.028 -1738.4 -0.11083 0.211908 0.931183 254 236 226
-281.93 134.636 -1737.57 -0.0479933 0.266598 0.917417 252 239 230
-273.083 135.557 -1736.84 0.014406 0.299512 0.909862 253 244 235
-266.475 136.209 -1736.65 0.0752117 0.325475 0.902328 254 249 240
-257.637 137.532 -1738.54 0.0776784 0.343261 0.897654 254 249 241
-249.741 138.248 -1738.71 0.0701181 0.324091 0.904773 254 250 241
-74.6141 -940.179 -1730.78 0.739369 -0.0777808 0.665903 29 32 28
-74.4346 -934.823 -1730.55 0.730865 -0.0137453 0.680189 30 33 29
-72.6087 -931.704 -1732.41 0.739621 0.0102621 0.671866 30 33 30
-213.919 -925.844 -1733.77 -0.844793 -0.0235509 0.105766 36 36 35
-212.956 -916.503 -1730.09 -0.804859 0.0451234 0.200707 37 37 36
-211.491 -911.085 -1729.31 -0.900841 0.118223 0.12269 36 37 35
-221.113 -899.534 -1733.8 -0.778467 -0.0306694 0.36716 35 36 35
-213.63 -891.686 -1727.98 -0.557661 0.0049219 0.658593 36 37 37
-212.49 -895.678 -1731.51 -0.829414 -0.0286729 0.301632 36 36 35
-217.738 -886.712 -1730.25 -0.510581 0.026517 0.681512 36 37 37
-216.404 -881.079 -1730.07 -0.70587 0.00392451 0.387367 35 37 36
-214.229 -874.635 -1728.86 -0.648811 0.0884531 0.584567 35 37 36
-216.992 -866.345 -1734.25 -0.928072 -0.0320324 0.0884812 38 38 36
-216.414 -851.067 -1728.63 -0.930568 -0.0224432 0.201201 39 39 36
-217.463 -841.296 -1732.88 -1.01048 -0.0612508 0.0875924 39 39 36
-215.272 -828.023 -1732.82 -0.785828 0.000867888 0.405491 37 37 36
-24.0438 -1088.11 -1728.9 -0.643225 0.269846 0.715211 31 31 27
-25.3906 -1080.56 -1731.39 -0.661744 0.107876 0.734993 33 33 29
-27.8581 -1068.51 -1731.43 -0.739721 -0.0785962 0.669621 32 32 28
-28.4758 -1051.05 -1729.32 -0.768614 -0.0405816 0.634792 31 31 28
-28.2317 -1026.64 -1731.33 -0.733434 0.0876838 0.663647 32 32 30
-20.5174 -823.293 -1731.09 -0.619248 -0.0495484 0.783897 34 35 32
-20.8118 -816.47 -1731.13 -0.611671 -0.0312921 0.788256 33 34 32
-20.0362 -810.178 -1730.02 -0.571868 -0.0221493 0.81335 33 33 31
-19.8068 -805.457 -1729.37 -0.570083 0.00860791 0.810793 33 33 30
-19.868 -800.636 -1730 -0.6054 0.100939 0.772309 33 33 30
-17.2515 -787.094 -1730.27 -0.669631 0.0708336 0.723907 32 34 31
-15.8385 -789.405 -1728.19 -0.608603 0.0640351 0.774044 33 36 32
-24.9851 -769.652 -1733.76 -0.623237 -0.218397 0.749889 31 32 30
-26.329 -762.369 -1733.43 -0.643607 -0.110599 0.754771 29 29 27
-24.3774 -755.455 -1731.75 -0.659973 -0.0159026 0.750227 29 30 27
-21.829 -752.685 -1729.5 -0.669283 -0.00340131 0.743473 30 31 29
-26.8609 -737.497 -1733.66 -0.746698 -0.0479808 0.726907 27 27 23
-24.7617 -731.151 -1728.76 -0.671153 -0.0960613 0.675679 29 29 27
-705.125 94.9335 -1733.49 0.0529537 -0.988819 0.143681 112 75 63
-693.286 94.6256 -1732.94 -0.0137665 -0.98717 0.156699 114 80 69
-677.844 93.1351 -1728.22 -0.0556058 -0.979351 0.173114 128 98 85
-686.835 93.9635 -1732.22 -0.0599892 -0.982429 0.171125 116 85 74
-667.676 92.3316 -1732.57 0.0163608 -0.985822 0.115364 110 87 76
-653.589 93.8301 -1733.17 0.256455 -0.934759 0.17818 115 93 78
-641.062 98.0115 -1727.57 0.310343 -0.921586 0.230828 123 98 81
-634.498 99.6557 -1730.62 0.291432 -0.927838 0.23624 124 98 80
-620.766 102.677 -1728.53 0.115193 -0.795386 0.425005 152 123 104
-609.854 100.736 -1731.82 -0.046646 -0.875065 0.449561 151 120 103
-598.185 99.9221 -1731.67 -0.0153497 -0.866725 0.486474 155 121 105
-586.066 98.5987 -1730.75 -0.108686 -0.88422 0.444648 160 124 107
-161.835 -34.7343 -1733.23 -0.912094 -0.0970067 0.418972 212 207 148
-161.678 -24.0298 -1730.95 -0.955978 -0.0812326 0.238605 210 203 142
-165.792 -9.58734 -1732.45 -0.91767 -0.339651 0.128918 198 190 128
-168.227 -2.88681 -1730.8 -0.932321 -0.298814 0.136077 196 186 121
-223.876 31.5689 -1728.75 -0.0270582 -0.60027 0.736037 227 221 165
-216.052 29.979 -1731.79 -0.0653059 -0.780602 0.596459 200 196 138
-201.385 26.8389 -1728.7 -0.401184 -0.695995 0.590441 187 183 131
-199.586 24.8644 -1731.1 -0.446902 -0.664166 0.493538 185 179 127
-185.798 30.8296 -1731.63 -0.708315 -0.118352 0.233623 174 154 101
-182.565 37.2579 -1731.03 -0.47403 -0.237419 0.392221 179 162 115
-182.008 40.412 -1731.89 -0.366887 -0.40331 0.437663 169 150 108
-172.139 7.42968 -1732.17 -0.931706 -0.270781 0.0873723 182 166 101
98.2878 -293.858 -1728.61 0.8549 0.380672 0.326247 50 50 48
97.7091 -293.14 -1727.42 0.870374 0.36373 0.30541 49 50 47
95.8516 -281.851 -1728.13 0.92141 0.0928896 0.359952 47 47 45
96.7315 -275.481 -1730.84 0.947873 0.0730633 0.26879 46 47 44
89.8936 -257.393 -1728.74 0.875547 0.39895 0.23551 49 50 48
86.6799 -245.97 -1731.1 0.913908 0.235045 0.222015 48 47 45
81.9199 -235.751 -1730.73 0.826996 0.400633 0.380451 45 44 41
82.1637 -235.983 -1731.06 0.827243 0.404277 0.373162 46 45 41
77.4179 -218.587 -1729.16 0.920573 0.0857781 0.335839 46 41 31
82.8887 -211.358 -1733.88 0.873711 -0.318309 0.1819 134 128 91
88.5069 -204.442 -1728.55 0.731779 -0.656428 0.190416 224 221 167
94.6055 -191.127 -1731.45 0.977676 -0.068639 0.0643855 217 212 156
-254.202 -1119.78 -1724.41 -0.590221 0.201523 0.780642 36 39 34
-252.899 -1112.03 -1725.55 -0.590558 0.206756 0.77928 36 39 35
-249.483 -1117.95 -1722.08 -0.558397 0.240666 0.793842 37 40 35
-246.903 -1102.36 -1723.64 -0.577306 0.153979 0.800516 37 40 36
-250.298 -1080.3 -1726.99 -0.63354 0.00339198 0.776014 38 41 36
-247.287 -1088.92 -1725.03 -0.622612 0.0291158 0.786142 38 42 36
-247.961 -1084.28 -1725.4 -0.626515 0.0140229 0.784022 38 42 36
