ply
format ascii 1.0
comment Created by Open3D
element vertex 742
property double x
property double y
property double z
property double nx
property double ny
property double nz
property uchar red
property uchar green
property uchar blue
end_header
-378.84 -803.273 -1775.05 -0.593351 -0.00400033 0.71617 38 40 38
-372.798 -801.74 -1769.37 -0.683442 -0.0230818 0.689183 37 39 36
-375.605 -807.914 -1770.39 -0.633598 -0.0191974 0.737285 38 40 37
-369.931 -796.918 -1767.45 -0.752514 -0.0361096 0.646065 36 38 35
-371.253 -792.16 -1769.73 -0.603765 -0.000815465 0.652255 37 40 37
-368.358 -788.982 -1767.88 -0.6241 -0.01171 0.578647 36 39 36
-292.419 593.39 -1764.37 -0.519991 -0.320568 -0.0303618 57 50 55
-293.315 591.39 -1774.63 -0.490176 -0.464872 -0.2411 54 47 52
-288.1 598.631 -1766.46 -0.586106 -0.124346 -0.0150163 55 48 52
-225.859 -855.183 -1758.58 0.674563 0.396925 0.5824 37 36 36
-235.692 -841.676 -1757.34 0.609748 0.306522 0.726269 30 30 30
-233.698 -839.421 -1759.64 0.627242 0.254173 0.731154 31 31 31
-236.061 -834.112 -1758.73 0.604422 0.178389 0.77058 33 33 33
-237.512 -826.485 -1757.91 0.533343 0.0502837 0.836433 36 36 36
-231.483 -819.706 -1761.79 0.679451 -0.00289068 0.714336 37 37 38
-233.445 -811.523 -1760.46 0.751893 0.0587256 0.608388 37 37 37
-349.478 -655.73 -1758.3 -0.20872 0.150762 0.597804 37 38 38
-351.253 -647.305 -1760.34 -0.263811 0.0483028 0.528762 37 38 38
-353.765 -643.596 -1758.56 -0.593407 -0.133125 0.0929549 36 37 37
-352.433 -645.469 -1758.57 -0.471269 -0.0667184 0.255276 36 37 37
-340.137 -643.278 -1757.32 -0.370857 0.0599487 0.925664 33 36 36
-410.932 -622.243 -1758.81 -0.438294 0.0518473 0.851762 46 46 46
-405.696 -624.381 -1757.63 -0.218917 0.0680206 0.947898 45 47 45
-394.237 -623.63 -1758.28 0.129139 0.159437 0.9765 44 46 45
-411.612 -621.066 -1759.1 -0.4742 0.047752 0.825018 46 46 46
-411.578 -614.13 -1759.33 -0.530161 0.0628412 0.799909 46 46 46
-398.245 -620.748 -1757.87 0.0646313 0.0899587 0.984916 44 46 45
-396.069 -620.854 -1758.26 0.126524 0.109882 0.983541 44 46 45
-397.115 -612.398 -1758.53 0.155269 0.0276532 0.978038 45 47 45
-380.749 -631.957 -1758.04 0.141934 0.299357 0.947723 39 41 41
-379.732 -623.586 -1760.88 0.0880258 0.283577 0.959214 38 40 40
-377.384 -630.939 -1759.11 0.167489 0.244469 0.962346 38 40 40
-373.493 -623.499 -1761.44 0.0658791 0.277998 0.975917 36 38 38
-382.629 -618.628 -1762.37 0.155786 0.244701 0.946159 39 41 41
-375.445 -620.419 -1762.55 0.0542674 0.299243 0.961623 36 38 38
-408.336 -606.856 -1758.49 -0.439353 0.0296561 0.748642 44 46 44
-411.605 -601.594 -1760.46 -0.605384 -0.0218854 0.216639 40 43 41
-401.711 -609.275 -1757.32 -0.0130775 0.0113872 0.968831 44 47 45
-398.258 -602.257 -1757.87 0.113105 -0.0259016 0.971833 44 47 45
-410.532 -593.255 -1758.44 -0.50034 -0.0284165 0.744456 47 48 48
-410.564 -589.72 -1758.13 -0.498823 -0.0150019 0.761563 47 48 48
-393.427 -591.433 -1759.38 0.391352 -0.0310587 0.920397 41 44 43
-396.047 -587.981 -1757.39 0.336077 0.02059 0.920212 43 45 45
-390.18 -593.975 -1761.47 0.388042 -0.0172091 0.926736 40 43 42
-358.734 -630.951 -1757.71 -0.604472 -0.0797928 -0.0398256 36 37 37
-357.856 -619.372 -1763.21 -0.611235 -0.0624993 0.0900573 36 37 37
-28.9406 -708.571 -1762.46 0.627495 0.0683617 0.762564 39 41 40
-20.9115 -707.525 -1758.99 0.950739 0.041582 0.0807602 44 46 46
-34.0946 -692.292 -1762.05 0.696545 0.0674536 0.704032 39 41 41
-30.2218 -690.22 -1763.05 0.67632 0.0710547 0.74763 38 41 40
-20.111 -690.436 -1760.98 0.903614 -0.0257705 0.113823 46 48 48
-148.878 -672.514 -1761.58 -0.887283 -0.111747 0.444805 34 36 38
-150.542 -665.052 -1762.49 -0.864751 -0.120106 0.482215 33 35 37
-149.079 -654.572 -1758.46 -0.866033 -0.0295877 0.483192 35 37 39
-149.951 -643.724 -1761.73 -0.850754 0.022837 0.50544 37 39 40
-150.697 -634.111 -1763.37 -0.842996 -0.0401299 0.518718 37 38 39
-149.99 -624.864 -1760.02 -0.860884 -0.0735222 0.496641 37 39 39
-150.526 -614.479 -1760.35 -0.858673 -0.04402 0.507395 38 40 40
-151.512 -599.994 -1762.47 -0.843321 0.00939053 0.533897 38 40 40
-151.401 -591.493 -1762.96 -0.83336 0.00876406 0.550295 38 40 40
-42.5626 -380.852 -1760.77 0.772944 -0.00959835 0.616194 42 44 44
-42.8198 -377.955 -1760.52 0.773398 -0.057762 0.607685 42 44 44
-42.4558 -365.153 -1756.68 0.791095 -0.126793 0.580566 40 42 42
-41.0356 -353.309 -1758.02 0.796013 0.00890715 0.597685 42 44 45
-38.9847 -350.379 -1761.81 0.855225 0.0530098 0.491212 43 45 46
-39.7133 -339.04 -1761.04 0.903349 0.00209377 0.42062 42 44 44
-41.1496 -317.364 -1760.21 0.845534 0.055991 0.523694 45 47 45
-40.0355 -322.838 -1761.55 0.865732 0.0234967 0.492601 43 46 44
-41.0777 -303.617 -1758.87 0.878617 -0.0132064 0.452049 49 51 50
-870.02 359.257 -1761.9 -0.207264 -0.828648 0.480105 139 109 92
-865.684 360.289 -1758.61 -0.254788 -0.643021 0.6782 166 133 116
-863.41 357.226 -1762.52 -0.161833 -0.791627 0.511422 146 115 98
-851.227 357.305 -1760.95 0.172575 -0.717998 0.573298 155 127 108
-841.266 362.074 -1762.31 0.433377 -0.716722 0.514558 148 123 102
-883.948 367.041 -1762.48 -0.205209 -0.267275 0.869112 205 166 142
-877.258 368.187 -1759.56 -0.30286 -0.321004 0.82616 199 163 142
-871.935 374.291 -1756.79 -0.346051 0.102902 0.90654 238 203 180
-870.514 383.394 -1762.19 -0.301649 0.476922 0.816011 242 210 189
-842.703 365.817 -1758.87 0.432294 -0.450883 0.708403 183 155 133
-844.306 377.153 -1760.35 0.333484 0.276879 0.848952 244 214 190
-859.106 381.14 -1758.54 -0.0108029 0.41021 0.884187 249 217 195
-847.739 384.063 -1762.67 0.276604 0.627602 0.734013 250 219 200
-846.073 383.217 -1762.76 0.304773 0.599043 0.746612 251 220 200
-840.832 372.44 -1760.27 0.430761 -0.00439534 0.832319 228 199 174
-151.258 311.46 -1756.99 -0.164865 0.286993 0.892888 100 87 53
-76.7085 221.692 -1762.71 0.89935 -0.272453 0.342486 207 203 151
-77.7385 229.601 -1757.49 0.894414 -0.104029 0.440074 204 202 146
-72.454 243.321 -1760.72 0.781466 -0.115756 0.51264 215 213 166
-71.2466 249.299 -1759.89 0.720693 -0.13672 0.573197 221 219 179
-366.646 -718.819 -1751.39 0.482406 0.203844 0.841044 41 43 42
-414.092 -707.681 -1750.6 -0.385472 0.10484 0.867333 47 47 46
-414.47 -686.831 -1752.97 -0.711798 0.107993 0.686338 45 45 45
-365.562 -703.568 -1754.54 0.266592 0.202679 0.968364 40 42 41
-368.092 -697.962 -1754.83 0.249282 0.155643 0.967049 40 42 41
-378.262 -688.366 -1752.05 0.399412 0.136901 0.884629 42 44 43
-369.3 -696.144 -1754.75 0.264164 0.150818 0.957161 40 42 42
-370.891 -686.047 -1756.11 0.350748 0.165605 0.920134 41 43 43
-365.628 -725.696 -1752.4 0.619034 0.0947792 0.801455 41 44 41
-343.287 -725.979 -1755.67 -0.499244 0.0083871 0.323966 33 35 35
-362.341 -711.732 -1754.17 0.369311 0.13362 0.924086 40 43 41
-337.049 -730.17 -1752.89 -0.164091 0.0319712 0.694747 34 36 36
-332.713 -733.313 -1752.71 -0.0864577 0.0431696 0.870383 35 37 37
-330.214 -727.903 -1752.76 -0.114387 -0.00325988 0.914941 35 37 37
-323.924 -726.385 -1751.82 -0.350815 -0.016062 0.911342 35 37 37
-331.843 -721.396 -1752.91 -0.118386 -0.00138282 0.879507 35 37 37
-336.916 -712.484 -1755.39 -0.26626 0.101117 0.612471 33 36 35
-325.096 -719.163 -1752.37 -0.274576 0.00176305 0.950874 35 37 37
-320.216 -711.557 -1751.02 -0.465949 0.0383706 0.885818 35 37 37
-362.57 -699.8 -1756.38 0.176827 0.154674 0.926554 39 41 40
-344.733 -704.876 -1755.37 -0.475673 -0.0587401 0.271145 36 38 37
-348.724 -696.469 -1754.41 -0.745347 0.0244042 -0.0764119 34 35 35
-343.754 -691.214 -1751.72 -0.56468 0.103314 0.373808 34 35 35
-330.132 -704.684 -1755.72 -0.279342 0.0952016 0.962758 34 36 36
-332.882 -700.23 -1756.54 -0.26445 0.0357345 0.967751 34 36 36
-324.583 -698.439 -1751.81 -0.47044 -0.0817757 0.871525 35 37 37
-339.671 -693.66 -1754.95 -0.226938 0.0751279 0.788462 35 37 37
-340.695 -687.152 -1752.15 -0.48062 0.0924701 0.505451 34 36 36
-330.948 -685.541 -1751.44 -0.466661 -0.0139916 0.854215 35 37 37
-314.722 -782.84 -1754.18 -0.0255932 0.198697 0.948425 37 38 38
-313.672 -778.408 -1754.73 -0.0196723 0.0548171 0.96062 37 37 37
-247.994 -378.666 -1751.64 0.587601 -0.406875 0.695703 35 35 35
-243.358 -373.576 -1752.58 0.579441 -0.373313 0.723866 35 35 35
-241.471 -364 -1751.18 0.610592 -0.253193 0.75072 36 36 36
-238.489 -364.694 -1753.82 0.606598 -0.242381 0.755183 35 35 35
-234.838 -359.721 -1755.2 0.652511 -0.19352 0.743388 35 35 35
-233.779 -348.966 -1755.16 0.635595 -0.0717683 0.76486 34 34 33
-238.266 -344.082 -1751.93 0.620644 -0.043254 0.779924 32 32 32
-232.392 -335.797 -1755.82 0.642387 -0.0772806 0.765257 31 31 31
-234.187 -333.856 -1753.57 0.64088 -0.126719 0.751119 32 32 32
-217.396 -326.199 -1756.63 -0.0816075 -0.338848 0.906258 25 23 24
-222.101 -317.942 -1754.82 0.266317 -0.271967 0.895401 21 21 21
-224.072 -312.529 -1752.29 0.341354 -0.268396 0.8393 22 22 22
-221.698 -313.685 -1753.33 0.234689 -0.26086 0.885825 21 21 21
-61.9793 -693.079 -1751.31 0.532761 0.0391912 0.840792 37 39 39
-59.0557 -688.956 -1752.08 0.484419 0.038996 0.873507 37 39 39
-56.0314 -686.269 -1752.09 0.470296 0.0395188 0.879649 37 39 39
-21.4209 -706.602 -1755.28 0.976035 -0.0324885 0.172648 44 46 46
-22.3649 -695.611 -1752.49 0.937861 -0.0246719 0.338654 46 47 47
-145.705 -682.417 -1756.98 -0.91287 -0.0366651 0.404841 34 36 38
-147.019 -668.786 -1756.35 -0.893281 -0.105652 0.435458 34 36 38
-145.65 -663.739 -1752.34 -0.891518 -0.0970177 0.441785 35 37 38
-147.467 -653.563 -1755.03 -0.885278 -0.02409 0.455611 35 37 39
-145.179 -645.704 -1750.52 -0.907694 0.0187425 0.421482 38 40 41
-145.327 -631.264 -1750.84 -0.904527 -0.0155327 0.426451 39 41 41
-147.861 -621.763 -1755.29 -0.883752 -0.050101 0.464284 38 40 40
-146.701 -614.016 -1752.62 -0.886944 -0.0300824 0.461498 40 42 42
-148.199 -599.699 -1755.49 -0.885625 0.0119805 0.462752 39 41 41
-147.009 -587.902 -1754.63 -0.879219 0.00547487 0.475755 41 43 43
-44.1 -282.952 -1754.04 0.889608 0.152298 0.423674 44 47 46
-45.5333 -272.469 -1753.41 0.852053 0.0603567 0.505269 43 45 45
-44.5768 -261.101 -1753.97 0.862983 -0.00126205 0.498365 45 48 46
-47.3968 -249.484 -1750.76 0.855935 0.0619811 0.507021 45 47 46
-44.18 -246.341 -1756.18 0.88588 0.012861 0.455353 45 47 46
-45.8991 -236.76 -1752.06 0.874536 -0.0113579 0.475874 46 48 47
-44.5827 -226.607 -1755.91 0.881414 0.110769 0.427318 46 48 47
-45.5195 -220.596 -1754.84 0.867213 0.0610605 0.475321 45 48 47
-44.8967 -207.321 -1755.4 0.903037 0.0321945 0.406167 46 49 47
-46.0364 -192.682 -1752.31 0.90516 0.00597708 0.406104 49 52 51
-381.046 -180.457 -1754.25 -0.851646 0.191676 0.436444 47 49 46
-380.269 -175.815 -1756.63 -0.825102 0.284345 0.454134 47 49 46
-371.99 -166.456 -1751.16 -0.813343 0.312794 0.473871 46 48 45
-335.684 308.75 -1753.27 -0.0828359 0.298537 0.964855 255 255 242
-339.71 308.175 -1753.2 -0.132346 0.25768 0.948594 255 255 238
-327.049 307.312 -1750.91 -0.175403 0.435627 0.887844 255 254 246
-320.401 309.419 -1751.04 -0.197787 0.51835 0.82753 254 253 249
-310.097 311.665 -1751.71 -0.035055 0.543269 0.83597 253 253 254
-294.448 307.696 -1750.98 0.0885082 0.588452 0.802284 253 253 254
-290.876 312.19 -1754.32 0.0982 0.592809 0.796768 253 253 254
-287.191 307.957 -1751.74 0.10044 0.57638 0.810482 253 253 254
-282.677 309.437 -1753.26 0.104707 0.55941 0.821901 253 253 254
-273.69 308.921 -1754.22 0.0927755 0.519253 0.845521 253 253 252
-277.48 312.239 -1755.94 0.0974547 0.547454 0.830949 253 253 253
-260.731 309.14 -1753.9 -0.0939349 0.420983 0.888896 253 254 247
-254.869 303.651 -1751.17 -0.0999294 0.452192 0.885223 253 254 246
-255.688 310.339 -1753.25 -0.163081 0.356625 0.912387 252 254 243
-249.341 312.98 -1752.46 -0.197508 0.299945 0.92944 250 252 234
-76.2374 258.597 -1752.54 0.714651 -0.102406 0.679899 235 233 204
-77.7012 261.732 -1751.52 0.662263 -0.00112735 0.721406 235 234 205
-101.507 277.631 -1754.4 0.139043 0.542584 0.799878 191 184 157
-111.428 283.588 -1754.76 0.562366 0.257418 0.773314 72 57 39
-112.363 287.209 -1754.24 0.602235 0.218413 0.710831 75 60 41
-91.9396 280.404 -1755.84 -0.0427002 0.528191 0.845839 244 242 216
-78.342 267.284 -1752.95 0.535281 0.258604 0.768048 237 236 210
-79.5748 273.168 -1755 0.444262 0.410186 0.790161 238 238 211
-86.4085 280.152 -1756.2 0.112678 0.494221 0.83874 249 248 226
-112.779 299.094 -1755.88 0.362247 0.112603 0.813071 83 71 49
-108.424 312.736 -1754.57 0.513078 -0.0510113 0.587537 95 85 62
-202.606 320.36 -1751.58 0.0337771 0.136383 0.974675 237 234 180
-204.999 325.377 -1752.39 -0.0407626 0.162742 0.973991 237 234 181
-196.132 320.419 -1750.65 -0.0381225 0.121734 0.985637 236 233 179
-191.268 326.672 -1750.96 0.0748182 0.106768 0.983368 236 232 178
-204.642 330.706 -1752.68 -0.0989483 0.129905 0.981471 236 233 180
-205.502 336.558 -1753.36 -0.0926066 0.180414 0.970858 235 232 180
-191.728 331.437 -1752.19 0.0889652 0.179092 0.967279 235 230 177
-199.303 335.593 -1752.51 -0.0460621 0.176523 0.970127 234 231 178
-137.04 598.68 -1751.28 0.876921 0.378156 0.288086 49 42 48
-133.318 595.923 -1760.07 0.884088 0.368344 0.268728 49 44 49
-137.101 602.537 -1759.73 0.881029 0.372525 0.260989 50 44 50
-441.656 -950.425 -1748.33 -0.00443107 0.937254 0.107617 59 56 57
-435.338 -944.15 -1749.16 -0.0728581 0.970094 0.049034 50 46 47
-423.153 -943.107 -1749.55 -0.0958195 0.891865 0.035191 34 31 31
-416.08 -903.57 -1747.47 -0.616346 -0.135907 0.765327 43 43 43
-417.223 -897.262 -1747.76 -0.650805 -0.0173986 0.755014 42 42 42
-411.649 -941.874 -1746.19 -0.00501035 0.857647 0.0867807 32 28 29
-404.763 -941.56 -1748.6 -0.0781537 0.693488 0.219777 27 23 24
-391.35 -938.35 -1746.52 -0.0768718 0.902077 0.136032 23 20 21
-383.159 -937.711 -1743.93 -0.052816 1.04705 0.0289114 19 16 17
-372.002 -936.303 -1750.62 0.0319522 1.04086 -0.220404 24 22 23
-359.541 -938.645 -1749.61 0.00622382 0.922136 -0.272385 26 24 24
-346.715 -943.284 -1750.52 -0.139212 0.864516 -0.304074 31 26 25
-346.179 -939.654 -1746.96 -0.134665 0.870197 -0.291792 35 29 27
-383.875 -683.618 -1748.18 0.546469 0.139223 0.83972 44 46 45
-390.221 -671.012 -1748.96 0.194146 0.258352 0.904492 45 47 47
-350.548 -675.883 -1746.4 -1.001 -0.216873 -0.0669713 36 36 36
-349.884 -669.951 -1749.62 -1.00363 -0.154282 -0.0966327 35 35 35
-336.113 -678.752 -1746.01 -0.581522 -0.050839 0.681823 34 36 36
-337.113 -672.797 -1748.25 -0.609871 -0.0628629 0.600862 34 36 36
-324.212 -681.018 -1746.5 -0.517718 -0.1215 0.826549 34 36 36
-321.33 -678.052 -1744.34 -0.535758 -0.164937 0.823866 34 36 36
-334.949 -667.344 -1744.77 -0.587036 -0.0686504 0.737285 34 36 36
-335.661 -664.95 -1748.45 -0.583751 -0.0681815 0.726533 35 36 36
-324.557 -669.938 -1744.96 -0.618153 -0.100589 0.763077 34 36 36
-351.44 -659.451 -1746.84 -0.934399 -0.0431091 -0.0292645 37 37 37
-354.532 -647.472 -1750.11 -0.922488 -0.380403 -0.114939 36 36 36
-334.49 -653.917 -1744.15 -0.756658 -0.155042 0.636958 39 40 40
-331.953 -658.989 -1747.39 -0.67025 -0.11356 0.714998 37 39 39
-340.134 -643.42 -1750.52 -0.474837 0.0133752 0.630543 35 37 37
-235.488 -327.018 -1749.1 0.650806 -0.300795 0.695984 35 34 34
-234.289 -318.29 -1745.56 0.703087 -0.29474 0.646298 34 33 34
-229.804 -305.662 -1747.06 0.632276 -0.247389 0.737511 28 27 27
-216.039 -306.795 -1749.51 -0.300538 -0.319565 0.851375 26 26 26
-219.323 -299.205 -1746.5 -0.0559608 -0.379302 0.808873 26 26 26
-220.594 -294.831 -1744.83 0.124334 -0.428496 0.804242 26 26 26
-372.366 -277.182 -1746.91 -0.546661 0.19869 0.792947 41 43 40
-371.879 -269.189 -1747.42 -0.614094 0.100976 0.7785 40 42 39
-373.924 -261.214 -1749.95 -0.700613 0.0466323 0.704342 42 43 41
-371.413 -259.462 -1747.34 -0.694421 0.0253107 0.71699 41 42 39
-371.015 -251.124 -1746.36 -0.728553 -0.0447632 0.678138 41 41 39
-374.916 -238.475 -1749.36 -0.75342 -0.117374 0.646982 41 41 38
-69.0549 -750.342 -1745.61 0.578726 0.0907628 0.808679 40 39 37
-67.2029 -743.337 -1746.42 0.61501 -0.0213705 0.773721 39 39 37
-58.8153 -782.873 -1744.26 0.489598 0.0499793 0.866443 39 39 38
-60.3401 -769.755 -1745.07 0.525339 0.0522148 0.845855 39 39 37
-60.5206 -761.965 -1746.64 0.528296 0.0868564 0.844152 39 39 37
-29.2977 -780.911 -1747.42 0.791963 -0.0293612 0.588896 38 40 38
-27.2619 -777.209 -1749.74 0.847556 -0.0638739 0.501 37 40 38
-26.7301 -770.832 -1749.31 0.787129 -0.123736 0.55193 40 41 41
-62.7688 -758.244 -1746.66 0.536719 0.111198 0.835998 38 39 37
-61.041 -751.514 -1748.74 0.526029 0.0927491 0.840575 38 39 37
-54.2723 -748.38 -1747.88 0.479236 0.0774105 0.871219 38 39 38
-64.8682 -745.487 -1747.66 0.575 0.0285395 0.805322 39 39 37
-61.7681 -739.47 -1747.84 0.555057 -0.00326918 0.81778 39 39 37
-29.3585 -760.001 -1745.09 0.617297 -0.0635147 0.784482 42 43 43
-22.2071 -748.991 -1750.4 0.822585 -0.145736 0.511763 43 45 45
-27.4548 -747.658 -1744.24 0.60945 -0.118243 0.783631 39 41 41
-20.8326 -741.173 -1749.67 0.756522 -0.175823 0.632611 42 44 44
-196.603 -358.073 -1747.69 -0.501363 -0.216685 0.835825 37 37 37
-199.583 -351.595 -1747.89 -0.530493 -0.180645 0.823155 37 37 37
-204.391 -344.842 -1750.19 -0.632295 -0.133989 0.762192 37 37 37
-202.667 -341.634 -1748.46 -0.598709 -0.154527 0.778716 37 37 37
-204.833 -330.437 -1746.25 -0.617155 -0.302169 0.727227 37 37 37
-206.953 -324.749 -1745.79 -0.6519 -0.292973 0.705973 37 37 37
-209.282 -320.528 -1746.95 -0.624177 -0.257504 0.722362 35 35 35
-213.886 -308.138 -1747.9 -0.451495 -0.289549 0.800857 30 30 30
-328.377 226.743 -1745.43 -0.758503 -0.225881 0.533375 205 205 161
-329.652 228.5 -1747.64 -0.775638 -0.250712 0.505686 206 205 159
-334.091 240.018 -1747.94 -0.858503 -0.302246 0.368719 207 203 156
-334.941 247.866 -1746.02 -0.856431 -0.249637 0.434625 206 202 153
-338.212 254.719 -1747.68 -0.831346 -0.257051 0.481394 207 202 152
-340.958 266.056 -1749.36 -0.846555 -0.0331876 0.523422 207 200 147
-342.79 286.7 -1748.78 -0.802408 -0.181931 0.52937 220 215 171
-339.044 276.562 -1745.72 -0.826488 -0.0297132 0.544845 223 219 175
-345.476 293.074 -1749.42 -0.727779 -0.358929 0.560759 214 209 162
-337.402 302.22 -1746.28 -0.401789 0.202777 0.724806 241 238 212
-317.701 301.216 -1745.07 -0.121338 0.526788 0.851455 254 254 252
-326.741 302.731 -1746.02 -0.177454 0.536606 0.832121 255 254 248
-318.662 308.359 -1749.87 -0.152861 0.534793 0.827979 254 253 251
-165.541 278.562 -1744.92 0.122079 0.404881 0.905874 254 255 246
-170.732 289.818 -1747.93 0.19015 0.348282 0.915892 237 235 193
-206.717 302.715 -1746.28 0.0828325 0.403476 0.906159 240 237 185
-191.064 300.134 -1749.07 0.216881 0.266843 0.917362 238 233 180
-212.781 304.682 -1746.56 0.0472768 0.345957 0.930552 239 238 188
-213.666 310.229 -1748.56 0.0831826 0.280645 0.950593 239 237 187
-201.375 305.781 -1747.98 0.135691 0.328188 0.916811 239 235 182
-202.482 309.414 -1749.24 0.14569 0.255993 0.935806 239 235 181
-185.092 294.486 -1746.75 0.22349 0.403936 0.876003 240 236 185
-190.116 301.637 -1750.46 0.218899 0.191015 0.940571 238 232 179
-169.486 292.164 -1749.06 0.164949 0.340745 0.922839 224 220 173
-163.794 279.901 -1745.48 0.0899015 0.408241 0.904769 250 250 237
-160.92 290.109 -1749.54 0.0557519 0.347308 0.930518 213 207 162
-157.224 289.761 -1749.21 -0.0251859 0.355839 0.925024 200 192 148
-144.145 288.486 -1744.51 -0.385768 0.30247 0.862495 126 110 67
-118.669 280.934 -1744.33 0.641544 -0.00363234 0.706402 86 73 49
-164.315 289.717 -1749.06 0.119977 0.34635 0.926247 226 223 180
-152.599 294.517 -1749.69 -0.149752 0.309353 0.932202 151 139 92
-143.74 297.38 -1744.95 -0.491586 0.220096 0.82529 98 84 50
-144.675 305.879 -1749.12 -0.402893 0.363226 0.806428 92 79 51
-439.949 -954.145 -1738.03 -0.106663 0.907758 0.0663442 49 46 46
-434.025 -942.48 -1738.47 -0.172864 0.96841 -0.00285129 50 46 47
-421.53 -940.118 -1739.99 -0.0960716 0.980809 -0.0900432 41 37 38
-410.567 -939.455 -1739.56 0.0548479 0.963958 0.0122093 36 33 33
-402.027 -940.129 -1744.18 -0.00455103 0.841472 0.163477 29 26 27
-387.407 -939.047 -1738.5 -0.091151 1.00914 0.103561 24 21 22
-377.951 -937.373 -1739.29 -0.0766141 1.00415 0.0348344 19 17 17
-367.358 -936.364 -1741.4 0.0521189 0.983518 -0.0789006 21 18 19
-355.314 -937.018 -1742.53 0.0479176 0.922904 -0.0918362 26 23 24
-327.658 -729.604 -1738.5 -0.553694 -0.0237213 0.777482 35 37 37
-334.709 -715.048 -1743.92 -0.283922 0.0407245 0.939072 35 37 37
-349.062 -704.432 -1741.54 -1.02111 0.0300708 -0.090937 36 35 35
-348.09 -693.949 -1743.49 -0.990176 0.0173647 -0.00195855 35 35 35
-333.933 -705.497 -1743.36 -0.380262 -0.0281757 0.877208 35 37 37
-330.896 -700.969 -1738.9 -0.350721 -0.0309417 0.88008 36 37 37
-333.15 -687.824 -1741.74 -0.462734 -0.0559275 0.845918 35 37 37
-292.218 -765.945 -1743.78 -0.390789 -0.115481 0.911812 33 35 35
-282.893 -774.637 -1742.98 -0.198599 -0.253164 0.941998 34 35 34
-272.67 -777.8 -1742.5 -0.129169 -0.261032 0.958376 35 37 36
-271.282 -776.466 -1742.02 -0.117517 -0.247352 0.964712 36 37 37
-281.768 -771.058 -1741.96 -0.210108 -0.220632 0.947109 34 35 35
-281.541 -763.012 -1740.44 -0.246522 -0.156549 0.953286 34 36 36
-267.59 -768.27 -1739.96 -0.0117513 -0.214007 0.97904 37 38 38
-265.662 -765.235 -1739.33 0.100804 -0.207907 0.9723 38 39 39
-298.135 -749.134 -1743.53 -0.299462 -0.174309 0.94546 34 36 36
-305.861 -735.605 -1743.36 -0.42242 -0.125397 0.899912 35 37 37
-294.596 -746.761 -1742.01 -0.299806 -0.170023 0.946843 34 36 36
-294.369 -736.726 -1739.62 -0.264447 -0.195671 0.890808 35 37 37
-287.779 -759.44 -1741.67 -0.313956 -0.125365 0.940245 34 36 36
-285.801 -750.135 -1739.62 -0.31954 -0.136659 0.943997 35 37 37
-287.096 -746.151 -1739.32 -0.341519 -0.172477 0.937961 35 37 37
-261.216 -780.306 -1741.8 -0.0955458 -0.0835152 0.995826 37 38 38
-263.898 -778.269 -1741.73 -0.097927 -0.131455 0.991441 37 38 38
-252.884 -781.398 -1742.58 0.203193 0.0188878 0.92235 37 37 37
-254.308 -767.081 -1743.86 0.345779 -0.0790204 0.914357 39 39 39
-253.871 -760.224 -1744.1 0.501269 -0.137604 0.833465 40 40 40
-366.248 -231.642 -1738.82 -0.747829 -0.0842809 0.621952 42 42 41
-367.373 -226.374 -1737.95 -0.765756 -0.0935339 0.571196 42 43 42
-372.265 -211.209 -1739.86 -0.813676 -0.139916 0.548271 43 43 41
-372.959 -204.209 -1739.08 -0.846544 -0.112257 0.501147 46 46 43
-375.328 -191.545 -1739.86 -0.888077 -0.122646 0.411297 47 47 44
-222.781 -282.855 -1739.62 0.399365 -0.248899 0.861518 21 22 21
-216.614 -277.84 -1738.81 -0.101649 -0.207347 0.924559 24 24 24
-214.013 -926.788 -1738.78 -0.0487142 0.613228 0.723601 23 17 17
-211.749 -910.163 -1744.12 -0.253278 0.489939 0.698481 35 29 30
-208.288 -906.83 -1741.39 -0.560176 0.520949 0.580802 45 38 38
-202.025 -897.754 -1743.15 -0.613094 0.733376 0.308958 51 45 44
-137.821 -689.753 -1739.24 -0.885297 0.0224357 0.464352 36 38 38
-65.6365 -785.223 -1741.53 0.556336 0.0268261 0.827607 40 40 38
-70.6292 -778.605 -1740.43 0.621039 -0.000157516 0.783514 38 39 36
-69.8309 -766.842 -1741.45 0.595542 0.0539854 0.798731 39 39 37
-68.9724 -760.965 -1743.28 0.576644 0.102368 0.807368 38 38 36
-69.6088 -759.67 -1743.28 0.586165 0.105404 0.798113 38 38 36
-73.4092 -742.824 -1742.17 0.711728 -0.0999239 0.684068 40 39 37
-72.4767 -738.263 -1741.71 0.726344 -0.147635 0.671117 39 38 37
-61.5785 -783.887 -1743.78 0.51844 0.0348273 0.851133 39 39 37
-58.4127 -771.964 -1739.87 0.51254 0.0467255 0.848068 38 38 37
-55.4253 -761.103 -1741.72 0.561052 0.0415725 0.810701 39 39 38
-36.652 -773.412 -1739.56 0.68277 -0.0370544 0.729257 39 40 40
-38.101 -769.067 -1738.32 0.683852 -0.0389232 0.724636 40 41 41
-31.3792 -762.403 -1743.84 0.626172 -0.0490953 0.7802 42 43 42
-56.8533 -752.437 -1740.54 0.585206 0.0554737 0.784382 39 39 38
-57.4804 -744.81 -1741.92 0.541912 0.0465095 0.820207 38 39 38
-58.9986 -738.647 -1738.27 0.551278 0.0211987 0.810432 38 39 39
-34.4338 -758.082 -1741.27 0.61094 -0.0349278 0.794452 42 42 42
-31.8667 -753.018 -1742.55 0.580595 -0.0596702 0.815342 41 42 42
-29.0371 -740.343 -1740.75 0.660952 -0.17341 0.722246 41 42 42
-74.5178 -734.082 -1738.07 0.75896 -0.137344 0.636588 38 38 37
-69.3243 -725.901 -1743.56 0.663189 0.0292554 0.730448 38 39 39
-54.293 -455.789 -1742.56 0.329424 -0.121632 0.689122 43 46 46
-56.138 -453.388 -1741.22 0.482119 -0.0812017 0.620722 42 45 45
-50.155 -450.541 -1742.13 0.392012 -0.114155 0.756521 45 47 47
-56.0912 -437.516 -1739.34 0.842748 0.116621 0.420935 41 43 43
-49.6971 -445.854 -1742.65 0.592931 -0.065664 0.686298 44 46 46
-59.3126 -432.697 -1740.74 0.899257 0.102976 0.373782 40 42 42
-58.7029 -422.083 -1738.29 0.918094 -0.137059 0.343963 40 42 42
-52.314 -409.555 -1739.53 0.801048 -0.0175598 0.483978 43 46 45
-51.0145 -406.094 -1742.66 0.817489 -0.0076642 0.394943 43 45 44
-55.5538 -393.39 -1740.48 0.89009 0.0191492 0.382474 42 44 43
-56.7822 -389.26 -1738.88 0.930756 -0.00936023 0.292102 42 44 44
-176.61 -383.639 -1744.04 -0.364636 -0.323781 0.870833 38 38 38
-172.836 -372.653 -1738.32 -0.380643 -0.222687 0.831492 39 39 39
-170.954 -378.407 -1740.34 -0.310521 -0.32906 0.873805 38 39 38
-186.187 -361.672 -1742.49 -0.467798 -0.18888 0.858932 38 38 38
-175.434 -371.575 -1739.25 -0.410372 -0.243583 0.83928 39 39 39
-325.342 222.276 -1742.49 -0.839004 -0.300045 0.369211 210 205 157
-330.611 234.946 -1741.85 -0.844532 -0.254698 0.413076 205 202 157
-332.879 244.897 -1742.77 -0.872102 -0.205005 0.414335 206 202 154
-334.269 259.319 -1741.99 -0.778156 -0.123555 0.612068 213 207 156
-333.582 264.241 -1740.35 -0.74918 -0.0856258 0.65927 220 215 167
-334.519 271.783 -1740.32 -0.729542 -0.0664937 0.675816 229 224 183
-334.754 280.411 -1739.9 -0.694107 0.00616324 0.684616 234 230 195
-338.4 289.953 -1742.03 -0.70963 -0.117351 0.628166 224 218 176
-338.78 296.34 -1741.12 -0.690814 -0.339832 0.613516 216 209 159
-331.998 299.266 -1739.3 -0.476362 0.190162 0.676073 240 237 209
-318.25 293.447 -1738.39 -0.0708328 0.469918 0.821012 252 251 243
-316.489 298.625 -1743.3 -0.0705552 0.531241 0.85371 254 254 252
-79.0301 -80.707 -1742.34 0.674348 0.190432 0.712162 53 54 52
-85.4227 -71.5909 -1737.89 0.714452 0.132448 0.688214 55 57 57
-84.9019 -64.4868 -1739.66 0.707081 0.193005 0.673427 57 59 58
-90.5895 -49.5755 -1742.31 0.592471 0.476754 0.649335 66 65 63
-95.9122 -45.267 -1740.65 0.594109 0.454886 0.660402 67 66 63
-87.0897 -55.3161 -1741.83 0.669214 0.429077 0.591981 63 63 61
-122.125 294.637 -1737.47 0.6925 -0.214596 0.701203 99 83 58
-119.683 302.204 -1741.54 0.722257 -0.0627941 0.635327 120 108 80
-137.43 304.924 -1740.04 -0.512258 0.250795 0.726525 87 72 55
-118.274 305.284 -1743.56 0.711777 0.0192168 0.584706 94 84 63
-123.557 311.583 -1738.64 0.433625 0.199062 0.675556 94 84 68
-83.5641 217.413 -1739.4 0.759272 0.0942566 0.481074 222 221 176
-88.011 233.886 -1738.57 0.851065 0.141125 0.413823 217 216 168
-86.1984 237.288 -1742.79 0.868202 0.0595338 0.410031 214 213 163
-103.427 257.697 -1739.82 0.230667 0.496094 0.834801 255 255 247
-103.561 264.454 -1742.88 0.146621 0.50792 0.839558 244 243 229
-102.857 253.866 -1738.57 0.260468 0.527361 0.813121 255 255 249
-98.6998 262.421 -1743.19 0.217163 0.432141 0.872231 255 255 244
-85.5741 242.231 -1743.89 0.846844 -0.0696335 0.496259 216 216 169
-113.958 267.603 -1744.37 0.239519 0.517839 0.79535 174 168 145
-198.729 -574.917 -1738.27 -0.434306 -0.171898 0.839149 33 35 35
-192.292 -572.538 -1738.08 -0.431156 -0.199424 0.838378 33 35 35
-198.717 -564.092 -1737.73 -0.247773 0.00711392 0.923442 36 37 37
-188.725 -562.59 -1738.18 -0.386162 -0.161963 0.864109 34 36 36
-192.056 -555.092 -1738.56 -0.302558 -0.0505824 0.903274 35 37 36
-192.835 -544.334 -1738.93 -0.235908 0.0407319 0.937338 37 37 37
-340.703 -885.021 -1734.82 -0.550531 -0.0474458 0.722686 39 39 38
-342.473 -869.225 -1734.8 -0.62571 -0.0317772 0.674389 37 38 37
-342.99 -863.071 -1735.04 -0.62434 -0.00612431 0.665575 37 38 37
-322.387 -882.815 -1736.94 -0.81232 -0.250661 0.51967 41 38 38
-325.177 -873.604 -1731.92 -0.848656 -0.187866 0.453361 38 34 35
-326.185 -869.668 -1735.36 -0.890742 -0.111839 0.41683 38 35 35
-344.681 -858.056 -1736.49 -0.694623 0.0349568 0.624495 36 37 36
-343.512 -846.93 -1737.27 -0.566046 0.0764564 0.70493 40 42 41
-340.291 -846.918 -1734.75 -0.435 0.110713 0.681192 42 44 43
-325.161 -847.537 -1732.45 -0.857139 0.134122 0.269602 35 33 34
-336.761 -838.421 -1735.16 -0.478039 0.197512 0.534194 40 40 39
-324.709 -842.927 -1736.8 -0.927074 0.0716104 0.314278 33 32 32
-391.39 -831.906 -1737.94 -0.451221 -0.120407 0.856121 39 40 39
-391.071 -821.581 -1734.49 -0.473414 -0.17571 0.858527 41 42 41
-395.136 -810.427 -1734.85 -0.544113 -0.0923064 0.832711 41 42 42
-381.313 -834.773 -1733.21 -0.485084 -0.169634 0.846776 41 42 42
-389.257 -825.01 -1734.62 -0.462889 -0.18034 0.861933 42 42 42
-398.408 -809.143 -1737.08 -0.552749 -0.0844833 0.828859 40 41 40
-400.315 -800.527 -1737.82 -0.570226 -0.0410556 0.819078 41 43 41
-400.413 -796.87 -1737.67 -0.58651 -0.0185056 0.806362 42 44 42
-399.865 -787.94 -1737.41 -0.659561 0.0581629 0.749138 45 45 43
-278.73 -580.291 -1737.25 0.679126 0.167171 0.69219 40 42 42
-284.999 -567.948 -1733.2 0.781169 0.111666 0.600918 39 41 41
-285.132 -565.315 -1733.76 0.77477 0.127061 0.592739 39 41 41
-287.511 -548.348 -1733.46 0.86523 0.0902736 0.50033 38 41 41
-285.754 -547.833 -1737.85 0.832315 0.109469 0.533975 38 40 40
-297.107 -510.409 -1732.22 0.820288 0.356399 0.445513 40 42 42
-287.708 -534.066 -1733.98 0.874911 0.0569201 0.472976 39 41 41
-289.768 -522.276 -1734.69 0.839256 0.253209 0.470651 41 43 43
-294.664 -499.785 -1735.21 0.7607 -0.0105516 0.61833 41 43 43
-294.384 -493.595 -1733.96 0.743615 -0.0611028 0.652207 42 44 44
-242.524 -316.095 -1736.29 0.674701 -0.187919 0.712939 35 34 34
-242.472 -314.384 -1736.13 0.674362 -0.176964 0.715846 35 34 34
-243.02 -308.104 -1734.39 0.654567 -0.154746 0.736007 34 35 35
-238.802 -302.04 -1735.86 0.655159 -0.248812 0.707818 36 36 36
-234.269 -290.463 -1733.49 0.580295 -0.360747 0.728792 35 34 35
-356.388 -281.396 -1735.07 -0.662554 -0.0353767 0.74259 40 40 37
-355.489 -277.196 -1733.02 -0.717631 -0.0724227 0.693069 40 40 37
-357.504 -267.084 -1734.74 -0.700402 -0.0342915 0.713702 39 40 38
-356.744 -258.661 -1733.34 -0.712138 -0.0606493 0.694859 40 41 39
-362.141 -251.543 -1737.61 -0.700012 -0.112834 0.696685 40 40 39
-41.6989 -760.197 -1734.92 0.74182 -0.0361977 0.661431 40 41 41
-39.9991 -772.943 -1736.7 0.706393 -0.0430647 0.700648 39 40 40
-58.6686 -754.875 -1737.33 0.642271 0.02449 0.737069 40 40 39
-41.3986 -759.52 -1735.33 0.735869 -0.0330347 0.667455 40 41 41
-63.2228 -747.214 -1732.83 0.731879 -0.0610295 0.659544 41 41 41
-62.1739 -738.996 -1734.23 0.660913 -0.030137 0.72065 40 40 40
-35.5809 -742.943 -1736.68 0.62015 -0.243731 0.741685 41 41 41
-35.8324 -739.816 -1734.76 0.621572 -0.266 0.735002 41 42 42
-79.5951 -727.063 -1731.58 0.774808 0.0104129 0.623789 37 37 37
-79.0715 -716.336 -1736.15 0.738161 0.210437 0.640814 38 39 40
-81.6334 -714.385 -1734.1 0.767099 0.206452 0.601217 38 38 39
-82.5956 -708.633 -1734.66 0.791809 0.107329 0.580131 38 39 39
-81.6346 -691.811 -1734.34 0.835614 -0.0109517 0.544286 37 39 39
-61.153 -733.48 -1735.12 0.660961 0.00163077 0.722473 40 41 41
-60.0277 -724.634 -1736.27 0.596155 0.0779927 0.780413 41 41 41
-63.2847 -720.118 -1732.62 0.678381 0.0748634 0.7045 40 41 41
-35.9332 -734.217 -1732.14 0.633276 -0.22673 0.732661 41 41 41
-28.8435 -723.78 -1737.05 0.74511 -0.0572285 0.656447 41 43 43
-33.1385 -721.921 -1732.94 0.661989 -0.0131248 0.734619 41 42 42
-36.5776 -711.294 -1734.4 0.569468 0.119748 0.798802 40 41 41
-174.057 -354.642 -1734.66 -0.445943 -0.127909 0.831132 38 38 38
-172.602 -350.888 -1733.49 -0.472497 -0.0877132 0.839679 38 38 38
-180.796 -334.266 -1736 -0.398493 -0.231532 0.857312 39 40 40
-176.693 -344.402 -1735.78 -0.438413 -0.102504 0.815658 38 38 38
-154.565 -384.428 -1737.32 -0.364665 -0.224845 0.89446 37 39 38
-157.464 -373.08 -1733.7 -0.318931 -0.383483 0.862054 38 39 39
-147.846 -384.488 -1734.3 -0.397534 -0.248954 0.874981 37 39 39
-162.381 -369.49 -1733.61 -0.283857 -0.382351 0.870313 39 40 40
-196.58 -323.514 -1737.53 -0.434481 -0.310983 0.83758 40 40 40
-196.808 -313.44 -1735.63 -0.383755 -0.20825 0.889714 39 39 39
-196.034 -310.692 -1735.01 -0.366958 -0.188725 0.902045 39 40 40
-181.946 -331.094 -1735.23 -0.379172 -0.270975 0.859724 40 40 40
-178.482 -326.028 -1731.75 -0.40039 -0.308345 0.856111 39 40 40
-187.782 -321.512 -1734.24 -0.326427 -0.270425 0.903257 39 40 40
-205.548 -299.743 -1736.8 -0.55546 -0.230319 0.794208 37 37 37
-241.656 349.013 -1734.56 -0.343674 0.381128 0.851036 236 234 197
-245.513 354.563 -1737.66 -0.342291 0.449212 0.819027 248 245 208
-238.264 349.46 -1732.19 -0.370724 0.344267 0.858715 230 228 193
-236.167 354.726 -1731.14 -0.418715 0.360306 0.832919 231 228 194
-236.339 361.759 -1734.62 -0.421668 0.424942 0.7956 242 240 204
-225.71 358.414 -1734.06 -0.30572 0.378906 0.85413 224 222 183
-228.952 366.484 -1736.76 -0.369083 0.437163 0.80089 237 234 197
-230.143 413.135 -1737.3 -0.728289 -0.686839 0.0327456 180 176 144
-221.834 405.782 -1739.12 -0.537363 -0.602775 0.284185 166 157 127
-247.17 432.27 -1735.99 -0.684849 -0.672219 -0.0780459 156 178 168
-249.369 439.067 -1734.89 -0.818154 -0.377223 -0.259794 201 195 174
-233.826 416.146 -1732.7 -0.732356 -0.671547 -0.132903 186 180 151
-250.932 448.599 -1732.19 -0.942697 -0.198501 -0.0949365 215 198 176
-254.628 461.048 -1730.89 -0.949958 -0.312126 0.0356317 198 186 167
-132.674 288.634 -1737.28 -0.253204 -0.0173216 0.927399 96 82 53
-133.697 291.002 -1736.71 -0.344285 -0.0567837 0.926923 92 80 55
-131.638 300.014 -1734.78 -0.0959847 -0.165226 0.848909 101 87 69
-126.68 302.825 -1735.58 0.299156 -0.128032 0.789107 116 103 80
-129.533 307.468 -1736.35 -0.0179266 0.212085 0.749008 98 84 66
-125.862 307.893 -1736.43 0.333682 0.0814058 0.720246 100 88 70
-91.286 229.266 -1733.24 0.828791 -0.0218053 0.506153 217 215 169
-88.4143 217.541 -1733.36 0.723856 0.0150845 0.590324 225 225 181
-86.8875 222.793 -1735.67 0.752113 0.124852 0.499385 221 220 173
-110.067 250.081 -1732.86 0.272977 0.556344 0.786292 255 254 247
-100.147 243.702 -1731.93 0.377486 0.456734 0.774772 248 247 231
-93.0469 241.021 -1734.85 0.655248 0.21709 0.687159 236 236 207
-112.077 258.795 -1737.64 0.232105 0.541823 0.801727 252 250 239
-334.059 -778.838 -1728.82 -0.960962 -0.0611046 0.233385 36 36 36
-335.576 -774.657 -1730.92 -0.986586 -0.0804763 0.177909 35 35 35
-325.515 -773.542 -1731.94 -0.69948 -0.046525 0.416361 36 37 37
-334.842 -767.512 -1725.57 -0.90239 -0.153213 0.374608 38 38 38
-324.6 -769.342 -1729.99 -0.722669 -0.0542977 0.448647 37 37 37
-340.523 -744.489 -1729.19 -0.941051 -0.0853643 0.135306 37 37 37
-335.802 -757.47 -1725.04 -0.904835 -0.152817 0.281436 37 37 37
-323.499 -760.118 -1731.19 -0.65331 -0.0303507 0.517829 36 36 36
-337.029 -743.266 -1725.63 -0.798076 -0.0459201 0.469165 37 37 37
-321.625 -745.662 -1727.22 -0.551669 -0.0135575 0.732583 37 37 37
-348.17 -680.426 -1731.77 -0.893319 -0.199621 0.33776 38 38 38
-347.804 -677.779 -1730.66 -0.85394 -0.18608 0.421264 38 38 38
-348.063 -672.076 -1730.03 -0.840673 -0.138262 0.480384 38 38 38
-349.27 -664.487 -1730.96 -0.868792 -0.0548658 0.445011 38 38 38
-338.944 -685.543 -1728.07 -0.465979 -0.0453456 0.776103 38 39 39
-337.501 -674.818 -1726.6 -0.336453 -0.0704632 0.855874 39 39 39
-335.409 -669.972 -1726.14 -0.248662 -0.0481986 0.899466 39 39 39
-335.634 -665.279 -1725.51 -0.25859 -0.0233769 0.904547 39 40 40
-347.14 -659.793 -1729.08 -0.778873 0.00611616 0.604022 39 39 39
-345.272 -648.111 -1729.92 -0.658977 0.106481 0.766114 39 39 39
-346.409 -645.028 -1730.56 -0.64273 0.029107 0.785942 40 40 40
-336.689 -656.787 -1727.51 -0.396985 0.0375133 0.8775 40 40 40
-332.315 -657.407 -1729.56 -0.305952 0.0116485 0.900301 40 41 41
-332.503 -651.546 -1730.03 -0.363616 0.0279358 0.905392 41 42 42
-332.503 -644.35 -1730.08 -0.368094 -0.00233713 0.917044 42 43 43
-334.063 -636.413 -1729.66 -0.389864 -0.108384 0.879223 42 42 42
-318.36 -640.394 -1730.6 -0.570382 -0.240369 0.763709 37 40 39
-307.179 -436.324 -1727.69 0.82485 0.0297885 0.562972 42 44 44
-304.869 -430.536 -1730.7 0.804893 -0.0307884 0.593936 43 45 45
-304.625 -417.376 -1729.63 0.78517 -0.0975053 0.610972 40 42 42
-303.767 -414.1 -1730 0.781963 -0.116149 0.612575 40 42 42
-302.852 -400.939 -1728.46 0.683785 -0.0559344 0.69512 38 39 39
-306.79 -393.147 -1725.26 0.695843 -0.0134099 0.705264 38 39 39
-300.097 -397.827 -1729.82 0.511461 -0.110153 0.807006 37 38 38
-300.113 -389.832 -1728 0.425912 -0.132345 0.850263 37 38 38
-284.804 -387.48 -1730.96 0.37292 -0.38433 0.837722 34 37 37
-231.374 -256.079 -1726.35 0.646215 -0.149573 0.745842 38 38 38
-227.952 -257.476 -1730.36 0.573624 -0.272972 0.752342 34 34 34
-215.763 -251.995 -1728.28 -0.14715 -0.336868 0.880693 27 27 27
-222.572 -246.404 -1727.89 0.206962 -0.277836 0.892677 28 28 28
-225.692 -239.633 -1725.8 0.364052 -0.254003 0.8615 32 32 32
-207.441 -924.131 -1725.63 -0.694255 0.644341 0.33541 45 37 35
-206.946 -915.312 -1732.06 -0.656169 0.377257 0.59668 50 43 44
-202.4 -903.724 -1730.13 -0.784411 0.531284 0.317491 59 50 48
-193.753 -894.061 -1727.85 -0.661688 0.710234 0.211039 60 55 53
-188.712 -890.235 -1727.21 -0.587408 0.786909 0.171901 61 57 54
-68.2739 -938.382 -1726.74 0.147443 0.455295 0.275008 30 28 29
-43.2427 -709.357 -1731.04 0.571919 0.0675667 0.808613 39 40 40
-46.9748 -702.263 -1727.83 0.639186 0.0218512 0.760716 39 41 41
-48.2687 -685.361 -1726.32 0.688873 0.00478697 0.715203 42 44 44
-132.204 -680.396 -1728.44 -0.85944 -0.0127966 0.507229 37 39 39
-132.603 -669.603 -1728.01 -0.866908 -0.0469657 0.49427 38 40 40
-131.553 -663.253 -1725.44 -0.862559 -0.0627153 0.501103 38 40 40
-135.777 -654.339 -1731.84 -0.876498 -0.0444384 0.477826 38 40 41
-132.734 -641.121 -1726.62 -0.87276 0.0181967 0.487421 40 42 43
-131.809 -631.569 -1726.02 -0.866674 0.00416711 0.496637 40 42 43
-134.719 -618.961 -1729.34 -0.865548 -0.058783 0.496998 41 43 43
-136.304 -612.282 -1731.1 -0.875572 -0.0581401 0.478877 43 45 45
-135.417 -601.677 -1728.46 -0.889512 -0.00617161 0.455242 44 46 46
-134.805 -587.164 -1729.87 -0.868644 0.0641508 0.49008 41 43 44
-148.865 -483.148 -1728.47 -0.612814 0.0686433 0.778444 38 38 38
-153.189 -473.266 -1731.57 -0.624225 0.0997672 0.766028 39 39 39
-150.293 -471.538 -1729.6 -0.613885 0.104817 0.776219 38 39 39
-152.877 -461.595 -1731.08 -0.626747 0.0838781 0.764297 38 39 39
-136.832 -478.404 -1732.3 -0.879718 -0.0227325 0.473485 42 44 44
-137.532 -466.814 -1732.46 -0.862104 -0.0470043 0.486131 42 44 44
-137.594 -466.23 -1732.54 -0.862406 -0.046001 0.485371 42 44 44
-153.931 -450.639 -1730.29 -0.665423 -0.0348105 0.732772 37 37 37
-151.766 -450 -1729.15 -0.663295 -0.0413015 0.734602 37 37 37
-157.988 -444.817 -1730.96 -0.668774 -0.0577225 0.729631 37 37 37
-160.697 -440.265 -1730.69 -0.636069 -0.048863 0.75255 37 37 37
-149.5 -444.19 -1727.04 -0.668932 -0.0630018 0.728841 37 37 37
-134.577 -454.642 -1726.46 -0.873827 -0.0257589 0.485051 46 47 47
-137.028 -452.803 -1731.38 -0.879441 -0.0244101 0.471069 45 46 46
-136.852 -439.671 -1729.67 -0.817678 -0.078789 0.553231 43 45 44
-304.938 19.4853 -1728.51 -0.70849 -0.0252679 0.713494 50 50 48
-308.155 25.4705 -1730.93 -0.747558 -0.00595511 0.665423 49 49 46
-308.191 30.382 -1731.6 -0.740046 0.0853819 0.649545 69 69 60
-299.521 39.8379 -1728.76 -0.550105 0.313037 0.766284 172 171 137
-295.879 42.9891 -1728.05 -0.509189 0.310643 0.7922 204 203 162
-295.573 50.3547 -1730.19 -0.459385 0.212913 0.8569 216 214 165
-293.652 55.2701 -1729.1 -0.544601 0.0694259 0.804958 216 213 164
-289.627 53.0211 -1725.71 -0.655605 0.0156727 0.704028 217 213 165
-292.541 74.9601 -1728.36 -0.618717 -0.0575414 0.731179 221 218 169
-292.969 79.7709 -1727.48 -0.640621 -0.143476 0.707099 221 217 167
-297.747 89.7652 -1726.75 -0.694117 -0.195977 0.663499 214 211 160
-299.554 98.3313 -1728.1 -0.790884 -0.0478088 0.572767 217 214 164
-300.576 104.738 -1727.32 -0.869964 -0.122529 0.44796 219 215 167
-105.068 71.1908 -1731.48 0.751947 0.192212 0.619457 248 249 209
-109.522 72.7052 -1727.27 0.717657 0.200512 0.684271 249 250 210
-111.461 86.871 -1726.93 0.71644 0.0411567 0.696458 242 239 196
-107.722 91.1894 -1731.46 0.74921 0.0468307 0.658245 242 238 193
-112.368 108.023 -1726.99 0.684684 0.0236736 0.726801 227 225 186
-109.59 113.038 -1729.43 0.703201 -0.00648516 0.710006 226 226 188
-107.905 120.844 -1731.3 0.766282 0.012783 0.629979 228 228 189
-111.07 131.304 -1728.82 0.753842 0.0228161 0.657031 229 227 188
-108.715 137.171 -1729.62 0.741063 -0.0525676 0.648757 229 229 191
-105.2 141.12 -1730.82 0.76356 -0.143455 0.5718 225 227 188
-222.138 -760.46 -1726.51 -0.28008 -0.0537812 0.956698 32 33 33
-216.62 -756.269 -1732.2 -0.303506 -0.0628144 0.94306 33 34 33
-221.743 -744.908 -1728.03 -0.292536 -0.0665887 0.949795 33 33 33
-217.867 -741.147 -1732.31 -0.303969 -0.0711746 0.942018 35 35 35
-218.918 -739.655 -1731.43 -0.298863 -0.0697852 0.944142 34 35 35
-228.295 -724.783 -1728.6 -0.24928 -0.0677168 0.962286 32 32 32
-225.66 -728.23 -1729.75 -0.257396 -0.0657076 0.958395 33 33 33
-218.145 -724.333 -1734.45 -0.281331 -0.0607853 0.947825 37 37 38
-228.818 -719.785 -1729.14 -0.241675 -0.0645589 0.964454 34 34 34
-220.457 -721.045 -1733.37 -0.267183 -0.0591919 0.95345 37 37 37
-228.963 -713.054 -1729.74 -0.225165 -0.0599201 0.968713 37 37 37
-222.611 -712.568 -1732.77 -0.238182 -0.0539866 0.961516 39 39 39
-232.241 -701.169 -1726.91 -0.178188 -0.0542758 0.980248 41 41 41
-224.653 -702.731 -1730.91 -0.202637 -0.0490026 0.969921 42 42 42
-216.683 -704.468 -1734.08 -0.224587 -0.0399998 0.958351 43 43 44
-221.477 -702.914 -1732.21 -0.209785 -0.0453514 0.965758 42 42 43
-221.154 -688.399 -1727.89 -0.168082 -0.0343121 0.972727 49 49 49
-222.272 -695.791 -1729.75 -0.186596 -0.039638 0.969697 45 46 46
-220.596 -694.856 -1729.95 -0.187424 -0.0368965 0.967939 46 46 47
-363.694 -845.236 -1723.64 -0.527372 0.0102069 0.850494 44 46 45
-357.521 -838.794 -1719.58 -0.436823 0.0247491 0.890092 47 49 47
-326.686 -838.025 -1721.81 0.243127 0.342316 0.52196 48 50 49
-319.74 -836.368 -1724.97 -0.62826 -0.0950162 -0.157242 39 40 39
-372.55 -823.315 -1723.28 -0.502602 -0.221198 0.840669 46 48 46
-370.73 -823.18 -1721.98 -0.490491 -0.214599 0.850965 46 49 47
-373.241 -814.769 -1722.45 -0.409134 -0.0767753 0.897004 47 49 47
-367.599 -810.823 -1721 -0.201001 0.138663 0.93875 47 50 47
-376.448 -805.311 -1723.36 -0.387237 -0.00560189 0.921311 48 49 47
-372.194 -801.75 -1723.05 -0.170352 0.116529 0.930543 47 50 47
-370.914 -801.874 -1723.02 -0.121164 0.142751 0.92895 47 50 47
-373.846 -795.016 -1724.22 -0.0589348 0.172783 0.911188 48 50 47
-376.934 -785.043 -1725 0.0506823 0.280143 0.910002 48 51 48
-341.689 -829.358 -1719.67 0.157623 0.299663 0.914341 48 51 49
-344.229 -826.248 -1720.45 0.242901 0.309375 0.880562 48 51 48
-358.899 -813.866 -1719.7 0.0494798 0.325603 0.899658 48 51 48
-344.204 -821.789 -1723.49 0.447262 0.442137 0.738071 48 51 48
-335.338 -829.46 -1723.13 0.251492 0.547981 0.769555 48 51 48
-336.56 -828.811 -1723.08 0.24478 0.507313 0.784066 48 51 48
-356.117 -807.907 -1724.78 0.324241 0.487304 0.786221 48 51 48
-354.662 -375.326 -1721.01 -0.846806 -0.112596 0.479409 44 46 46
-356.523 -365.97 -1726.07 -0.666267 -0.0192092 0.636028 45 48 47
-356.724 -359.834 -1724.06 -0.673762 -0.0414311 0.606369 44 47 46
-354.778 -346.35 -1722.43 -0.649021 -0.0815793 0.621953 43 46 44
-349.722 -342.567 -1725.01 -0.49132 -0.0877491 0.775612 45 47 45
-355.933 -329.579 -1719.28 -0.819078 -0.0763148 0.485563 44 46 46
-224.75 -231.288 -1721.08 0.175888 -0.419453 0.835677 30 29 29
-221.215 -232.716 -1722.05 0.0234085 -0.438244 0.860785 28 28 28
-207.345 -925.366 -1721.13 -0.670155 0.679172 0.269678 46 37 34
-204.649 -916.646 -1722.35 -0.812103 0.417447 0.381683 62 52 51
-202.881 -908.786 -1723.42 -0.832182 0.374528 0.402984 61 51 50
-196.171 -897.667 -1720.29 -0.738927 0.609731 0.266497 59 54 51
-124.426 -827.465 -1720.06 -0.831118 0.0334126 0.555826 34 36 36
-125.426 -814.21 -1721.68 -0.841473 -0.0188121 0.535687 34 36 36
-125.549 -806.191 -1721.02 -0.815538 -0.0523623 0.569246 35 37 37
-125.402 -796.755 -1721.71 -0.783033 -0.00916129 0.613466 36 38 38
-78.3846 -884.842 -1719.78 0.616899 0.0396106 0.779593 37 37 36
-71.7884 -883.338 -1724.32 0.472054 0.270555 0.818832 40 40 38
-77.8053 -870.777 -1721.34 0.682293 0.190648 0.681787 40 40 38
-69.4755 -871.286 -1725.47 0.552811 0.151399 0.763827 39 39 38
-70.0083 -859.875 -1722.66 0.402598 -0.0913042 0.859487 37 38 36
-73.3625 -859.017 -1721.42 0.41259 -0.0879234 0.850235 37 38 36
-72.8485 -852.583 -1720.77 0.407768 -0.130619 0.835406 37 39 37
-84.2687 -840.499 -1720.09 0.619656 0.448383 0.621643 40 39 37
-65.5864 -844.896 -1724.14 0.517 -0.0458789 0.7694 38 40 38
-65.0256 -857.924 -1725.19 0.475133 0.10126 0.799534 37 38 37
-49.7286 -680.414 -1723.76 0.703778 -0.0858884 0.696738 42 44 44
-50.4783 -676.461 -1721.76 0.692303 -0.160306 0.700869 42 44 44
-47.0376 -663.485 -1721.93 0.70229 -0.140546 0.693439 42 44 44
-46.9304 -656.446 -1721.64 0.731429 -0.0806582 0.675901 42 44 44
-44.9766 -653.49 -1724.07 0.738534 -0.0493762 0.672118 41 43 43
-43.7643 -637.012 -1724.21 0.7478 0.0232695 0.651732 43 45 45
-87.8329 -634.573 -1723.02 0.954925 -0.0900525 0.135809 36 38 38
-72.3794 -634.604 -1724.87 0.892713 -0.0465528 0.225409 36 38 38
-73.5172 -626.555 -1723.64 0.910755 -0.0640378 0.182203 36 38 38
-85.2253 -612.647 -1721.17 0.966451 -0.0408685 0.202756 34 36 36
-74.3242 -618.043 -1723.09 0.892949 -0.0425213 0.205487 37 39 39
-84.929 -605.763 -1722.92 0.934112 -0.0819093 0.32386 34 36 36
-80.4792 -597.937 -1722.94 0.901011 -0.142797 0.382859 35 37 37
-76.5314 -601.909 -1722.62 0.87566 -0.13144 0.387403 35 38 38
-78.2241 -590.624 -1723.59 0.904603 -0.0812545 0.354822 35 37 37
-72.9149 -590.907 -1724.87 0.820881 -0.0292318 0.53315 35 37 37
-48.0294 -625.411 -1720.69 0.627589 0.126922 0.75014 44 46 46
-49.7656 -618.33 -1719.99 0.528319 0.094104 0.819215 45 47 47
-45.2778 -611.769 -1725.44 0.716939 0.0535308 0.683049 44 46 46
-51.4157 -598.519 -1720.68 0.439077 0.138874 0.843247 46 48 48
-314.577 -38.3386 -1720.2 -0.459625 0.268046 0.839389 62 63 62
-310.245 -25.8525 -1722.93 -0.565643 0.375808 0.735278 61 61 59
-304.074 -21.2197 -1720.26 -0.597628 0.356036 0.716186 60 60 59
-300.756 -15.5837 -1719.13 -0.642482 0.269306 0.71314 60 61 60
-305.264 -2.35629 -1725.64 -0.680885 0.105143 0.711434 58 58 56
-300.152 -1.57384 -1721.54 -0.646562 0.117991 0.744506 58 59 56
-299.906 8.46609 -1722.73 -0.659568 0.156015 0.728464 59 59 58
-298.169 18.989 -1722.17 -0.66121 0.0233384 0.745623 47 47 46
-300.888 26.367 -1724.26 -0.668697 -0.0243702 0.74266 43 43 40
-298.449 32.4761 -1724.33 -0.569205 0.212573 0.767799 104 104 87
-294.425 38.6159 -1725.14 -0.50056 0.372273 0.781347 190 189 154
-115.777 -62.7792 -1719.83 0.622536 0.113354 0.77209 59 59 55
-115.953 -45.4397 -1722.93 0.56085 0.298846 0.759219 62 62 58
-118.5 -35.9617 -1724.38 0.660026 0.217055 0.705644 63 61 58
-126.871 -23.0419 -1719.68 0.566836 0.232499 0.782272 64 61 60
-128.431 -17.4318 -1720.65 0.555795 0.290159 0.771628 63 61 60
-123.096 -20.9444 -1723.25 0.634819 0.255162 0.721132 65 62 60
-130.008 -9.00368 -1722.4 0.601668 0.270774 0.747211 63 60 58
-130.283 0.44712 -1725 0.629935 0.207506 0.747535 60 58 52
-137.882 3.79618 -1719.84 0.561515 0.216632 0.782279 58 56 53
-140.778 15.0945 -1719.38 0.433865 0.159251 0.872954 74 73 63
-172.799 548.554 -1720.59 0.910665 -0.121887 0.35267 147 122 112
-164.487 518.935 -1722.75 0.937789 0.335478 0.104688 213 185 168
-158.185 518.615 -1720.06 0.947624 0.275764 0.166988 222 195 179
-160.981 532.558 -1718.65 0.896733 0.21548 0.24921 204 177 163
-158.693 534.507 -1723.19 0.867941 0.233301 0.290901 200 172 159
-137.557 525.677 -1718.64 0.793277 0.189498 0.514729 193 160 143
-133.442 530.473 -1724.84 0.781417 0.077935 0.628018 162 131 114
-160.74 541.499 -1725.22 0.836002 0.103466 0.382997 162 137 127
-133.011 545.735 -1724.17 0.77572 0.00975906 0.636716 73 54 52
-136.378 556.99 -1720.14 0.6657 0.0648965 0.704522 56 41 43
-132.242 565.085 -1725.11 0.861635 0.0703774 0.499826 41 34 40
-230.19 -928.619 -1717.11 0.716542 0.712269 0.179318 90 61 45
-218.312 -934.536 -1718.21 0.287583 0.81222 0.265942 32 18 13
-239.936 -910.503 -1714.64 0.758287 0.132121 0.648368 48 45 43
-247.455 -885.682 -1713.85 0.556639 0.475818 0.67833 55 53 51
