ply
format ascii 1.0
comment Created by Open3D
element vertex 729
property double x
property double y
property double z
property double nx
property double ny
property double nz
property uchar red
property uchar green
property uchar blue
end_header
-309.34 -599.345 -2121.89 0.308463 0.0390398 -0.944479 52 55 110
-313.392 -590.147 -2122.3 0.290653 0.079151 -0.949861 55 57 117
-322.351 -585.894 -2126.39 0.387625 0.0344848 -0.918573 41 42 92
-317.54 -578.053 -2122.37 0.357458 0.101435 -0.925491 43 42 90
-228.436 -627.513 -2122.82 -0.864356 -0.114712 -0.444637 43 51 123
-239.399 -602.1 -2122.75 -0.62463 -0.30944 -0.712954 64 75 157
-233.052 -607.712 -2126.97 -0.728155 -0.268342 -0.596741 52 57 116
-241.029 -586.881 -2122.68 -0.573801 -0.137062 -0.800906 55 66 147
-72.7445 -1188.94 -2122.49 0.874721 0.373024 -0.132608 182 173 175
-62.4101 -1199.05 -2123.81 0.512368 0.790799 -0.116347 76 70 71
-50.3869 -1203.45 -2123.01 0.139899 0.880846 -0.36763 55 49 50
-39.8246 -1207.33 -2124.16 0.155499 0.847909 -0.433027 75 68 69
-73.7239 -1177.84 -2125.79 0.857723 0.0929188 -0.427314 220 210 210
-70.575 -1169.54 -2122.46 0.874606 -0.043698 -0.477305 228 218 217
-73.4954 -1147.78 -2122.77 0.916859 0.196297 -0.320135 201 196 202
-75.2775 -1138.77 -2123.15 0.882605 0.178858 -0.374089 162 168 189
-52.6531 -1138.71 -2123.53 0.897461 0.0327304 0.059994 145 150 179
-47.992 -1132.48 -2126.23 0.829146 -0.0406395 -0.207235 164 164 178
-167.956 -1012.43 -2123.94 -0.861873 0.32384 -0.37747 143 151 186
-164.654 -997.018 -2122.16 -0.937617 0.21312 -0.275901 100 109 142
-165.766 -982.653 -2127.73 -0.951984 0.0537656 -0.254206 126 134 166
-168.529 -970.413 -2127.18 -0.816562 -0.0671822 -0.458833 64 70 98
-194.637 -955.601 -2122.96 -0.901365 0.0541626 -0.356663 26 29 54
-196.201 -947.216 -2120.13 -0.88584 -0.095346 -0.391633 30 32 61
-199.248 -934.245 -2121.9 -0.852703 -0.127564 -0.49321 35 37 73
-200.377 -917.736 -2120.89 -0.790621 -0.0809587 -0.601138 31 32 64
-177.451 -926.562 -2122.53 -0.909901 -0.138038 -0.382689 57 62 89
-184.893 -909.183 -2121.5 -0.81756 -0.154722 -0.539972 26 28 58
-178.307 -907.671 -2125.42 -0.875826 -0.0721079 -0.432234 31 33 66
-64.049 -1010.53 -2122.89 0.929599 -0.211973 -0.227502 178 181 211
-90.8224 -735.552 -2122 0.993891 0.0183551 -0.0772908 35 36 68
-87.7595 -721.169 -2121.81 0.954071 -0.177019 -0.218169 35 35 64
-64.2025 -736.034 -2126.45 0.810727 0.0983002 -0.441163 38 40 89
-58.2128 -732.541 -2127.56 0.88003 0.0725042 -0.458827 38 41 79
-57.8929 -726.28 -2125.25 0.871831 0.0699878 -0.404595 39 42 87
-86.3161 -707.289 -2122.74 0.962157 0.0402281 -0.209554 40 41 83
-88.7222 -695.33 -2120.75 0.963519 0.210649 -0.07846 45 48 98
-57.7992 -733.33 -2126.84 0.885315 0.0671052 -0.459484 38 41 79
-56.7847 -724.428 -2123.07 0.878458 0.0746585 -0.401186 40 43 87
-92.5092 -486.477 -2121.7 0.702326 0.171809 -0.682127 34 38 91
-94.9157 -469.928 -2127.78 0.679598 -0.19014 -0.690964 34 38 73
-93.2796 -461.895 -2126.59 0.744771 -0.0859102 -0.672397 32 37 69
-79.7642 -477.211 -2126.33 0.529814 0.0207724 -0.730228 46 49 103
-70.1923 -486.55 -2121.57 0.7829 0.0326731 -0.577198 46 48 109
-74.0399 -468.343 -2122.8 0.779248 -0.0379457 -0.551855 48 49 109
-78.451 -463.457 -2125.34 0.685021 0.0044217 -0.617548 48 50 105
-53.5299 -505.904 -2126.23 0.546747 -0.169226 -0.827742 37 40 71
-53.3706 -495.333 -2121.2 0.538597 -0.156607 -0.82698 39 44 73
-54.1816 -481.548 -2124.22 0.496611 0.0555177 -0.81189 39 44 83
-212.279 -452.938 -2121.4 -0.893509 -0.23429 -0.356784 23 32 70
-211.695 -454.026 -2122.26 -0.886662 -0.234864 -0.366224 23 32 69
-214.953 -437.825 -2124.86 -0.763604 -0.13633 -0.58261 33 41 90
-216.368 -421.746 -2126.27 -0.839553 -0.175618 -0.522741 28 34 85
-220.154 -405.806 -2125.41 -0.729411 -0.334216 -0.557987 37 42 90
-334.269 -141.374 -2126.79 -0.578232 0.253346 -0.709711 42 50 90
-334.419 -132.103 -2124.63 -0.586094 0.0573928 -0.782118 42 49 88
-356.218 -102.086 -2123.74 -0.633607 -0.187686 -0.745687 39 43 76
-351.061 -110.79 -2122.01 -0.517996 -0.293136 -0.772012 39 43 78
-355.108 -96.708 -2123.89 -0.630203 -0.144125 -0.754658 40 44 77
-352.882 -90.8211 -2123 -0.575884 -0.108323 -0.791289 42 47 79
-339.453 -88.6394 -2121.49 -0.587664 -0.250876 -0.764271 41 45 81
-337.589 -81.3653 -2122.99 -0.556392 -0.152304 -0.81385 41 45 81
-340.659 138.808 -2126.46 -0.601248 -0.1635 -0.693741 35 39 69
-349.119 151.316 -2124.23 -0.502667 -0.128961 -0.808711 34 40 71
-341.013 223.888 -2121.36 -0.333061 -0.0742293 -0.92206 34 40 72
-339.811 242.064 -2125.79 -0.643181 -0.0716798 -0.667969 39 44 79
-343.268 246.098 -2123.61 -0.574001 -0.229294 -0.749299 39 44 79
-350.19 255.733 -2122.79 -0.418858 0.0690956 -0.863475 47 53 91
-345.823 260.016 -2126.71 -0.469775 -0.0823652 -0.866269 39 43 78
-349.564 266.089 -2123.91 -0.570958 0.0661396 -0.820938 39 43 77
-343.518 276.007 -2127.32 -0.542412 -0.0439922 -0.832 41 47 84
-356.548 291.21 -2123.45 -0.46405 -0.159815 -0.866872 48 54 92
-351.879 286.512 -2125.13 -0.497287 -0.216688 -0.843727 47 51 88
-358.417 300.942 -2121.54 -0.43378 0.105362 -0.88658 47 54 94
-347.852 300.938 -2127.7 -0.481614 0.0706852 -0.859997 48 53 94
-342.506 313.432 -2126.9 -0.319571 0.328886 -0.874613 49 58 102
-339.512 318.449 -2125.65 -0.177899 0.382321 -0.875632 51 61 108
-325.948 209.595 -2126.38 -0.313301 0.0615049 -0.941507 36 41 75
-71.2282 -177.364 -2121.23 0.712113 0.226758 -0.667543 39 45 84
-73.9177 -160.55 -2122.45 0.835332 0.0482849 -0.551993 42 48 85
-103.014 -143.631 -2125.46 0.487313 0.211248 -0.71961 39 44 81
-101.35 -140.077 -2120.39 0.658952 0.146678 -0.55771 39 41 75
-96.8097 -129.963 -2125.3 0.393509 0.466413 -0.800298 43 49 90
-75.797 -149.088 -2127.15 0.690774 0.204244 -0.650985 44 50 87
-71.6211 -140.606 -2121.63 0.74454 0.1071 -0.64914 46 49 85
-74.1218 -138.162 -2122.58 0.590537 0.288701 -0.696325 43 48 85
-112.564 -122.458 -2121.23 0.751712 -0.110176 -0.354935 40 41 74
-97.3369 -125.572 -2121.72 0.397406 0.423614 -0.815068 45 50 90
-110.326 -99.8357 -2127.42 0.688621 -0.175807 -0.585444 39 42 75
-32.4697 111.211 -2126.51 0.495897 -0.0792128 -0.862535 36 41 68
-28.7248 111.484 -2124.09 0.587164 -0.0519656 -0.802816 36 41 68
-29.3393 121.563 -2127.06 0.415867 -0.0310974 -0.893106 35 40 68
-11.7119 125.12 -2123.25 0.619613 -0.0478044 -0.745961 32 38 65
-221.887 249.755 -2126.55 -0.0666132 0.235904 -0.953639 35 43 75
-213.851 252.813 -2126.27 -0.12707 0.316398 -0.923644 33 40 74
-213.995 257.457 -2123.86 -0.0175314 0.279826 -0.947653 32 40 72
-209.773 262.209 -2122.71 -0.0306971 0.232799 -0.954549 31 38 72
-440.074 -1184.26 -2121.69 -0.194277 0.820282 0.00495665 73 71 72
-440.902 -1173.54 -2115.22 -0.55388 0.349964 -0.398369 145 142 146
-448.502 -1174.63 -2114.18 -0.578498 0.327576 -0.407287 147 144 148
-423.055 -1176.03 -2123.88 -0.424166 0.453937 -0.418685 127 124 128
-433.296 -1174.22 -2118.79 -0.494972 0.4301 -0.329277 134 131 134
-409.838 -1174.82 -2124.99 -0.418964 0.500076 -0.421221 128 123 126
-398.811 -1174.26 -2124.7 -0.471764 0.460964 -0.458411 138 133 137
-405.936 -1175.65 -2125.72 -0.400256 0.531329 -0.417738 126 121 123
-412.92 -1164.34 -2121.18 -0.410111 0.619511 -0.0907923 107 101 105
-418.124 -1159.57 -2116.37 -0.481031 0.507059 -0.192144 124 119 123
-396.819 -1169.89 -2121.37 -0.538503 0.357617 -0.495321 144 141 146
-404.05 -1163.67 -2117.83 -0.502751 0.424497 -0.327011 130 125 129
-392.826 -1174.09 -2124.1 -0.52134 0.385746 -0.533344 147 144 149
-374.963 -1175.32 -2126.39 -0.48753 0.244406 -0.701772 129 127 137
-379.078 -1164.98 -2119.07 -0.608394 0.164542 -0.629141 142 143 161
-388.029 -1164.46 -2117.43 -0.616985 0.185635 -0.591642 145 146 163
-366.595 -1167.23 -2122.26 -0.508216 0.0825821 -0.783269 114 115 131
-371.8 -1173.39 -2125.54 -0.486332 0.170502 -0.753927 120 119 131
-377.153 -1165.86 -2119.9 -0.58918 0.153118 -0.656591 137 138 155
-354.782 -1168.75 -2122.18 -0.421911 0.0443199 -0.882053 92 92 106
-352.776 -1172.07 -2125.44 -0.407306 0.0486097 -0.897424 89 88 102
-374.813 -1158.22 -2115.36 -0.646495 0.0806035 -0.640392 139 142 165
-361.872 -1155.51 -2115.54 -0.507979 0.0568223 -0.781701 116 117 134
-433.248 -1151.65 -2107 -0.206842 0.142269 -0.222075 76 70 71
-409.19 -1150.41 -2110.32 -0.332622 0.0787853 -0.407107 138 133 137
-396.545 -1156.68 -2108.56 -0.626182 0.060398 -0.642013 169 167 176
-412.011 -1140.29 -2110.97 -0.48715 0.00729788 -0.722812 178 176 182
-389.122 -1158.87 -2112.93 -0.663075 0.0878785 -0.62485 151 153 172
-338.065 -1183.99 -2111.51 -0.24493 0.230326 -0.925762 73 71 76
-339.948 -1176.86 -2112.1 -0.307686 0.156614 -0.909517 80 78 87
-357.382 -1159.81 -2108.61 -0.364805 0.0070109 -0.924279 88 87 98
-392.506 -1152.99 -2106.64 -0.628078 0.0656969 -0.653342 173 172 184
-382.38 -1149.95 -2108.94 -0.669808 0.0777046 -0.620257 145 149 172
-374.798 -1150.91 -2111.79 -0.689037 0.08413 -0.597998 146 150 174
-373.999 -1141.76 -2108.62 -0.670166 0.0853024 -0.613274 144 147 171
-368.586 -1137.12 -2107.38 -0.639255 0.0913675 -0.631639 141 144 166
-361.59 -1149.14 -2112.78 -0.501189 0.0701236 -0.776713 119 119 137
-333.176 -1196.39 -2113.13 -0.294534 0.21254 -0.894237 66 62 62
-281.474 -683.325 -2112.03 0.568958 0.0850366 -0.803061 55 60 142
-286.106 -638.847 -2112.6 0.652767 0.198163 -0.715646 42 44 104
-282.641 -628.184 -2106.46 0.598781 0.125482 -0.770999 43 45 96
-279.98 -673.517 -2110.54 0.659183 0.0360891 -0.744032 43 48 116
-280.165 -657.538 -2111.85 0.592674 0.0294068 -0.787826 46 49 119
-233.283 -677.043 -2106.63 -0.516577 -0.193346 -0.834971 66 71 158
-234.479 -662.211 -2112.31 -0.571426 -0.0946592 -0.806324 41 49 115
-279.105 -644.611 -2107.75 0.669885 0.209533 -0.717744 41 43 94
-233.837 -654.813 -2113.66 -0.546668 -0.0308153 -0.839527 33 41 102
-208.046 -1149.89 -2109.68 -0.907759 0.066756 -0.363544 110 103 138
-208.403 -1138.64 -2110.39 -0.945934 -0.128463 -0.27636 108 112 155
-63.5805 -1195.09 -2107.61 0.472472 0.699502 -0.333852 148 138 139
-31.4658 -1202.88 -2111.69 0.207713 0.801361 -0.425501 89 81 83
-47.7289 -1198.24 -2108.26 0.162942 0.882139 -0.349333 92 83 85
-20.1947 -1208.56 -2113.31 0.311325 0.724321 -0.206364 108 101 101
-22.1747 -1203.75 -2108.08 0.316155 0.71657 -0.209535 110 103 103
-65.6449 -1172.84 -2107.77 0.981224 0.0369932 -0.188639 222 206 197
-62.7515 -938.844 -2111.26 0.85559 0.277636 -0.404566 51 52 90
-62.6627 -934.184 -2109 0.867932 0.257998 -0.380261 44 45 88
-62.3959 -918.078 -2106.84 0.910754 0.0519249 -0.407059 40 41 85
-57.3035 -962.509 -2108.09 0.875072 0.0345541 -0.419026 151 155 181
-216.566 -896.606 -2108.41 -0.646948 -0.0770581 -0.756445 44 48 92
-198.342 -897.228 -2107.25 -0.733174 -0.140768 -0.64494 38 42 81
-215.334 -885.814 -2110.16 -0.757734 -0.0952671 -0.641332 42 45 85
-193.254 -907.648 -2112.35 -0.820488 -0.146291 -0.534242 32 35 65
-180.977 -905.301 -2107.03 -0.922251 -0.0228212 -0.383378 33 33 59
-194.126 -889.71 -2113.32 -0.825306 -0.144923 -0.51388 31 33 65
-181.684 -890.469 -2106.33 -0.912445 -0.0543851 -0.396714 30 30 56
-215.31 -876.65 -2111.98 -0.777011 -0.128816 -0.611529 39 42 84
-216.34 -870.31 -2112.86 -0.761706 -0.153288 -0.625848 37 39 81
-219.975 -863.497 -2110.73 -0.677937 -0.15216 -0.714529 40 42 88
-220.599 -856.829 -2112.33 -0.694292 -0.146295 -0.713091 38 40 85
-200.726 -853.313 -2112.05 -0.753562 -0.103165 -0.635149 36 39 77
-196.351 -872.54 -2113.82 -0.795391 -0.114811 -0.570972 35 37 68
-188.9 -864.324 -2107.82 -0.856065 -0.171148 -0.487788 43 44 73
-57.4858 -530.804 -2113.12 0.737806 0.0380401 -0.634892 35 38 72
-89.0376 -506.198 -2112.25 0.841054 -0.247337 -0.480397 44 47 98
-83.4464 -499.78 -2107.48 0.758612 -0.172461 -0.601649 46 49 98
-85.6589 -478.851 -2109.89 0.844128 0.0286072 -0.52869 45 46 105
-85.5728 -472.597 -2110.82 0.842168 -0.0484546 -0.522229 45 46 106
-214.894 -457.017 -2107.33 -0.914076 -0.244642 -0.354641 19 27 65
-217.715 -444.032 -2109.98 -0.909511 -0.30198 -0.365968 17 24 64
-223.159 -426.129 -2107.79 -0.545442 -0.269987 -0.659767 22 26 66
-225.1 -414.827 -2110.01 -0.176623 -0.332698 -0.724538 24 27 63
-87.501 -444.175 -2112.28 0.86488 0.0789121 -0.448543 43 45 98
-83.9091 -460.304 -2106.35 0.900377 0.115041 -0.314752 45 46 103
-360.643 -8.60982 -2112.26 -0.614983 -0.011724 -0.77616 39 45 78
-361.001 5.67697 -2111.94 -0.668736 -0.0804984 -0.750665 41 48 81
-366.207 17.9043 -2111.02 -0.585616 -0.196995 -0.790126 39 46 78
-370.432 22.3573 -2109.19 -0.537497 -0.164496 -0.830688 39 46 79
-373.836 36.49 -2107.39 -0.584646 0.0103527 -0.795977 41 47 79
-362.661 16.1907 -2113.33 -0.620666 -0.178643 -0.75976 38 45 77
-372.917 52.0758 -2107.32 -0.625492 0.0235254 -0.777667 39 45 78
-366.847 57.8615 -2112.21 -0.596156 -0.139413 -0.775827 35 41 72
-370.871 65.2533 -2111.01 -0.615661 -0.237945 -0.74996 35 41 72
-371.586 70.8432 -2112.22 -0.620318 -0.238425 -0.744445 35 41 72
-244.432 318.137 -2113.61 0.154892 0.342281 -0.832774 40 47 84
-227.934 307.402 -2112.57 0.261497 0.415575 -0.832243 37 46 78
-225.813 313.649 -2108.6 0.282815 0.376834 -0.865745 36 45 77
-388.554 323.25 -2109.04 -0.0366975 -0.0580179 -1.00364 44 51 91
-386.202 328.994 -2108.12 -0.0614217 -0.0699853 -1.00924 44 51 91
-373.208 326.187 -2109.99 -0.142051 0.0781638 -0.977534 46 53 93
-369.817 330.017 -2108.21 -0.124928 0.152978 -0.969277 46 52 93
-355.181 325.511 -2111.57 -0.277554 0.458358 -0.821665 43 48 87
-353.017 328.406 -2110.48 -0.280236 0.473305 -0.814411 42 47 87
-244.631 326.515 -2112.27 0.128824 0.221214 -0.908872 40 47 83
-235.085 325.129 -2108.17 0.301214 0.245349 -0.916717 38 46 80
-234.433 328.879 -2107.55 0.325477 0.219524 -0.911335 38 47 80
-20.2119 89.3891 -2110.28 0.693501 -0.237036 -0.685721 33 38 64
-20.2671 94.8056 -2111.72 0.710842 -0.141192 -0.684574 32 38 64
-16.8598 106.552 -2109.57 0.679054 -0.0454786 -0.722794 32 38 64
-12.9553 112.768 -2108.94 0.66134 -0.0108135 -0.744038 32 38 64
-209.634 292.276 -2112.89 -0.131782 0.310255 -0.836957 30 38 72
-219.338 300.369 -2111.54 0.363616 0.34571 -0.843439 30 39 71
-207.678 293.373 -2112.95 -0.283407 0.265591 -0.805931 31 39 73
-221.167 309.705 -2108.5 0.322112 0.359005 -0.859361 32 41 73
-206.959 308.294 -2108.38 -0.210315 0.278725 -0.858312 28 37 71
-202.375 315.435 -2109.99 -0.572303 0.248238 -0.705254 31 39 75
-378.062 -966.997 -2100.8 -0.92148 0.0274671 -0.383008 106 111 143
-378.017 -956.278 -2099.89 -0.915722 0.0701918 -0.395375 93 98 138
-374.686 -937.092 -2105.79 -0.905848 0.0655046 -0.427357 57 61 100
-374.978 -922.981 -2101.33 -0.936388 0.0532298 -0.359243 39 42 80
-374.912 -913.853 -2101.54 -0.934633 0.0161648 -0.361185 41 42 80
-273.563 -1007.43 -2105.06 0.877428 0.0961981 -0.467304 143 145 179
-271.236 -993.191 -2100.96 0.868766 0.0274123 -0.487415 124 126 161
-276.911 -977.38 -2107.13 0.832336 0.180597 -0.519954 112 115 151
-270.995 -977.53 -2099.66 0.817558 0.147309 -0.551358 123 126 161
-377.773 -859.59 -2103.71 -0.865791 -0.0050783 -0.476439 38 39 72
-378.53 -848.422 -2101.98 -0.835679 -0.0240495 -0.534976 39 41 78
-379.665 -827.871 -2102.14 -0.858707 -0.0520418 -0.481218 44 47 93
-380.348 -823.185 -2100.58 -0.891474 -0.0483881 -0.409257 42 46 95
-380.819 -808.018 -2100.74 -0.932123 -0.00792083 -0.349319 45 53 114
-271.67 -905.442 -2105.59 0.797463 -0.117064 -0.579284 32 31 60
-267.216 -900.365 -2099.78 0.771533 -0.0486126 -0.646695 29 27 56
-266.734 -889.959 -2099.82 0.788293 0.0217483 -0.589693 32 30 62
-271.503 -868.038 -2103.79 0.906147 0.0370802 -0.420656 39 39 86
-269.713 -857.173 -2103.49 0.858459 -0.161587 -0.467538 38 39 79
-231.129 -867.237 -2099.93 -0.371694 -0.018852 -0.837191 43 48 98
-374.279 -562.116 -2104.38 -0.781243 -0.0438481 -0.612945 68 86 182
-377.4 -548.146 -2103.69 -0.800538 -0.190314 -0.563859 52 68 157
-379.905 -537.753 -2103.64 -0.798383 -0.172802 -0.571971 54 69 149
-381.761 -526.016 -2101.22 -0.791987 0.0477421 -0.596593 47 55 110
-379.146 -510.197 -2102.21 -0.817701 0.110509 -0.572131 48 53 95
-379.287 -499.408 -2100.66 -0.832618 0.119611 -0.556899 35 39 69
-377.614 -493.569 -2101.92 -0.773439 0.0677634 -0.622324 34 38 70
-197.068 -1078.25 -2100.26 0.101269 0.316324 -0.276954 95 101 131
-181.806 -1078.45 -2106.37 -0.0558548 0.252319 -0.259363 90 97 126
-168.67 -1118.82 -2101.57 0.515642 0.560871 -0.569635 75 77 112
-144.828 -1128.33 -2101.44 0.550607 0.374118 -0.636868 104 106 135
-147.604 -1119.09 -2103.94 0.452535 0.477171 -0.696097 81 84 116
-198.702 -1065.03 -2106.39 -0.746777 0.269221 -0.417128 101 107 139
-188.971 -1074.99 -2103.15 -0.189799 0.246888 -0.218021 89 96 125
-180.776 -1070.09 -2102.86 -0.496125 0.193047 -0.434572 96 103 135
-173.77 -1071.59 -2104.9 -0.514999 0.186966 -0.47331 97 105 138
-174.453 -1065.34 -2102.53 -0.602227 0.172599 -0.499911 99 106 141
-197.36 -1044.46 -2100.92 -0.759685 0.0673001 -0.416868 87 93 129
-192.719 -1031.7 -2103.29 -0.654485 0.481439 -0.490654 153 161 197
-66.218 -1127.51 -2099.73 0.905018 -0.247086 0.0124376 185 187 211
-58.4464 -1110.62 -2102.24 0.786558 -0.188621 0.153665 147 155 190
-58.8819 -1084.01 -2105.48 0.81267 -0.0201868 -0.02002 140 148 180
-86.0501 -787.604 -2101.65 0.932683 -0.186808 -0.271873 36 37 64
-85.0207 -781.432 -2105.65 0.960264 -0.204035 -0.195389 33 35 52
-86.9413 -743.227 -2104.85 0.913362 0.0688719 -0.362615 40 42 95
-84.5892 -758.303 -2104.54 0.906532 0.181291 -0.363597 45 46 93
-86.0374 -730.84 -2106.55 0.896738 -0.136337 -0.411685 36 37 84
-84.8137 -720.357 -2099.8 0.957448 0.115357 -0.108895 52 55 129
-59.6542 -713.496 -2105.95 0.91639 0.0864279 -0.253962 48 52 116
-85.9549 -614.501 -2103.32 0.897389 0.0736988 -0.405243 32 35 62
-85.3519 -624.943 -2104.65 0.868483 -0.0217467 -0.482443 33 37 63
-87.6099 -574.156 -2106.84 0.75658 0.188714 -0.583249 65 68 132
-82.7413 -592.328 -2103.26 0.928391 -0.109016 -0.293181 39 42 93
-82.778 -576.975 -2101.83 0.816194 0.142722 -0.495959 57 62 129
-202.887 -562.941 -2104.95 -0.86442 -0.13999 -0.477115 59 74 164
-207.814 -546.666 -2102.42 -0.917477 -0.168113 -0.35408 64 78 166
-390.482 -224.71 -2099.61 -0.854865 0.351061 -0.365894 48 53 101
-383.905 -214.448 -2103.44 -0.830133 0.353741 -0.391693 43 48 96
-380.956 -203.101 -2102.57 -0.75915 0.294556 -0.538413 47 52 99
-373.368 -189.597 -2104.36 -0.724403 0.194772 -0.637014 41 46 93
-371.27 -187.203 -2106.48 -0.774228 0.089501 -0.607174 37 41 87
-373.429 -171.262 -2101.82 -0.765227 0.199252 -0.580492 43 48 93
-365.889 -159.575 -2102.86 -0.683324 0.433001 -0.586004 59 64 107
-372.958 -134.531 -2101.72 -0.686632 -0.297307 -0.606068 38 43 82
-374.199 -127.266 -2103.15 -0.786742 -0.1165 -0.59304 36 41 79
-361.81 -147.269 -2101.71 -0.607339 0.0824973 -0.689989 37 44 85
-82.4852 -349.029 -2105.63 0.826217 -0.106466 -0.54924 103 109 146
-76.733 -342.103 -2099.86 0.821421 -0.102967 -0.549615 54 60 95
-81.449 -328.021 -2106.41 0.805811 0.114671 -0.54839 44 48 85
-83.398 -315.508 -2103.59 0.756044 0.212768 -0.593267 42 46 83
-83.5716 -304.302 -2102.32 0.701339 0.131784 -0.69583 43 48 84
-87.9509 -289.61 -2104.62 0.707847 0.0667543 -0.702751 45 49 85
-86.1228 -275.924 -2102.1 0.767674 0.000505771 -0.643092 43 47 82
-84.6722 -273.963 -2100.18 0.77882 -0.0103524 -0.626936 42 46 81
-86.0889 -253.6 -2103.12 0.776414 -0.00918728 -0.640506 43 46 81
-84.5608 -261.51 -2101 0.771595 -0.0266618 -0.642532 43 47 82
-141.085 -1110.17 -2100.29 0.431533 0.408329 -0.698803 102 106 139
-147.895 -1115.5 -2104.22 0.444123 0.473549 -0.692652 75 78 111
-148.984 -1107.71 -2105.2 0.45677 0.451998 -0.689384 74 77 110
-145.635 -1096.88 -2103.17 0.421769 0.326749 -0.665886 98 102 135
-155.778 -1101 -2108.4 0.476235 0.410547 -0.690471 85 88 122
-150.623 -1090.49 -2105.12 0.39553 0.269939 -0.660592 109 114 147
-161.632 -1078.67 -2106.13 0.0417429 0.205011 -0.622345 108 115 147
-163.745 -1078.41 -2106.44 -0.0263832 0.204923 -0.60236 106 113 145
-145.174 -1084.98 -2102.18 0.389302 0.249196 -0.659326 113 118 150
-154.164 -1082.5 -2105.15 0.274958 0.233345 -0.658778 112 117 150
-162.435 -1068.09 -2103.51 -0.189618 0.166095 -0.60389 107 114 148
-167.931 -1073.94 -2106.04 -0.37512 0.191427 -0.517748 101 108 141
-146.22 -1070.9 -2100.84 0.366575 0.144883 -0.807887 117 123 156
-151.703 -1069.31 -2101.97 0.246349 0.154359 -0.753888 115 121 155
-160.581 -1059.07 -2101.03 0.0545088 0.147462 -0.740706 112 118 153
-149.21 -1057.45 -2099.87 0.412723 0.11908 -0.84703 119 125 159
-112.296 314.169 -2103.53 0.527757 0.406039 0.0868655 56 59 94
-105.116 319.617 -2101.36 0.27612 0.35229 -0.431161 59 64 106
16.4824 114.679 -2103.89 0.555029 0.0380349 -0.81853 26 30 56
12.911 119.32 -2107.69 0.554559 0.0679416 -0.830443 26 31 57
-261.234 -1046.85 -2094.57 0.80725 0.272532 -0.509392 150 156 176
-265.898 -1027.31 -2095.09 0.871973 0.151024 -0.456606 130 134 158
-385.708 -1016.69 -2097.09 -0.71011 0.307496 -0.618929 140 148 180
-381.14 -1000.94 -2093.03 -0.860266 0.229478 -0.437005 158 165 199
-379.447 -984.092 -2094.7 -0.930839 0.0332172 -0.355246 179 186 216
-380.332 -972.43 -2092.76 -0.95676 0.0184839 -0.321495 169 177 210
-239.987 -874.209 -2094.64 -0.322446 0.0772409 -0.809727 41 44 84
-235.521 -868.898 -2097.65 -0.341841 0.031394 -0.822897 42 46 91
-240.76 -860.768 -2094.97 -0.338918 0.104783 -0.8595 34 37 68
-238.204 -858.011 -2095.28 -0.38313 0.0671418 -0.848685 34 38 79
-261.021 -848.496 -2095.66 0.644906 -0.070597 -0.717903 22 22 40
-260.889 -832.543 -2096.66 0.795537 0.116919 -0.618491 26 27 59
-259.645 -825.084 -2093.59 0.821614 0.149608 -0.562335 31 34 78
-227.896 -841.85 -2095.1 0.0793084 0.140195 -0.757262 52 55 86
-260.648 -810.696 -2092.68 0.909101 0.0978474 -0.388672 32 34 69
-264.028 -809.486 -2097.73 0.804252 0.119898 -0.52484 28 31 61
-266.591 -609.889 -2098.03 0.657327 -0.20947 -0.716706 26 28 58
-264.325 -607.108 -2096 0.712788 -0.190116 -0.668033 27 29 61
-262.279 -587.088 -2094.34 0.736401 0.0111461 -0.629673 51 55 117
-264.801 -579.973 -2098.95 0.49109 -0.0712723 -0.719372 44 49 110
-381.891 -559.788 -2092.85 -0.769315 -0.0299555 -0.617255 41 49 126
-380.306 -554.558 -2096.92 -0.768457 -0.145401 -0.606847 47 58 138
-387.073 -540.725 -2093.77 -0.800237 -0.176978 -0.558033 42 49 110
-383.824 -532.984 -2098.77 -0.777974 -0.0702865 -0.612884 49 58 119
-384.599 -520.534 -2096.48 -0.783116 0.116527 -0.6162 45 50 105
-216.398 -969.157 -2098.69 -0.658429 0.0669015 -0.708051 95 101 133
-206.229 -968.446 -2096.61 -0.71816 0.124022 -0.610707 116 123 155
-170.754 -991.084 -2097.51 -0.662778 0.360959 -0.639558 130 140 178
-170.397 -975.866 -2097.4 -0.816638 0.123832 -0.53115 108 115 145
-168.512 -987.298 -2099.98 -0.767582 0.240655 -0.554119 130 140 174
-211.9 -959.702 -2096.83 -0.687707 0.0843343 -0.642703 88 93 127
-211.594 -956.693 -2097.46 -0.660592 0.0738324 -0.671833 78 82 116
-202.958 -946.895 -2099.58 -0.712495 -0.0312741 -0.64743 46 49 80
-174.835 -962.483 -2093.7 -0.86565 -0.0876468 -0.459174 124 133 166
-181.031 -945.358 -2092.25 -0.883283 -0.206087 -0.417854 117 126 165
-212.592 -928.564 -2098.19 -0.677926 -0.106193 -0.671253 49 52 84
-210.47 -924.462 -2096.87 -0.748763 -0.107048 -0.59086 53 56 88
-219.988 -910.851 -2098.45 -0.656276 -0.124703 -0.71227 41 44 82
-207.485 -919.17 -2097.26 -0.772634 -0.126557 -0.572329 49 52 83
-183.722 -922.059 -2099.37 -0.924477 -0.0815824 -0.370222 99 108 143
-185.283 -919.06 -2093.56 -0.922828 -0.071545 -0.369145 90 98 133
-60.3486 -1007.54 -2092.99 0.933615 0.319465 0.0217775 91 96 122
-58.4751 -994.217 -2093.7 0.976554 -0.175609 0.0987517 66 69 113
-200.023 -682.805 -2096.7 -0.82829 -0.0609202 -0.480044 50 60 133
-198.436 -668.01 -2093.99 -0.939033 0.0565259 -0.318563 48 60 134
-195.32 -661.188 -2099.12 -0.895199 0.0792103 -0.415983 44 53 126
-200.289 -642.821 -2093.95 -0.88055 -0.0585029 -0.4405 48 59 135
-197.583 -651.457 -2097.75 -0.880401 -0.0503676 -0.446182 42 52 125
-199.678 -618.656 -2098.39 -0.848373 -0.132344 -0.491296 41 50 128
-204.232 -603.763 -2096.3 -0.929174 -0.0986984 -0.353936 51 65 149
-205.21 -587.42 -2093.54 -0.957107 -0.0409144 -0.276198 48 60 148
-205.321 -575.59 -2094.77 -0.954598 -0.0727267 -0.319114 38 51 140
-79.3841 -356.172 -2098.15 0.824878 0.002838 -0.554984 171 178 214
-397.95 -343.03 -2095.69 -0.855896 -0.3161 -0.370406 132 141 201
-403.445 -330.437 -2093.84 -0.926487 -0.235761 -0.224356 103 112 167
-403.032 -314.005 -2096.5 -0.948918 0.118625 -0.264529 43 49 98
-400.132 -301.181 -2096.8 -0.922905 0.146205 -0.352576 42 48 96
-401.623 -288.704 -2094.39 -0.908248 -0.00261899 -0.41076 41 46 93
-399.814 -277.762 -2096.96 -0.894839 0.0626136 -0.441655 46 52 98
-399.683 -265.337 -2093.61 -0.925113 0.0786772 -0.364169 43 49 94
-399.975 -249.73 -2094.87 -0.930831 0.0129804 -0.348962 41 45 92
-397.292 -238.661 -2096.05 -0.910442 0.214667 -0.32009 49 53 102
-261.175 -1037.63 -2089.4 0.861114 0.210287 -0.452314 138 143 167
-262.718 -1026.24 -2086.75 0.901057 0.157466 -0.396531 122 127 150
-387.41 -1010.51 -2088.2 -0.751276 0.442499 -0.474394 149 158 191
-381.652 -1000.53 -2091.06 -0.863007 0.246801 -0.418179 161 168 202
-379.801 -988.598 -2091.98 -0.936448 0.0876806 -0.342023 185 193 224
-380.357 -970.882 -2086.54 -0.973237 0.0409497 -0.230668 167 175 211
-267.253 -931.111 -2091.06 0.754812 -0.13566 -0.633419 45 48 72
-260.352 -915.891 -2090.18 0.652344 -0.238836 -0.700671 35 36 58
-259.216 -908.558 -2091.7 0.483652 -0.0998562 -0.806934 42 41 61
-377.124 -902.928 -2090.74 -0.935221 -0.0359775 -0.325984 38 39 77
-378.206 -891.831 -2089.05 -0.949333 -0.0532528 -0.238164 36 37 73
-380.467 -869.459 -2087.94 -0.989687 -0.0805851 -0.0893419 33 34 67
-381.264 -854.47 -2087.38 -0.97641 -0.00110452 -0.172356 31 33 63
-381.397 -844.557 -2087.83 -0.966747 -0.0103347 -0.214554 30 34 67
-382.175 -828.413 -2090.22 -0.951506 -0.0685122 -0.253441 37 41 84
-384.338 -812.211 -2086.11 -0.938464 -0.0662329 -0.31817 42 49 107
-383.492 -801.659 -2090.94 -0.935632 -0.0194056 -0.339299 54 63 133
-261.602 -657.144 -2087.77 0.867566 0.0440061 -0.498681 23 24 60
-262.928 -646.326 -2089.09 0.83615 0.0987795 -0.532758 24 25 60
-263.279 -640.143 -2088.55 0.807095 0.111775 -0.56943 23 25 59
-263.213 -624.88 -2088.88 0.740748 -0.0792949 -0.665567 24 25 61
-219.973 -1128.4 -2091.04 -0.366021 0.224594 -0.456112 113 116 147
-218.786 -1111.49 -2086.34 -0.293726 0.219709 -0.46804 110 116 150
-222.407 -1096.53 -2092.43 -0.00299749 0.233376 -0.614136 103 110 142
-222.863 -1084.64 -2091.31 0.224448 0.262837 -0.650894 98 105 133
-175.79 -1094.21 -2091.98 0.449884 0.213856 -0.867128 107 114 150
-179.208 -1085.93 -2091.82 0.423023 0.222559 -0.887958 105 112 147
-178.365 -1081.65 -2090.34 0.414708 0.236699 -0.883844 118 124 159
-158.363 -1117.4 -2088.93 0.602076 0.443458 -0.664883 81 84 115
-155.665 -1118.02 -2086.26 0.602629 0.45138 -0.65742 81 84 115
-159.399 -1116.24 -2089.1 0.606422 0.432579 -0.667866 83 85 116
-129.609 -1126.21 -2091.11 0.53266 0.320203 -0.736421 171 176 205
-167.65 -1099.75 -2088.1 0.573884 0.257168 -0.765351 97 101 135
-219.353 -1064.51 -2086.06 0.278705 0.318048 -0.693416 110 114 141
-211.102 -1063.7 -2090.17 0.569125 0.267958 -0.609114 114 117 143
-197.959 -1065.17 -2087.07 0.400268 0.41267 -0.803523 137 143 176
-69.1317 -465.346 -2086.96 0.880265 0.165626 -0.315904 51 54 104
-222.446 -452.679 -2090.22 -0.349764 -0.462541 -0.681062 16 20 57
-74.4454 -452.602 -2090.31 0.693 0.270873 -0.646504 37 40 72
-76.5514 -444.888 -2089.81 0.699174 0.141349 -0.673089 34 37 63
-72.286 -428.096 -2087.78 0.897815 -0.076001 -0.398094 38 38 68
-73.9014 -414.994 -2090.93 0.928742 0.0472852 -0.348288 62 63 105
-73.9732 -404.751 -2087.56 0.958003 0.0592611 -0.259335 62 63 115
-74.6118 -388.645 -2087.89 0.932764 0.0316178 -0.326757 69 71 139
-73.8215 -372.323 -2090.9 0.877277 -0.0357837 -0.430095 132 137 194
-89.0586 -225.303 -2088.71 0.862674 0.365508 -0.328714 40 43 78
-93.4077 -215.247 -2090.04 0.921199 0.213582 -0.303491 41 44 78
-93.9259 -206.844 -2088.28 0.953679 0.121003 -0.256092 39 42 76
-94.553 -193.909 -2087.35 0.98203 0.016589 -0.0692347 38 40 74
-101.003 -171.037 -2090.63 0.749693 0.487566 -0.411635 38 38 71
-106.821 -161.712 -2088.25 0.903625 0.215581 -0.333372 45 45 76
-72.646 -170.901 -2092.62 0.818106 0.16114 -0.381608 44 46 79
-67.2083 -170.138 -2088.67 0.822695 0.160343 -0.365982 44 46 79
-69.6278 -167.587 -2088.74 0.819971 0.160129 -0.36131 44 46 78
-107.837 -148.442 -2090.5 0.951519 -0.0173679 -0.311465 66 66 96
-107.389 -132.629 -2086.47 0.974173 -0.0597443 -0.117719 27 28 56
-68.7176 -150.293 -2086.61 0.798869 0.175595 -0.400341 44 46 79
-60.859 -143.036 -2088.22 0.892602 0.109383 -0.287476 43 47 79
-59.7219 -136.768 -2092.09 0.887432 0.0632581 -0.340333 43 47 79
-56.5382 -181.382 -2092.7 0.655993 0.271346 -0.500107 43 47 81
-56.2664 -156.187 -2088.3 0.852339 0.147115 -0.372646 44 48 80
-233.883 -1135.58 -2084.48 0.316165 0.212003 -0.588369 107 103 127
-431.206 -1125.31 -2083.54 -0.863407 0.0781009 -0.48159 148 151 156
-431.237 -1111.14 -2080.51 -0.913927 0.117435 -0.350627 172 174 185
-405.878 -1124.94 -2082.25 -0.806195 0.0709547 -0.514273 182 185 206
-404.192 -1111.18 -2081.09 -0.800193 0.0829016 -0.522543 181 184 204
-400.114 -1103.37 -2085.04 -0.800574 0.0958462 -0.520137 180 183 203
-427.876 -1092.68 -2084.37 -0.949814 0.184477 -0.244427 164 169 200
-423.966 -1080 -2083.97 -0.920778 0.297774 -0.2289 165 173 205
-402.267 -1091.05 -2079.01 -0.801562 0.087427 -0.505265 180 183 203
-393.512 -1087.81 -2085.46 -0.779297 0.0284978 -0.50996 181 184 207
-382.386 -1127.95 -2083.71 -0.781843 0.23425 -0.490911 115 123 169
-380.929 -1111.07 -2079.26 -0.836157 0.0987246 -0.434736 131 136 174
-381.833 -1101.66 -2081.36 -0.847148 0.0115085 -0.394445 154 159 193
-386.234 -1094.26 -2081.06 -0.878991 -0.149148 -0.352036 184 188 213
-388.547 -566.148 -2084.65 -0.759535 0.0359626 -0.642134 49 58 131
-389.322 -553.971 -2084.28 -0.803371 -0.0690401 -0.568165 38 46 99
-390.978 -545.134 -2083.46 -0.866916 -0.207392 -0.416504 32 40 86
-396.918 -493.602 -2083.91 -0.72271 -0.626466 -0.27271 56 61 134
-402.411 -482.367 -2082.83 -0.84603 -0.221755 -0.1608 48 53 125
-403.945 -466.23 -2083.65 -0.884807 -0.0340543 -0.415797 52 56 137
-392.142 -503.357 -2079.25 -0.823142 0.123618 -0.460474 44 49 103
-252.25 -564.189 -2085.07 0.835287 -0.0864019 -0.523343 23 26 64
-251.453 -555.72 -2085.06 0.807351 -0.059569 -0.550771 34 37 82
-185.527 -989.096 -2081.71 -0.734061 0.427139 -0.541891 113 125 171
-178.972 -976.747 -2082.71 -0.72001 0.238601 -0.643529 129 140 178
-166.888 -1013.05 -2082.11 -0.558549 0.213866 -0.53515 112 120 154
-167.013 -1007.42 -2080.1 -0.623677 0.230673 -0.533237 117 126 161
-162.739 -999.11 -2079.09 -0.860319 0.102593 -0.376269 96 104 136
-158.183 -994.6 -2079.83 -0.871343 0.107098 -0.380305 97 105 136
-180 -959.686 -2083.79 -0.850902 -0.126764 -0.503144 122 133 172
-185.238 -939.792 -2083.05 -0.91295 -0.154955 -0.409972 128 140 181
-187.481 -928.99 -2082.34 -0.923944 -0.118138 -0.385446 119 131 171
-187.993 -914.854 -2082.83 -0.931332 -0.0665707 -0.38611 65 71 106
-60.1655 -1008.03 -2084.78 0.905541 0.329563 0.0432445 125 131 157
-57.2245 -1016.52 -2085.06 0.863507 0.537652 0.0302828 165 171 197
-75.6703 -614.981 -2081.9 0.946165 -0.116265 -0.283795 33 36 67
-74.1454 -604.711 -2080.19 0.92474 -0.0742701 -0.324982 40 43 90
-75.5021 -589.205 -2083.56 0.946987 -0.00675772 -0.260939 58 66 151
-75.7371 -576.86 -2084.43 0.978429 -0.02163 -0.159318 57 67 151
-210.099 -558.768 -2080.91 -0.944243 -0.0609265 -0.330615 44 58 138
-211.284 -547.101 -2080.32 -0.961582 -0.0750068 -0.264595 36 49 122
-211.143 -539.872 -2085.29 -0.965647 -0.104275 -0.230791 38 53 128
-213.629 -518.938 -2078.47 -0.990151 -0.0686832 -0.174106 17 29 81
-213.955 -502.535 -2082.93 -0.949558 -0.160744 -0.259907 24 33 79
-220.2 -483.259 -2077.49 -0.518929 -0.299644 -0.616161 16 21 58
-218.351 -481.222 -2082.97 -0.834035 -0.234897 -0.4849 19 26 64
-225.656 -462.206 -2083.4 0.0156981 -0.379094 -0.713945 15 18 54
-75.0123 -567.202 -2084.34 0.981035 -0.0673081 -0.170029 47 53 128
-73.6165 -549.251 -2082.41 0.971795 -0.0625381 -0.176871 48 51 123
-420.055 82.8797 -2081.85 -0.551034 -0.0579715 -0.501631 37 42 75
-420.491 101.535 -2084.3 -0.0941202 -0.157229 -0.679607 40 46 80
-419.122 298.478 -2081.82 -0.592077 0.311329 -0.774295 52 67 119
-411.424 299.639 -2084.71 -0.627433 0.308976 -0.705596 60 73 123
-409.785 313.8 -2079.87 -0.665076 0.362404 -0.622458 78 92 139
-403.441 318.033 -2085.35 -0.523582 0.453213 -0.592875 96 104 147
189.809 179.857 -2079.91 0.192028 0.0845026 0.9392 211 167 133
200.505 180.196 -2078.89 -0.240139 -0.0697761 0.957797 200 153 117
-172.233 335.755 -2079.74 0.88625 0.479512 0.167665 168 117 90
-175.622 343.366 -2082.75 0.802669 0.43548 0.10893 156 107 84
-185.335 356.67 -2083.13 0.154816 0.378547 -0.354735 90 74 83
-186.457 375.875 -2078.7 0.162267 0.325595 -0.463154 86 78 104
-158.962 324.985 -2084.6 0.72391 0.533128 0.413458 159 122 103
-168.347 335.263 -2085.46 0.7968 0.477397 0.214156 161 117 95
-435.387 -1130.35 -2076.86 -0.892237 0.231879 -0.356738 133 132 136
-434.428 -1123.74 -2077.92 -0.899847 0.205318 -0.345931 127 126 130
-431.117 -1105.53 -2077.77 -0.942697 0.145366 -0.2634 188 189 205
-409.879 -1122.72 -2074.1 -0.829474 0.133397 -0.453685 177 181 205
-405.725 -1104.88 -2076.89 -0.798842 0.0848732 -0.524352 181 184 204
-429.155 -1091.86 -2075.96 -0.964682 0.206284 -0.147539 162 165 190
-425.277 -1078.24 -2075.2 -0.947176 0.263451 -0.164868 161 169 201
-406.067 -1095.78 -2073.32 -0.783277 0.134633 -0.233222 167 171 196
-402.266 -1080.54 -2075.61 -0.774829 0.197598 -0.381849 177 182 207
-385.095 -1124.97 -2074.14 -0.852658 0.391119 -0.332165 89 100 151
-382.1 -1111.77 -2075.88 -0.8897 0.107138 -0.349313 137 143 183
-384.888 -1099.2 -2075.16 -0.94876 -0.160452 -0.216033 178 182 211
-389.697 -1085.75 -2073.92 -0.917041 -0.132256 -0.266613 179 182 209
-251.499 -792.404 -2076.25 0.80867 -0.145906 -0.554741 36 38 69
-248.704 -779.259 -2077.06 0.814156 -0.142161 -0.559675 28 30 51
-254.789 -741.356 -2078.79 0.772 0.339748 -0.530613 22 24 55
-247.868 -757.705 -2075.86 0.844292 0.0604764 -0.534728 24 26 48
-249.498 -746.167 -2074.44 0.773942 0.245348 -0.569848 23 25 48
-256.124 -730.158 -2072.9 0.809637 0.277065 -0.49843 22 24 57
-255.253 -717.779 -2073.23 0.787896 -0.13639 -0.588637 23 25 57
-241.771 -535.57 -2076.21 0.781378 -0.0877761 -0.61799 23 27 60
-240.652 -522.34 -2074.01 0.797387 -0.0295809 -0.593252 20 22 55
-240.742 -507.044 -2075.7 0.818666 -0.0918126 -0.564079 18 20 52
-236.353 -499.522 -2071.41 0.790998 -0.204685 -0.597188 16 19 48
-234.237 -484.768 -2074.8 0.687192 -0.314017 -0.684666 13 17 44
-232.886 -478.412 -2075.94 0.613651 -0.328319 -0.730534 13 16 44
-228.394 -471.762 -2077.42 0.180884 -0.371963 -0.801771 12 15 48
-407.867 -448.145 -2071.42 -0.93738 0.213042 -0.14983 144 148 195
-400.038 -435.719 -2072.9 -0.82462 0.465415 -0.302728 163 166 210
-396.849 -420.842 -2078.12 -0.938639 0.0366636 -0.0384938 131 134 179
-400.322 -406.206 -2077.6 -0.926235 -0.337288 -0.118579 126 131 180
-188.434 -990.139 -2077.27 -0.763719 0.339708 -0.531258 114 125 172
-187.193 -975.499 -2072.84 -0.542473 0.204178 -0.704916 122 132 173
-181.98 -965.236 -2078.12 -0.791185 -0.00142202 -0.612722 124 136 178
-163.02 -995.572 -2078.11 -0.860474 0.117883 -0.391435 99 107 139
-161.931 -990.89 -2077.55 -0.85849 0.135291 -0.409027 101 110 143
-162.29 -980.149 -2075.5 -0.808581 0.148239 -0.440509 103 112 146
-159.684 -971.391 -2075.79 -0.845801 0.113311 -0.397397 99 107 139
-184.621 -960.926 -2074.17 -0.796982 -0.0263985 -0.604982 116 127 171
-183.707 -960.564 -2076.41 -0.813696 -0.0557678 -0.597644 113 124 169
-186.793 -936.9 -2076.37 -0.892041 -0.134344 -0.416831 123 135 175
-190.282 -925.668 -2074.1 -0.906669 -0.112281 -0.456199 82 90 127
-192.023 -910.942 -2073.86 -0.786603 -0.141172 -0.520074 30 32 67
-162.397 -961.84 -2074.28 -0.789833 0.043069 -0.420505 89 96 127
-161.686 -951.853 -2074.03 -0.75656 -0.0658435 -0.421179 72 77 106
-58.694 -1004.46 -2076.63 0.924047 -0.0311087 -0.038127 149 154 184
-58.8616 -969.889 -2075.84 0.946417 0.119951 0.283188 46 46 71
-76.0412 -621.551 -2078.62 0.968584 -0.151293 -0.21746 35 37 71
-73.6812 -600.811 -2074.08 0.957491 -0.0060394 -0.131533 46 47 105
-74.2405 -590.926 -2073.34 0.974848 0.0670663 -0.0911364 55 59 134
-75.1806 -573.714 -2073.15 0.989072 -0.0654067 -0.02423 51 56 138
-210.83 -564.432 -2074.84 -0.926271 0.046855 -0.394939 38 51 128
-211.421 -558.378 -2072.79 -0.903424 0.0970383 -0.414114 37 49 123
-213.027 -535.05 -2075.8 -0.964383 -0.0975591 -0.243565 19 33 93
-214.138 -516.683 -2073.28 -0.996488 -0.0491934 -0.206425 16 28 79
-214.365 -504.393 -2078.42 -0.962455 -0.148049 -0.244296 22 32 79
-216.634 -493.637 -2077.5 -0.890417 -0.269017 -0.405372 20 28 70
-224.694 -479.162 -2074.26 0.226208 -0.337498 -0.754131 13 16 48
-73.8805 -565.235 -2076.4 0.988515 -0.101492 -0.0792312 50 56 136
-72.654 -547.948 -2076.96 0.988022 -0.037182 -0.0715176 53 57 137
-420.677 304.051 -2077.96 -0.591659 0.306277 -0.741086 52 69 121
-409.692 319.687 -2076.24 -0.5424 0.557527 -0.556444 99 107 151
-103.272 -123.568 -2072.41 0.902996 -0.353249 -0.148235 30 31 59
-99.7386 -117.966 -2073.09 0.851299 -0.455083 -0.25761 30 31 59
-96.6782 -92.7513 -2073.36 0.951493 -0.0775731 0.149151 29 30 56
-94.9695 -89.9401 -2078.45 0.949763 -0.144142 0.0235497 31 32 58
-91.3604 -74.9861 -2078.06 0.956239 -0.24885 0.087898 30 33 57
-85.9171 -57.166 -2075.47 0.924717 -0.190203 -0.303061 25 27 50
-79.8426 -43.4298 -2073.33 0.852224 -0.382856 -0.352771 25 27 48
-74.5921 -31.8519 -2073.96 0.865778 -0.399153 -0.267723 26 28 50
-69.1107 -13.793 -2071.51 0.911682 -0.121068 0.0656898 28 31 55
-69.3615 -2.09936 -2071.89 0.913421 -0.0593814 0.2666 29 33 57
-65.8576 9.68621 -2074.64 0.905196 -0.284869 0.204025 29 32 58
-60.9055 22.6111 -2072.73 0.87459 -0.315919 0.276565 30 34 60
221.891 124.716 -2075.02 -0.0718124 -0.543702 0.780732 146 94 70
245.944 116.182 -2076.46 -0.172035 -0.302409 0.913016 136 88 68
242.919 119.689 -2076.31 -0.178359 -0.325793 0.904384 135 88 68
256.379 112.973 -2075.36 -0.166833 -0.183587 0.927224 139 90 71
259.916 119.096 -2073.38 -0.192184 -0.0931183 0.94762 142 92 72
228.023 126.047 -2074.08 -0.0483274 -0.605307 0.787527 153 100 74
224.152 150.41 -2071.52 -0.121161 -0.0927844 0.940892 198 146 109
322.255 121.813 -2071.25 0.0529822 0.326263 0.918674 126 84 62
329.774 130.662 -2072.18 -0.0252288 -0.0131895 0.977871 157 102 73
228.758 157.657 -2072.09 -0.0248757 -0.0430532 0.974041 207 157 119
228.065 163.992 -2072.18 0.00602283 -0.0738439 0.987581 210 161 123
236.198 160.613 -2072.44 -0.0565101 0.0124442 0.977917 213 158 119
-237.818 -897.261 -2078.19 0.213315 -0.0974843 -0.361476 48 49 80
-238.591 -905.296 -2072.22 0.270981 -0.156306 -0.189907 63 62 84
-235.315 -889.439 -2081.94 -0.00897897 -0.0735572 -0.603248 41 42 80
-443.12 108.691 -2073.28 -0.282668 -0.110717 0.319146 50 52 82
-444.407 108.532 -2072.72 -0.260146 -0.110304 0.408702 52 52 83
-431.464 100.17 -2074.52 -0.580549 -0.100588 -0.581352 36 42 73
-426.587 105.746 -2080.44 -0.433839 -0.139902 -0.536045 40 47 79
-430.83 116.625 -2080.61 -0.45671 -0.12038 -0.411611 42 48 79
-424.828 112.026 -2082.36 -0.539506 -0.139381 -0.530342 42 49 81
646.844 141.236 -2077.92 -0.0390512 -0.961096 0.250736 111 83 83
-387.893 -931.401 -2063.82 -0.835951 -0.126596 -0.5309 88 93 133
-385.708 -923.13 -2068.67 -0.871058 -0.0724971 -0.452566 67 71 109
-388.199 -912.725 -2066.91 -0.784297 -0.0552783 -0.598411 40 41 75
-259.255 -1016.02 -2065.46 0.91874 0.189427 -0.0112343 108 110 132
-257.964 -996.298 -2065.74 0.883074 0.106915 0.155451 117 119 141
-255.423 -989.359 -2071.74 0.886007 -0.066504 -0.326889 131 132 157
-251.496 -976.228 -2070.02 0.695773 -0.0989934 -0.206845 115 117 138
-248.839 -955.529 -2070.92 0.816364 0.0413849 -0.429826 95 95 103
-248.794 -949.161 -2070.1 0.809277 0.0809175 -0.560501 101 100 109
-247.727 -930.24 -2069.09 0.632332 -0.0217728 -0.135151 85 85 96
-244.325 -918.833 -2071.17 0.594281 -0.104418 -0.129025 80 79 88
-239.127 -910.104 -2069.95 0.0784436 -0.146471 0.0430114 69 68 87
-386.301 -900.188 -2069.34 -0.736019 -0.0105842 -0.658583 37 38 72
-385.122 -890.257 -2070.47 -0.807481 -0.0123037 -0.566526 34 35 67
-388.32 -877.289 -2066.89 -0.847863 -0.0694389 -0.506052 40 42 80
-390.848 -865.306 -2067 -0.768536 -0.132159 -0.59782 43 53 108
-389.323 -852.787 -2071.14 -0.781767 -0.0697875 -0.587196 43 54 114
-249.853 -683.94 -2065.84 0.762958 0.0126171 -0.628944 30 31 69
-251.987 -665.152 -2068.95 0.672495 0.00410246 -0.611829 36 39 80
-251.107 -661.358 -2067.06 0.623415 -0.0351629 -0.638603 34 37 76
-247.28 -650.428 -2067.78 0.375924 -0.2467 -0.728138 24 27 62
-248.216 -648.094 -2069.28 0.454381 -0.233698 -0.730316 22 25 61
-233.148 -654.856 -2071.61 -0.736761 -0.300096 -0.573433 52 56 76
-238.432 -644.779 -2071.45 -0.626253 -0.375846 -0.691062 33 35 63
-230.367 -638.914 -2070.88 -0.425343 -0.343467 -0.7058 48 50 77
-229.208 -624.816 -2068.54 -0.00586308 -0.149499 -0.82485 33 35 65
-228.34 -611.437 -2069.13 0.0769966 -0.00864054 -0.821104 32 35 64
-246.684 -583.482 -2071.16 0.524845 0.125614 -0.771725 20 21 52
-244.771 -579.513 -2070.54 0.373675 0.143096 -0.770221 18 20 50
-399.808 -568.603 -2068.86 -0.883604 0.0390232 -0.428538 38 47 102
-397.887 -554.576 -2069.19 -0.878045 0.110616 -0.439682 38 45 89
-396.327 -539.771 -2071.41 -0.888387 -0.101815 -0.359988 33 39 82
-401.375 -526.163 -2063.86 -0.898769 -0.0866691 -0.392648 37 42 80
-72.1756 -553.652 -2069.3 0.994725 0.00568204 -0.0621947 60 67 153
-73.1641 -542.662 -2069.42 0.989933 0.0298797 -0.0617442 61 65 146
-72.3927 -529.745 -2066.5 0.956616 -0.187684 -0.0749834 44 46 101
-69.0199 -522.198 -2066.74 0.948947 -0.29812 -0.0145994 37 38 79
-66.56 -500.596 -2065.49 0.979434 0.0533309 -0.0119999 39 39 77
-68.217 -485.182 -2070.15 0.971214 0.111308 -0.0997441 38 38 74
-66.4887 -468.139 -2068.44 0.973566 -0.150918 -0.127433 34 35 69
-65.7557 -460.243 -2067.87 0.961434 -0.00643558 -0.215165 35 35 71
-66.7246 -442.453 -2066.94 0.944192 0.0127926 -0.285923 39 39 77
-65.7151 -427.541 -2070.97 0.924598 -0.132916 -0.362265 34 35 73
-65.3252 -413.241 -2069.27 0.933081 0.00962836 -0.259796 73 75 109
-73.8861 -287.323 -2065.98 0.965507 0.251851 -0.0563844 39 44 80
-75.9809 -275.225 -2069.27 0.975367 0.131903 -0.045383 36 41 77
-75.2906 -260.038 -2067.27 1.00131 -0.0418892 0.0707107 34 40 74
-76.5306 -245.071 -2069.11 0.970047 0.166835 -0.0872736 34 41 75
-85.967 -211.885 -2069.62 0.85816 0.25122 -0.259502 36 41 74
-80.7058 -228.816 -2070.87 0.914697 0.285345 -0.273673 37 44 77
-88.4382 -203.6 -2068.92 0.864988 0.321557 -0.28803 34 39 71
-92.2515 -198.192 -2067.31 0.842287 0.419691 -0.25887 32 37 69
-96.6652 -187.242 -2069.37 0.95452 0.153746 0.0444733 32 37 68
-98.1268 -174.373 -2069.14 0.989545 0.0524731 0.139365 33 36 68
-99.2563 -166.02 -2070.85 0.942394 0.225556 -0.0381312 35 38 70
-107.141 -143.955 -2068.67 0.970666 0.180938 0.00159705 58 58 89
201.499 198.785 -2067.98 -0.0916006 -0.617931 0.794235 212 168 135
201.178 206.534 -2066.5 -0.0116789 -0.565679 0.793184 198 158 132
214.994 205.684 -2071.39 0.144618 -0.200926 0.933569 211 167 134
48.0859 257.453 -2068.35 0.494855 0.344945 0.771519 46 51 89
50.924 258.666 -2070.08 0.497423 0.305574 0.78082 46 51 89
65.8902 245.351 -2065.77 0.119504 0.215879 0.954353 57 61 102
141.934 217.914 -2065.43 0.283311 0.41914 0.849712 70 75 110
-172.558 330.948 -2065.63 0.875774 0.482652 0.0167237 177 121 90
-183.242 347.61 -2069 0.678988 0.495896 -0.10926 148 101 81
-184.997 348.864 -2064.9 0.77107 0.59084 -0.161831 163 108 78
-189.812 366.016 -2072.31 0.227769 0.281105 -0.278415 92 76 86
-168.653 324.176 -2068.88 0.799899 0.562739 0.106841 174 122 94
-184.635 382.809 -2069.47 0.488879 -0.0139055 -0.316547 84 68 80
-390.859 -924.471 -2062.05 -0.803973 -0.125743 -0.581561 68 71 112
-287.061 -1013.19 -2058.52 0.602612 -0.332762 0.732481 38 45 81
-279.466 -1018 -2063.81 0.514838 -0.322639 0.809993 67 72 95
-276.673 -1009.55 -2059.85 0.452716 -0.366524 0.833232 59 63 85
-262.542 -1018.5 -2062.35 0.765452 0.0476728 0.326322 93 95 116
-278.25 -1003.66 -2058.08 0.518394 -0.332488 0.794574 57 61 84
-272.391 -993.818 -2057.86 0.571217 -0.233567 0.789463 68 73 93
-261.049 -995.092 -2061.91 0.819265 0.0628203 0.43581 112 115 135
-263.53 -986.037 -2058.09 0.831893 -0.132655 0.374784 123 126 148
-258.113 -982.615 -2060.4 0.931922 -0.120524 0.125907 148 150 173
-253.291 -975.958 -2058.06 0.768722 -0.17093 0.443571 111 114 137
-397.88 -833.668 -2060.16 -0.852861 0.0893126 -0.49492 45 61 143
-395.981 -820.431 -2062.74 -0.868136 0.0226809 -0.4874 58 73 157
-396.776 -807.233 -2060.42 -0.914801 -0.00968289 -0.386531 54 65 145
-237.207 -908.231 -2060.24 0.168709 -0.0239605 0.796839 57 58 87
-236.954 -890.811 -2063.93 0.795801 -0.0164127 0.506862 41 40 75
-232.345 -874.65 -2059.02 0.332646 -0.441087 -0.311726 49 49 69
-229.368 -864.471 -2066.01 0.0336209 -0.403619 -0.485779 52 51 69
-243.245 -693.543 -2061.08 0.542406 0.141507 -0.732665 28 30 61
-240.381 -686.913 -2059.6 0.262238 0.0369923 -0.788229 36 38 68
-235.834 -688.517 -2058.77 -0.0731868 0.0533379 -0.811428 54 57 79
-398.032 -676.512 -2059.52 -0.85218 0.0929106 -0.481094 46 55 122
-397.922 -663.616 -2063.47 -0.884951 -0.147167 -0.418995 42 50 111
-398.715 -651.037 -2060.83 -0.867669 0.122889 -0.417201 36 46 101
-398.609 -638.247 -2062.11 -0.79425 -0.0473594 -0.561287 44 54 118
-402.051 -628.495 -2059.41 -0.85519 -0.114912 -0.47364 53 65 142
-403.763 -615.495 -2057.59 -0.930465 -0.0680696 -0.339518 57 69 158
-403.764 -595.491 -2058.46 -0.960454 -0.0335023 -0.266125 48 60 145
-404.477 -582.09 -2058.43 -0.939115 -0.0269666 -0.243264 52 64 147
-121.353 -1126.64 -2059.29 0.0748742 -0.128494 0.590521 145 151 186
-119.744 -1123.05 -2063.75 0.0134134 -0.194702 0.920406 157 163 198
-124.631 -1110.39 -2061.2 0.120793 -0.0909122 0.206254 123 129 165
-123.208 -1105.22 -2058.26 0.096959 -0.130223 0.0799841 123 129 166
-117.205 -1105.49 -2057.81 0.0532107 -0.300248 0.690454 146 151 189
-146.401 -1078.64 -2062.46 0.612758 0.116325 -0.762212 148 155 186
-131.357 -1096.88 -2060.32 0.395989 0.114641 -1.01387 100 107 146
-131.455 -1093.49 -2060.14 0.397189 0.0960629 -1.00918 110 117 156
-119.239 -1103.2 -2062.76 0.113345 -0.138628 0.265742 144 149 186
-142.049 -1083.66 -2062.61 0.517299 0.1327 -0.829383 140 146 180
-136.969 -1081.24 -2060.31 0.377677 0.0899107 -0.883673 143 150 184
-125.082 -1089.69 -2057.84 0.288529 0.0679133 -1.12441 131 137 175
-207.608 -1068.24 -2058.21 -1.06803 -0.131665 -0.165823 68 72 92
-210.735 -1052.36 -2060.61 -0.979427 -0.123479 -0.198385 69 74 94
-213.054 -1038.73 -2062.28 -0.671081 0.157874 -0.613223 99 105 127
-214.123 -1024.54 -2058.2 -0.573224 0.224434 -0.735491 100 103 119
-93.6061 -856.618 -2060.07 0.891121 0.139551 0.438706 37 36 82
-60.1068 -869.177 -2062.56 0.664941 0.179577 -0.152294 39 40 78
-61.3451 -856.04 -2061.15 0.672471 0.119513 0.0194486 40 41 81
-40.6546 -894.279 -2061.2 0.791161 -0.0893642 0.611465 32 36 68
-40.9089 -892.777 -2060.47 0.789528 -0.0982988 0.611539 32 36 67
-37.9384 -876.77 -2058.94 0.818339 -0.181249 0.564437 28 32 60
-32.8405 -860.365 -2064.14 0.876384 -0.0562408 0.384567 44 48 77
-93.6182 -848.075 -2060.93 0.836364 -0.0253112 0.538356 40 38 83
-92.3182 -844.474 -2061.9 0.809986 -0.0992846 0.581528 42 39 85
-60.2013 -847.712 -2065.04 0.766126 0.0082719 0.236936 40 41 81
-61.8935 -838.655 -2059.03 0.762531 -0.107711 0.571528 42 43 89
-58.8872 -826.105 -2063.07 0.830877 -0.069432 0.486293 40 41 82
-88.6089 -807.94 -2058.15 0.861938 0.133991 0.430404 42 40 81
-85.6351 -822.428 -2061.5 0.854218 -0.126331 0.488724 35 33 72
-58.947 -813.15 -2057.34 0.834527 0.0262233 0.48031 38 37 78
-406.748 -286.674 -2061.65 -0.985169 -0.00967595 0.0462806 44 48 86
-407.542 -265.14 -2062.22 -0.974331 0.0812588 -0.18089 39 43 82
-407.031 -256.46 -2063.48 -0.971251 0.0364638 -0.23302 43 47 87
-406.839 -233.305 -2058.82 -0.959022 0.0197476 -0.2485 42 46 87
-405.684 -226.574 -2062.44 -0.946865 0.0329749 -0.286035 41 45 87
-402.92 -211.124 -2061.1 -0.851453 0.308078 -0.368224 46 50 93
-397.634 -199.705 -2062.7 -0.80879 0.274062 -0.497468 45 49 93
-393.399 -183.913 -2062.74 -0.947235 0.120827 -0.268044 35 40 82
-75.1615 -282.343 -2063.71 0.963792 0.247779 -0.0217025 38 42 79
