ply
format ascii 1.0
comment Created by Open3D
element vertex 1335
property double x
property double y
property double z
property uchar red
property uchar green
property uchar blue
end_header
-215.631 -354.923 -2161.02 65 69 66
-219.64 -354.902 -2161.02 64 68 65
-223.69 -354.71 -2162.02 65 69 66
-227.735 -354.518 -2163.02 66 70 67
-231.663 -354.846 -2161.02 68 72 69
-235.527 -355.52 -2157.02 68 71 68
-239.574 -355.331 -2158.02 68 71 67
-243.491 -355.835 -2155.02 64 68 63
-247.508 -355.821 -2155.02 63 66 62
-251.441 -356.326 -2152.02 62 66 61
-255.438 -356.487 -2151.02 61 68 61
-259.414 -356.821 -2149.02 62 69 61
-263.42 -356.984 -2148.02 61 68 60
-267.39 -357.493 -2145.02 66 69 64
-271.424 -357.484 -2145.02 62 66 61
-275.427 -357.822 -2143.02 59 63 58
-279.425 -358.334 -2140.02 58 61 56
-283.434 -358.847 -2137.02 58 61 56
-287.446 -359.534 -2133.02 59 63 57
-291.495 -359.703 -2132.02 59 62 57
-295.527 -360.565 -2127.02 61 64 59
-299.579 -361.427 -2122.02 62 65 60
-303.655 -361.772 -2120.02 62 65 60
-307.742 -362.809 -2114.02 62 65 60
-311.867 -364.885 -2102.02 64 67 63
-316.05 -367.308 -2088.02 67 70 67
-1.77893 -370.363 -2110.02 65 67 69
-7.88393 -367.999 -2123.02 64 66 68
-13.7869 -365.812 -2135.02 58 60 60
-18.6399 -364.862 -2140.02 59 61 61
-23.4699 -363.912 -2145.02 59 63 62
-27.8619 -363.492 -2147.02 59 62 62
-32.2429 -363.074 -2149.02 58 60 61
-36.2089 -363.184 -2148.02 56 58 58
-40.7079 -362.592 -2151.02 55 57 57
-45.4529 -361.649 -2156.02 55 58 55
-50.1759 -360.707 -2161.02 57 61 59
-54.8759 -359.766 -2166.02 62 66 65
-58.9309 -359.706 -2166.02 63 65 66
-62.9849 -359.647 -2166.02 65 67 68
-66.7959 -359.941 -2164.02 66 68 68
-70.9679 -359.708 -2165.02 64 66 66
-75.0179 -359.653 -2165.02 62 64 64
-79.4079 -359.07 -2168.02 62 66 63
-83.4479 -359.016 -2168.02 63 65 64
-87.4859 -358.963 -2168.02 64 66 66
-91.4139 -359.087 -2167.02 63 67 64
-95.7689 -358.509 -2170.02 62 66 62
-100.006 -358.108 -2172.02 63 66 61
-104.232 -357.708 -2174.02 64 67 64
-108.25 -357.66 -2174.02 65 68 65
-112.363 -357.438 -2175.02 62 66 63
-116.183 -357.743 -2173.02 63 67 65
-120.197 -357.698 -2173.02 64 68 67
-124.302 -357.479 -2174.02 62 68 67
-128.401 -357.26 -2175.02 62 68 67
-132.407 -357.218 -2175.02 65 67 67
-136.411 -357.177 -2175.02 64 66 65
-140.582 -356.786 -2177.02 64 67 64
-144.579 -356.747 -2177.02 62 69 63
-148.655 -356.533 -2178.02 60 68 62
-152.726 -356.321 -2179.02 58 66 62
-156.64 -356.46 -2178.02 61 67 63
-160.704 -356.25 -2179.02 65 69 66
-164.763 -356.04 -2180.02 64 68 65
-168.747 -356.007 -2180.02 64 68 65
-172.662 -356.15 -2179.02 65 69 66
-176.514 -356.469 -2177.02 66 69 66
-180.31 -356.964 -2174.02 65 68 65
-184.055 -357.635 -2170.02 64 68 65
-188.113 -357.431 -2171.02 64 70 66
-191.936 -357.929 -2168.02 63 70 66
-196.048 -357.552 -2170.02 66 70 67
-199.83 -358.227 -2166.02 66 70 67
-203.781 -358.377 -2165.02 65 69 66
-207.736 -358.528 -2164.02 65 69 66
-211.789 -358.33 -2165.02 65 69 66
-215.7 -358.658 -2163.02 66 70 67
-219.794 -358.287 -2165.02 65 69 66
-223.878 -357.917 -2167.02 66 70 67
-227.795 -358.248 -2165.02 67 71 68
-231.72 -358.58 -2163.02 68 72 69
-235.652 -358.912 -2161.02 68 71 68
-239.659 -358.896 -2161.02 67 70 66
-243.508 -359.756 -2156.02 63 67 62
-247.523 -359.742 -2156.02 61 64 61
-251.511 -359.903 -2155.02 60 65 61
-255.502 -360.065 -2154.02 60 67 61
-259.427 -360.754 -2150.02 61 68 60
-263.453 -360.743 -2150.02 61 68 60
-267.42 -361.258 -2147.02 62 65 60
-271.416 -361.599 -2145.02 59 63 58
-275.42 -361.942 -2143.02 58 62 56
-279.459 -361.935 -2143.02 58 61 56
-283.44 -362.804 -2138.02 59 62 57
-287.479 -362.974 -2137.02 59 63 58
-291.485 -364.019 -2131.02 60 63 58
-295.53 -364.541 -2128.02 60 63 58
-299.584 -365.239 -2124.02 59 63 58
-303.653 -366.113 -2119.02 60 63 58
-307.742 -366.987 -2114.02 61 64 59
-311.863 -368.738 -2104.02 61 64 59
-316.038 -371.015 -2091.02 64 67 63
4.75807 -377.335 -2095.02 66 68 70
-2.15193 -374.05 -2113.02 62 64 66
-7.95793 -372.014 -2124.02 60 62 64
-13.7159 -369.981 -2135.02 57 59 59
-18.5709 -369.019 -2140.02 58 60 60
-23.4019 -368.059 -2145.02 57 60 59
-28.0719 -367.278 -2149.02 58 60 60
-32.3129 -367.032 -2150.02 58 60 60
-36.8169 -366.432 -2153.02 59 61 61
-41.3069 -365.833 -2156.02 58 61 60
-46.1729 -364.7 -2162.02 55 58 55
-50.6279 -364.104 -2165.02 54 58 56
-55.0679 -363.508 -2168.02 60 64 62
-58.9959 -363.625 -2167.02 62 65 64
-62.9259 -363.744 -2166.02 63 66 65
-66.9789 -363.685 -2166.02 65 68 66
-71.0299 -363.628 -2166.02 64 67 65
-75.3109 -363.215 -2168.02 64 67 65
-79.4679 -362.982 -2169.02 63 66 63
-83.6189 -362.749 -2170.02 64 66 65
-87.9839 -362.163 -2173.02 65 67 67
-91.6869 -362.644 -2170.02 62 66 63
-96.0369 -362.059 -2173.02 60 64 61
-100.164 -361.831 -2174.02 62 65 59
-104.388 -361.426 -2176.02 64 67 63
-108.502 -361.2 -2177.02 64 67 63
-112.512 -361.153 -2177.02 65 69 66
-116.425 -361.284 -2176.02 65 69 66
-120.434 -361.239 -2176.02 64 68 67
-124.442 -361.194 -2176.02 62 68 66
-128.628 -360.796 -2178.02 63 69 67
-132.365 -361.285 -2175.02 64 67 66
-136.37 -361.244 -2175.02 62 64 64
-140.542 -360.848 -2177.02 62 64 63
-144.54 -360.809 -2177.02 60 67 62
-148.617 -360.593 -2178.02 60 67 62
-152.689 -360.378 -2179.02 60 68 64
-156.604 -360.519 -2178.02 63 68 64
-160.743 -360.128 -2180.02 65 69 64
-164.801 -359.916 -2181.02 65 69 66
-168.714 -360.06 -2180.02 64 68 65
-172.833 -359.673 -2182.02 64 68 65
-176.68 -359.995 -2180.02 66 69 66
-180.534 -360.319 -2178.02 66 69 66
-184.211 -361.176 -2173.02 64 68 65
-188.264 -360.969 -2174.02 63 69 66
-192.082 -361.473 -2171.02 63 70 66
-196.022 -361.623 -2170.02 67 71 68
-199.911 -361.952 -2168.02 66 70 67
-203.86 -362.104 -2167.02 66 70 67
-207.712 -362.611 -2164.02 66 70 67
-211.814 -362.233 -2166.02 66 70 67
-215.816 -362.211 -2166.02 65 69 66
-219.816 -362.19 -2166.02 65 69 66
-223.941 -361.638 -2169.02 66 70 66
-227.816 -362.15 -2166.02 67 71 67
-231.815 -362.131 -2166.02 67 70 67
-235.778 -362.291 -2165.02 65 68 65
-239.677 -362.806 -2162.02 65 69 66
-243.492 -363.853 -2156.02 64 68 65
-247.568 -363.484 -2158.02 62 65 62
-251.525 -363.824 -2156.02 61 66 62
-255.516 -363.989 -2155.02 62 69 63
-259.486 -364.331 -2153.02 61 68 61
-263.485 -364.497 -2152.02 60 67 59
-267.43 -365.196 -2148.02 60 63 58
-271.443 -365.364 -2147.02 58 61 55
-275.444 -365.71 -2145.02 59 62 55
-279.453 -366.057 -2143.02 60 63 58
-283.423 -367.113 -2137.02 59 62 57
-287.446 -367.639 -2134.02 59 63 58
-291.473 -368.343 -2130.02 59 62 56
-295.517 -369.048 -2126.02 59 62 55
-299.579 -369.577 -2123.02 58 62 57
-303.654 -370.107 -2120.02 59 63 58
-307.742 -371.169 -2114.02 60 63 58
-311.852 -372.055 -2109.02 59 62 57
-316.013 -374.181 -2097.02 60 63 59
-320.321 -378.963 -2070.02 64 66 66
4.23007 -380.87 -2099.02 66 70 71
-2.52393 -377.727 -2116.02 59 63 64
-7.88493 -376.21 -2124.02 56 58 60
-13.9339 -373.792 -2137.02 56 58 58
-18.4999 -373.18 -2140.02 57 59 59
-23.3329 -372.208 -2145.02 58 60 60
-28.1419 -371.238 -2150.02 56 58 58
-32.2459 -371.17 -2150.02 58 60 60
-37.1549 -370.022 -2156.02 59 61 61
-41.9049 -369.055 -2161.02 57 59 58
-46.5009 -368.27 -2165.02 56 59 56
-50.9509 -367.667 -2168.02 56 60 57
-55.1329 -367.425 -2169.02 57 61 58
-59.4329 -367.003 -2171.02 57 61 60
-63.1119 -367.483 -2168.02 59 63 61
-67.0409 -367.604 -2167.02 62 66 63
-71.3269 -367.186 -2169.02 64 68 65
-75.3709 -367.128 -2169.02 63 67 64
-79.5269 -366.892 -2170.02 62 65 62
-83.7889 -366.478 -2172.02 61 64 62
-88.0409 -366.064 -2174.02 62 64 64
-91.9589 -366.191 -2173.02 63 67 64
-96.5159 -365.24 -2178.02 62 66 62
-100.53 -365.189 -2178.02 64 67 60
-104.747 -364.78 -2180.02 64 68 62
-108.654 -364.91 -2179.02 63 67 62
-112.661 -364.863 -2179.02 64 68 65
-116.475 -365.175 -2177.02 64 68 66
-120.671 -364.77 -2179.02 64 68 67
-124.582 -364.904 -2178.02 63 69 66
-128.495 -365.04 -2177.02 62 69 65
-132.587 -364.817 -2178.02 63 67 65
-136.587 -364.775 -2178.02 63 66 66
-140.586 -364.734 -2178.02 64 66 66
-144.501 -364.874 -2177.02 61 68 64
-148.659 -364.476 -2179.02 60 67 63
-152.73 -364.258 -2180.02 61 68 64
-156.643 -364.401 -2179.02 63 68 64
-160.707 -364.185 -2180.02 64 68 64
-164.694 -364.15 -2180.02 63 67 64
-168.75 -363.937 -2181.02 63 67 64
-172.733 -363.904 -2181.02 63 67 64
-176.846 -363.513 -2183.02 64 68 65
-180.631 -364.02 -2180.02 64 68 65
-184.428 -364.527 -2177.02 65 69 66
-188.355 -364.677 -2176.02 64 69 66
-192.169 -365.187 -2173.02 64 70 66
-196.106 -365.339 -2172.02 65 69 66
-200.047 -365.492 -2171.02 64 68 65
-204.093 -365.287 -2172.02 63 68 65
-207.986 -365.621 -2170.02 63 68 65
-212.029 -365.418 -2171.02 64 68 65
-215.976 -365.575 -2170.02 65 69 66
-219.883 -365.912 -2168.02 65 69 65
-224.005 -365.354 -2171.02 66 70 65
-227.916 -365.692 -2169.02 66 69 66
-231.835 -366.032 -2167.02 66 69 66
-235.689 -366.731 -2163.02 65 68 65
-239.661 -366.893 -2162.02 65 69 66
-243.603 -367.236 -2160.02 66 70 67
-247.613 -367.221 -2160.02 65 68 65
-251.567 -367.565 -2158.02 63 67 63
-255.605 -367.374 -2159.02 62 67 62
-259.569 -367.72 -2157.02 61 68 61
-263.496 -368.425 -2153.02 62 69 62
-267.459 -368.952 -2150.02 62 65 60
-271.452 -369.302 -2148.02 60 63 57
-275.483 -369.294 -2148.02 59 62 56
-279.473 -369.824 -2145.02 59 62 57
-283.452 -370.713 -2140.02 58 61 56
-287.479 -371.066 -2138.02 58 61 56
-291.485 -372.136 -2132.02 58 61 55
-295.514 -373.208 -2126.02 58 61 54
-299.578 -373.743 -2123.02 59 63 58
-303.652 -374.458 -2119.02 59 62 57
-307.742 -375.353 -2114.02 56 59 54
-311.861 -376.786 -2106.02 56 59 54
-316.011 -378.221 -2098.02 58 61 57
-320.298 -382.521 -2074.02 63 65 64
3.70307 -384.392 -2103.02 62 66 67
-2.59793 -381.761 -2117.02 57 61 62
-8.25193 -379.861 -2127.02 56 58 60
-13.5719 -378.328 -2135.02 55 57 58
-18.5719 -377.161 -2141.02 55 57 57
-23.2619 -376.361 -2145.02 56 58 58
-28.0729 -375.379 -2150.02 56 58 58
-32.7249 -374.582 -2154.02 57 59 59
-37.4919 -373.603 -2159.02 58 60 60
-41.8389 -373.172 -2161.02 56 59 58
-46.6979 -372.014 -2167.02 55 59 56
-51.0159 -371.585 -2169.02 56 60 57
-55.1969 -371.34 -2170.02 58 62 59
-59.2479 -371.278 -2170.02 57 61 60
-63.0519 -371.581 -2168.02 58 62 61
-67.2229 -371.339 -2169.02 61 65 62
-71.2689 -371.28 -2169.02 64 68 65
-75.6629 -370.677 -2172.02 64 68 65
-80.0419 -370.074 -2175.02 61 65 62
-84.4079 -369.473 -2178.02 61 63 62
-88.4279 -369.418 -2178.02 62 64 64
-92.4469 -369.365 -2178.02 63 67 64
-96.8889 -368.585 -2182.02 62 66 62
-100.688 -368.897 -2180.02 64 67 60
-105.004 -368.301 -2183.02 65 68 63
-108.906 -368.434 -2182.02 64 68 63
-112.908 -368.385 -2182.02 64 68 65
-116.812 -368.52 -2181.02 64 68 65
-120.814 -368.473 -2181.02 63 67 64
-124.813 -368.428 -2181.02 62 68 64
-128.901 -368.202 -2182.02 60 67 63
-132.72 -368.521 -2180.02 64 68 65
-136.717 -368.479 -2180.02 65 68 66
-140.545 -368.801 -2178.02 65 67 67
-144.625 -368.579 -2179.02 63 70 66
-148.62 -368.539 -2179.02 62 69 65
-152.848 -367.956 -2182.02 62 69 65
-156.682 -368.282 -2180.02 65 70 66
-160.819 -367.882 -2182.02 63 67 64
-164.803 -367.847 -2182.02 62 66 63
-168.786 -367.812 -2182.02 63 67 64
-172.768 -367.779 -2182.02 63 67 64
-176.946 -367.202 -2185.02 63 67 64
-180.664 -367.896 -2181.02 64 68 65
-184.521 -368.228 -2179.02 65 69 66
-188.385 -368.562 -2177.02 65 69 66
-192.199 -369.077 -2174.02 66 70 67
-196.135 -369.23 -2173.02 65 69 66
-200.074 -369.385 -2172.02 62 67 64
-204.016 -369.541 -2171.02 60 67 63
-208.111 -369.153 -2173.02 62 67 64
-212.149 -368.948 -2174.02 64 68 65
-216.091 -369.107 -2173.02 65 69 66
-220.036 -369.266 -2172.02 65 69 65
-224.109 -368.883 -2174.02 64 68 63
-228.015 -369.226 -2172.02 65 68 65
-231.967 -369.388 -2171.02 66 69 66
-235.85 -369.914 -2168.02 67 70 67
-239.778 -370.259 -2166.02 66 70 67
-243.714 -370.606 -2164.02 66 70 67
-247.658 -370.953 -2162.02 66 69 66
-251.692 -370.758 -2163.02 64 67 64
-255.67 -370.926 -2162.02 62 66 61
-259.557 -371.82 -2157.02 61 67 61
-263.486 -372.533 -2153.02 62 68 62
-267.469 -372.885 -2151.02 62 64 60
-271.478 -373.057 -2150.02 61 63 59
-275.475 -373.412 -2148.02 60 63 58
-279.466 -373.948 -2145.02 59 62 57
-283.469 -374.485 -2142.02 57 60 55
-287.465 -375.386 -2137.02 58 61 56
-291.466 -376.649 -2130.02 58 61 54
-295.517 -377.189 -2127.02 57 60 54
-299.569 -378.274 -2121.02 56 60 55
-303.651 -378.635 -2119.02 56 59 54
-307.743 -379.721 -2113.02 55 58 53
-311.854 -380.447 -2109.02 55 58 53
-316 -381.897 -2101.02 57 60 56
-320.262 -385.704 -2080.02 62 65 62
3.02607 -387.716 -2108.02 60 63 64
-2.96893 -385.424 -2120.02 57 59 61
-8.32393 -383.872 -2128.02 56 57 59
-13.2089 -382.875 -2133.02 55 56 57
-18.4989 -381.326 -2141.02 54 56 56
-23.4729 -380.148 -2147.02 54 56 56
-28.4199 -378.971 -2153.02 55 57 56
-33.2029 -377.98 -2158.02 56 58 58
-37.6939 -377.358 -2161.02 58 60 60
-42.5689 -376.186 -2167.02 56 58 58
-46.6329 -376.12 -2167.02 55 59 56
-50.9519 -375.687 -2169.02 57 61 58
-54.8819 -375.807 -2168.02 57 61 58
-58.9369 -375.744 -2168.02 57 61 60
-63.1129 -375.498 -2169.02 57 61 59
-67.2829 -375.254 -2170.02 56 60 57
-71.4469 -375.01 -2171.02 59 63 60
-75.8379 -374.399 -2174.02 62 66 63
-80.0999 -373.974 -2176.02 61 65 62
-84.1279 -373.918 -2176.02 62 65 63
-88.4839 -373.311 -2179.02 64 67 65
-92.6099 -373.073 -2180.02 63 68 65
-96.9429 -372.468 -2183.02 62 67 63
-100.845 -372.6 -2182.02 64 67 60
-105.056 -372.181 -2184.02 66 69 63
-108.956 -372.315 -2183.02 66 70 65
-113.056 -372.083 -2184.02 65 69 66
-116.861 -372.402 -2182.02 63 67 64
-120.955 -372.171 -2183.02 62 67 64
-125.044 -371.942 -2184.02 61 68 64
-128.947 -372.081 -2183.02 61 68 64
-133.116 -371.669 -2185.02 63 67 64
-137.104 -371.626 -2185.02 62 66 63
-140.923 -371.952 -2183.02 62 64 63
-144.913 -371.911 -2183.02 62 69 65
-148.901 -371.871 -2183.02 62 69 65
-152.887 -371.832 -2183.02 64 70 68
-156.797 -371.978 -2182.02 67 72 69
-160.931 -371.574 -2184.02 64 68 65
-164.912 -371.538 -2184.02 63 67 64
-168.961 -371.32 -2185.02 62 66 63
-173.006 -371.103 -2186.02 62 66 63
-177.045 -370.886 -2187.02 64 68 65
-180.824 -371.405 -2184.02 66 70 67
-184.676 -371.741 -2182.02 64 68 65
-188.476 -372.261 -2179.02 64 68 65
-192.344 -372.599 -2177.02 65 69 66
-196.163 -373.121 -2174.02 65 69 65
-200.209 -372.911 -2175.02 61 66 61
-204.301 -372.518 -2177.02 59 66 60
-208.385 -372.126 -2179.02 62 67 63
-212.316 -372.286 -2178.02 64 68 65
-216.205 -372.629 -2176.02 65 69 66
-220.189 -372.607 -2176.02 65 69 65
-224.172 -372.586 -2176.02 63 67 62
-228.075 -372.933 -2174.02 65 68 65
-232.023 -373.097 -2173.02 68 71 68
-235.904 -373.629 -2170.02 67 70 67
-239.796 -374.161 -2167.02 67 70 67
-243.731 -374.512 -2165.02 65 69 66
-247.702 -374.68 -2164.02 66 66 64
-251.706 -374.666 -2164.02 64 66 63
-255.657 -375.019 -2162.02 62 66 61
-259.569 -375.74 -2158.02 62 67 62
-263.497 -376.461 -2154.02 64 69 64
-267.499 -376.634 -2153.02 63 64 61
-271.47 -377.175 -2150.02 62 64 60
-275.483 -377.349 -2149.02 61 64 59
-279.5 -377.525 -2148.02 61 64 59
-283.487 -378.252 -2144.02 59 62 57
-287.489 -378.979 -2140.02 58 61 56
-291.492 -380.074 -2134.02 55 58 52
-295.525 -380.987 -2129.02 55 58 51
-299.571 -382.267 -2122.02 53 57 52
-303.649 -382.998 -2118.02 55 58 53
-307.744 -384.097 -2112.02 56 59 54
-311.853 -384.464 -2110.02 57 60 55
-316.002 -386.114 -2101.02 58 61 57
-320.24 -389.231 -2084.02 61 65 62
1.74407 -390.276 -2117.02 58 60 62
-3.63693 -388.705 -2125.02 56 58 60
-8.68893 -387.509 -2131.02 55 55 57
-13.4239 -386.687 -2135.02 53 54 55
-18.2839 -385.681 -2140.02 52 54 54
-23.8239 -383.743 -2150.02 52 54 54
-28.7659 -382.553 -2156.02 54 56 55
-33.2709 -381.923 -2159.02 55 58 55
-37.8959 -381.109 -2163.02 56 58 57
-42.5019 -380.296 -2167.02 57 59 59
-46.6979 -380.043 -2168.02 56 60 57
-50.8879 -379.791 -2169.02 57 61 59
-55.0709 -379.54 -2170.02 56 60 57
-59.3729 -379.104 -2172.02 56 60 59
-63.1739 -379.415 -2170.02 56 60 58
-67.5839 -378.795 -2173.02 55 59 56
-71.6249 -378.735 -2173.02 59 63 60
-76.1289 -377.931 -2177.02 62 66 63
-80.2719 -377.687 -2178.02 61 65 62
-84.7449 -376.886 -2182.02 63 68 64
-88.8699 -376.645 -2183.02 65 69 66
-92.8809 -376.59 -2183.02 63 70 66
-97.1029 -376.164 -2185.02 62 68 63
-101.21 -375.926 -2186.02 64 67 60
-105.516 -375.317 -2189.02 66 69 64
-109.407 -375.452 -2188.02 66 70 65
-113.203 -375.775 -2186.02 66 70 67
-117.006 -376.098 -2184.02 62 67 64
-121.097 -375.864 -2185.02 61 68 64
-124.998 -376.004 -2184.02 61 68 64
-128.992 -375.958 -2184.02 61 68 63
-132.985 -375.914 -2184.02 62 66 63
-137.062 -375.685 -2185.02 62 65 62
-140.714 -376.385 -2181.02 61 64 61
-144.872 -375.973 -2183.02 60 67 63
-148.781 -376.118 -2182.02 61 67 64
-152.849 -375.893 -2183.02 61 67 66
-156.759 -376.04 -2182.02 64 69 67
-161.116 -375.075 -2187.02 63 67 64
-165.02 -375.224 -2186.02 63 67 64
-168.997 -375.189 -2186.02 60 64 61
-173.04 -374.969 -2187.02 59 64 61
-177.078 -374.751 -2188.02 62 67 64
-180.857 -375.275 -2185.02 65 69 66
-184.646 -375.8 -2182.02 64 68 65
-188.566 -375.955 -2181.02 63 67 64
-192.488 -376.112 -2180.02 64 68 65
-196.303 -376.64 -2177.02 63 67 62
-200.397 -376.242 -2179.02 60 65 60
-204.379 -376.215 -2179.02 58 65 59
-208.36 -376.19 -2179.02 61 66 62
-212.34 -376.166 -2179.02 63 67 64
-216.365 -375.957 -2180.02 62 66 63
-220.255 -376.306 -2178.02 64 68 64
-224.235 -376.284 -2178.02 62 66 61
-228.175 -376.45 -2177.02 65 68 65
-232.118 -376.616 -2176.02 67 70 67
-236.1 -376.597 -2176.02 67 70 67
-239.98 -377.136 -2173.02 68 71 68
-243.873 -377.676 -2170.02 65 69 66
-247.836 -377.846 -2169.02 66 66 65
-251.747 -378.387 -2166.02 63 64 62
-255.747 -378.374 -2166.02 61 65 60
-259.675 -378.917 -2163.02 63 67 62
-263.594 -379.647 -2159.02 64 67 62
-267.548 -380.192 -2156.02 64 64 62
-271.496 -380.924 -2152.02 63 64 61
-275.506 -381.101 -2151.02 62 65 60
-279.52 -381.279 -2150.02 61 64 59
-283.469 -382.569 -2143.02 59 62 57
-287.503 -382.749 -2142.02 57 60 55
-291.489 -384.227 -2134.02 56 59 52
-295.539 -384.594 -2132.02 56 59 52
-299.583 -385.703 -2126.02 54 58 53
-303.657 -386.072 -2124.02 55 58 53
-307.743 -387.739 -2115.02 56 59 54
-311.854 -388.666 -2110.02 56 59 54
-316.009 -390.52 -2100.02 58 61 57
-320.249 -393.672 -2083.02 59 63 60
8.16107 -397.223 -2103.02 59 65 70
1.52107 -394.123 -2119.02 56 58 60
-3.70793 -392.723 -2126.02 55 56 58
-8.46593 -391.891 -2130.02 53 53 55
-13.4939 -390.683 -2136.02 51 52 53
-18.2099 -389.854 -2140.02 50 52 52
-23.7519 -387.895 -2150.02 52 54 54
-28.9729 -386.314 -2158.02 54 56 55
-33.7479 -385.301 -2163.02 53 56 53
-38.2309 -384.666 -2166.02 53 56 55
-42.5669 -384.221 -2168.02 55 59 58
-46.5009 -384.342 -2167.02 56 60 59
-50.8219 -383.899 -2169.02 57 61 59
-55.0069 -383.645 -2170.02 57 61 58
-59.3099 -383.204 -2172.02 56 60 58
-63.2349 -383.33 -2171.02 57 61 59
-67.8849 -382.327 -2176.02 58 62 59
-72.0389 -382.078 -2177.02 61 65 62
-76.3029 -381.642 -2179.02 62 66 63
-80.4429 -381.395 -2180.02 59 65 60
-84.6889 -380.962 -2182.02 63 68 64
-88.7049 -380.905 -2182.02 65 69 66
-92.9349 -380.474 -2184.02 63 69 64
-97.1549 -380.044 -2186.02 63 69 64
-101.262 -379.802 -2187.02 66 69 62
-105.567 -379.186 -2190.02 66 70 64
-109.558 -379.136 -2190.02 65 69 64
-113.448 -379.273 -2189.02 65 69 66
-117.246 -379.6 -2187.02 63 68 65
-121.144 -379.74 -2186.02 61 68 64
-125.044 -379.881 -2185.02 60 67 62
-129.127 -379.647 -2186.02 60 67 61
-133.205 -379.415 -2187.02 61 65 62
-137.277 -379.183 -2188.02 61 65 62
-141.091 -379.516 -2186.02 62 65 62
-144.995 -379.662 -2185.02 61 67 63
-148.901 -379.809 -2184.02 59 66 63
-152.888 -379.769 -2184.02 57 63 62
-156.721 -380.105 -2182.02 59 63 61
-160.931 -379.505 -2185.02 60 64 61
-164.984 -379.281 -2186.02 62 66 63
-168.892 -379.433 -2185.02 58 63 60
-172.871 -379.398 -2185.02 58 64 60
-176.98 -378.989 -2187.02 61 67 63
-180.761 -379.519 -2184.02 61 67 63
-184.677 -379.675 -2183.02 62 66 63
-188.655 -379.645 -2183.02 62 66 63
-192.575 -379.803 -2182.02 62 66 63
-196.498 -379.962 -2181.02 60 64 59
-200.531 -379.746 -2182.02 60 64 59
-204.508 -379.72 -2182.02 58 65 59
-208.534 -379.507 -2183.02 60 65 61
-212.459 -379.67 -2182.02 63 67 64
-216.342 -380.021 -2180.02 62 66 63
-220.233 -380.374 -2178.02 64 68 64
-224.172 -380.54 -2177.02 62 66 61
-228.155 -380.519 -2177.02 63 66 63
-232.099 -380.687 -2176.02 63 66 63
-236.011 -381.043 -2174.02 65 68 65
-239.997 -381.026 -2174.02 65 68 65
-243.92 -381.384 -2172.02 63 67 64
-247.821 -381.931 -2169.02 65 65 65
-251.816 -381.916 -2169.02 63 64 63
-255.811 -381.903 -2169.02 62 66 61
-259.687 -382.827 -2164.02 63 67 62
-263.583 -383.752 -2159.02 62 66 61
-267.557 -384.116 -2157.02 65 65 63
-271.522 -384.669 -2154.02 62 64 60
-275.514 -385.035 -2152.02 60 63 58
-279.527 -385.215 -2151.02 60 63 58
-283.51 -385.958 -2147.02 59 62 57
-287.517 -386.514 -2144.02 57 60 56
-291.507 -387.821 -2137.02 56 60 53
-295.536 -388.754 -2132.02 55 59 52
-299.592 -389.313 -2129.02 54 58 53
-303.661 -389.687 -2127.02 54 58 53
-307.741 -391.372 -2118.02 55 58 53
-311.858 -393.058 -2109.02 56 59 54
-316.016 -394.933 -2099.02 56 60 55
-320.24 -397.558 -2085.02 57 61 58
7.93607 -401.099 -2105.02 54 60 64
1.14807 -397.774 -2122.02 55 57 59
-3.92793 -396.55 -2128.02 54 55 57
-8.82993 -395.518 -2133.02 53 53 55
-13.4179 -394.869 -2136.02 51 52 53
-18.1349 -394.03 -2140.02 50 52 52
-23.8189 -391.859 -2151.02 53 54 54
-28.3449 -391.214 -2154.02 53 55 54
-33.4039 -389.808 -2161.02 53 56 53
-37.7569 -389.357 -2163.02 51 55 54
-42.4989 -388.335 -2168.02 53 57 56
-46.4339 -388.457 -2167.02 56 60 59
-51.0129 -387.629 -2171.02 57 61 59
-55.0679 -387.563 -2171.02 58 62 59
-59.6189 -386.736 -2175.02 57 62 59
-63.5389 -386.863 -2174.02 57 62 59
-68.0639 -386.04 -2178.02 59 63 60
-72.0969 -385.978 -2178.02 61 65 62
-76.5929 -385.157 -2182.02 60 64 61
-80.7279 -384.908 -2183.02 58 64 59
-84.9689 -384.469 -2185.02 61 66 62
-88.9789 -384.413 -2185.02 64 68 65
-93.2049 -383.976 -2187.02 63 70 64
-97.1009 -384.112 -2186.02 64 71 65
-101.313 -383.678 -2188.02 66 69 62
-105.515 -383.245 -2190.02 65 69 62
-109.507 -383.194 -2190.02 63 67 62
-113.399 -383.333 -2189.02 65 69 66
-117.293 -383.474 -2188.02 64 69 65
-121.19 -383.615 -2187.02 61 68 64
-125.182 -383.567 -2187.02 59 67 62
-129.262 -383.331 -2188.02 59 67 61
-133.336 -383.096 -2189.02 60 64 61
-137.319 -383.052 -2189.02 60 64 61
-141.133 -383.388 -2187.02 63 65 64
-145.117 -383.346 -2187.02 62 67 65
-148.94 -383.684 -2185.02 60 65 63
-153.082 -383.265 -2187.02 57 62 61
-156.91 -383.605 -2185.02 58 62 60
-161.189 -382.808 -2189.02 60 64 61
-165.091 -382.961 -2188.02 60 64 61
-169.066 -382.925 -2188.02 57 62 59
-173.04 -382.89 -2188.02 56 63 59
-177.078 -382.666 -2189.02 59 66 62
-180.792 -383.392 -2185.02 59 66 62
-184.645 -383.739 -2183.02 60 64 61
-188.625 -383.708 -2183.02 61 65 62
-192.603 -383.678 -2183.02 60 64 61
-196.581 -383.649 -2183.02 59 63 58
-200.558 -383.621 -2183.02 59 64 59
-204.43 -383.974 -2181.02 58 65 59
-208.558 -383.379 -2184.02 60 65 61
-212.388 -383.923 -2181.02 61 65 62
-216.411 -383.71 -2182.02 63 67 66
-220.342 -383.877 -2181.02 63 67 64
-224.234 -384.234 -2179.02 62 66 61
-228.214 -384.213 -2179.02 62 65 61
-232.155 -384.383 -2178.02 62 65 61
-236.028 -384.932 -2175.02 62 65 62
-239.98 -385.104 -2174.02 62 66 63
-243.967 -385.087 -2174.02 62 66 63
-247.895 -385.451 -2172.02 65 65 65
-251.857 -385.625 -2171.02 63 64 63
-255.9 -385.233 -2173.02 62 65 62
-259.793 -385.978 -2169.02 61 65 61
-263.701 -386.724 -2165.02 63 67 62
-267.606 -387.66 -2160.02 64 64 60
-271.566 -388.219 -2157.02 61 63 59
-275.537 -388.778 -2154.02 59 62 57
-279.534 -389.15 -2152.02 60 63 59
-283.538 -389.522 -2150.02 59 62 58
-287.522 -390.463 -2145.02 56 59 55
-291.518 -391.595 -2139.02 54 58 52
-295.555 -392.159 -2136.02 54 58 51
-299.611 -392.346 -2135.02 54 58 53
-303.663 -393.481 -2129.02 53 57 52
-307.74 -394.995 -2121.02 54 57 52
-311.852 -396.7 -2112.02 54 57 52
-316.014 -398.974 -2100.02 53 56 52
-320.237 -401.628 -2086.02 55 59 56
-324.585 -405.797 -2064.02 62 65 64
8.01907 -405.356 -2105.02 56 60 64
1.83307 -402.766 -2118.02 55 57 59
-3.40093 -401.335 -2125.02 53 55 57
-8.45693 -400.099 -2131.02 53 53 55
-13.1959 -399.25 -2135.02 50 52 52
-18.0589 -398.21 -2140.02 51 53 53
-23.3219 -396.593 -2148.02 55 55 55
-28.8279 -394.592 -2158.02 53 54 53
-33.4689 -393.749 -2162.02 53 56 53
-38.0919 -392.908 -2166.02 51 55 54
-42.6949 -392.068 -2170.02 52 56 55
-46.4959 -392.384 -2168.02 55 59 58
-51.0749 -391.546 -2172.02 57 61 59
-55.2559 -391.287 -2173.02 59 63 60
-59.5549 -390.837 -2175.02 55 62 58
-63.8439 -390.387 -2177.02 56 63 59
-68.2429 -389.747 -2180.02 57 64 58
-72.3909 -389.493 -2181.02 59 64 60
-76.6489 -389.048 -2183.02 59 63 60
-80.6689 -388.988 -2183.02 58 62 57
-84.7989 -388.737 -2184.02 61 65 61
-88.9229 -388.487 -2185.02 64 68 65
-93.0409 -388.238 -2186.02 62 69 63
-97.2589 -387.799 -2188.02 62 69 63
-101.468 -387.36 -2190.02 66 69 62
-105.565 -387.115 -2191.02 65 68 61
-109.656 -386.871 -2192.02 63 67 61
-113.447 -387.204 -2190.02 64 68 65
-117.436 -387.154 -2190.02 64 69 66
-121.33 -387.297 -2189.02 62 69 65
-125.227 -387.441 -2188.02 60 67 62
-129.306 -387.202 -2189.02 59 67 61
-133.379 -386.964 -2190.02 60 64 61
-137.361 -386.919 -2190.02 61 64 62
-141.174 -387.259 -2188.02 63 66 65
-145.239 -387.025 -2189.02 63 67 66
-149.059 -387.367 -2187.02 61 65 64
-152.886 -387.71 -2185.02 58 62 61
-156.72 -388.054 -2183.02 59 63 61
-161.004 -387.248 -2187.02 60 64 61
-164.911 -387.402 -2186.02 58 62 60
-168.961 -387.174 -2187.02 57 62 59
-172.937 -387.139 -2187.02 56 63 59
-176.913 -387.105 -2187.02 57 64 60
-180.76 -387.455 -2185.02 57 64 60
-184.552 -387.997 -2182.02 60 64 61
-188.594 -387.774 -2183.02 61 65 62
-192.516 -387.936 -2182.02 60 64 61
-196.497 -387.907 -2182.02 60 64 59
-200.584 -387.495 -2184.02 59 63 58
-204.611 -387.277 -2185.02 57 64 58
-208.583 -387.25 -2185.02 59 64 61
-212.506 -387.417 -2184.02 59 64 61
-216.433 -387.585 -2183.02 60 64 62
-220.319 -387.945 -2181.02 62 66 63
-224.296 -387.923 -2181.02 63 67 63
-228.194 -388.285 -2179.02 63 66 61
-232.098 -388.648 -2177.02 63 66 61
-235.974 -389.203 -2174.02 63 66 62
-239.997 -388.994 -2175.02 63 66 63
-243.951 -389.169 -2174.02 63 66 63
-247.909 -389.344 -2173.02 63 63 63
-251.953 -388.947 -2175.02 62 63 62
-255.887 -389.316 -2173.02 61 64 60
-259.804 -389.877 -2170.02 60 63 59
-263.69 -390.823 -2165.02 62 66 61
-267.635 -391.386 -2162.02 62 63 59
-271.627 -391.568 -2161.02 61 63 58
-275.607 -391.943 -2159.02 59 62 57
-279.581 -392.509 -2156.02 58 61 58
-283.567 -393.077 -2153.02 57 60 56
-287.546 -394.028 -2148.02 55 58 54
-291.545 -394.981 -2143.02 52 56 51
-295.558 -396.126 -2137.02 53 57 52
-299.605 -396.698 -2134.02 53 57 52
-303.659 -398.036 -2127.02 53 57 51
-307.738 -398.419 -2125.02 54 57 51
-311.836 -399.568 -2119.02 51 54 49
-316.007 -402.823 -2102.02 50 53 49
-320.221 -405.314 -2089.02 55 58 55
-324.564 -409.529 -2067.02 62 65 64
8.40907 -410.006 -2103.02 56 60 62
2.06707 -407.193 -2117.02 54 57 58
-3.17093 -405.747 -2124.02 53 56 56
-8.08393 -404.692 -2129.02 52 53 55
-13.1179 -403.444 -2135.02 50 52 52
-18.4119 -401.808 -2143.02 49 51 51
-23.2469 -400.759 -2148.02 50 52 52
-28.1979 -399.515 -2154.02 50 53 52
-32.8489 -398.663 -2158.02 51 54 51
-37.8859 -397.228 -2165.02 51 55 53
-42.2269 -396.768 -2167.02 51 55 54
-46.6889 -396.115 -2170.02 52 56 55
-51.1359 -395.462 -2173.02 54 58 56
-55.6959 -394.617 -2177.02 57 61 58
-59.7389 -394.551 -2177.02 56 61 58
-64.1469 -393.903 -2180.02 60 64 61
-68.5419 -393.256 -2183.02 61 66 62
-72.6849 -392.999 -2184.02 60 65 61
-76.9379 -392.549 -2186.02 59 63 60
-81.0669 -392.294 -2187.02 59 63 60
-85.0769 -392.235 -2187.02 60 64 61
-89.0859 -392.176 -2187.02 59 63 58
-93.3099 -391.731 -2189.02 60 64 60
-97.4169 -391.481 -2190.02 63 67 63
-101.519 -391.232 -2191.02 64 68 62
-105.614 -390.984 -2192.02 63 67 61
-109.604 -390.931 -2192.02 65 69 63
-113.396 -391.268 -2190.02 63 68 64
-117.386 -391.217 -2190.02 62 68 63
-121.187 -391.555 -2188.02 62 67 64
-125.271 -391.313 -2189.02 61 67 63
-129.169 -391.46 -2188.02 61 69 64
-133.422 -390.831 -2191.02 60 66 63
-137.317 -390.98 -2190.02 59 64 62
-141.215 -391.13 -2189.02 62 65 64
-145.197 -391.087 -2189.02 63 66 65
-149.018 -391.432 -2187.02 60 64 63
-153.08 -391.197 -2188.02 58 62 61
-156.908 -391.545 -2186.02 59 63 62
-161.039 -391.118 -2188.02 59 63 62
-165.018 -391.08 -2188.02 60 64 63
-168.994 -391.044 -2188.02 58 62 61
-172.902 -391.202 -2187.02 57 62 60
-176.879 -391.167 -2187.02 57 64 60
-180.727 -391.521 -2185.02 57 64 60
-184.644 -391.682 -2184.02 59 65 61
-188.623 -391.65 -2184.02 60 66 61
-192.66 -391.426 -2185.02 58 64 59
-196.58 -391.59 -2184.02 60 64 59
-200.61 -391.368 -2185.02 59 64 59
-204.636 -391.147 -2186.02 56 63 59
-208.507 -391.508 -2184.02 58 65 61
-212.529 -391.289 -2185.02 58 65 61
-216.501 -391.265 -2185.02 60 64 59
-220.428 -391.435 -2184.02 61 65 62
-224.317 -391.8 -2182.02 63 67 65
-228.252 -391.973 -2181.02 64 67 64
-232.116 -392.533 -2178.02 64 67 63
-235.991 -393.094 -2175.02 63 66 61
-240.08 -392.496 -2178.02 63 66 62
-244.03 -392.672 -2177.02 62 65 62
-248.071 -392.27 -2179.02 61 64 61
-252.049 -392.255 -2179.02 59 63 59
-256.001 -392.434 -2178.02 58 61 57
-259.91 -393.002 -2175.02 59 63 58
-263.83 -393.571 -2172.02 62 66 61
-267.762 -394.14 -2169.02 57 60 55
-271.67 -395.098 -2164.02 59 62 57
-275.645 -395.476 -2162.02 59 62 57
-279.587 -396.436 -2157.02 57 61 56
-283.572 -397.01 -2154.02 55 59 54
-287.55 -397.971 -2149.02 52 56 51
-291.586 -397.967 -2149.02 50 57 52
-295.577 -399.511 -2141.02 50 57 53
-299.614 -400.283 -2137.02 52 56 51
-303.666 -401.249 -2132.02 51 55 49
-307.739 -402.602 -2125.02 52 56 49
-311.845 -404.344 -2116.02 52 55 50
-315.987 -406.087 -2107.02 49 52 48
-320.205 -408.992 -2092.02 55 58 55
-324.5 -412.285 -2075.02 60 63 62
9.41407 -415.456 -2097.02 53 57 58
3.20907 -412.81 -2110.02 52 56 55
-2.34393 -410.954 -2119.02 52 56 55
-7.26793 -409.888 -2124.02 52 54 56
-12.7489 -408.036 -2133.02 50 52 53
-18.4779 -405.792 -2144.02 51 53 53
-23.4529 -404.534 -2150.02 50 54 53
-28.2629 -403.474 -2155.02 50 54 52
-32.7759 -402.809 -2158.02 50 52 50
-37.6789 -401.556 -2164.02 50 54 52
-41.8909 -401.288 -2165.02 52 56 55
-46.7499 -400.037 -2171.02 52 56 55
-51.0679 -399.575 -2173.02 54 58 56
-55.6289 -398.72 -2177.02 56 60 56
-59.7979 -398.457 -2178.02 57 61 58
-64.2049 -397.802 -2181.02 60 64 61
-68.4779 -397.344 -2183.02 61 65 62
-72.8589 -396.692 -2186.02 59 63 60
-76.8769 -396.629 -2186.02 58 62 59
-81.0069 -396.372 -2187.02 59 63 60
-84.9059 -396.508 -2186.02 59 63 60
-89.0279 -396.253 -2187.02 59 63 59
-93.1439 -395.999 -2188.02 60 64 61
-97.2549 -395.746 -2189.02 63 67 64
-101.36 -395.495 -2190.02 63 67 62
-105.561 -395.048 -2192.02 62 66 61
-109.652 -394.798 -2193.02 63 67 62
-113.443 -395.138 -2191.02 62 69 63
-117.529 -394.891 -2192.02 60 67 61
-121.515 -394.841 -2192.02 62 66 63
-125.499 -394.792 -2192.02 61 67 63
-129.482 -394.744 -2192.02 61 68 64
-133.552 -394.502 -2193.02 61 68 64
-137.53 -394.456 -2193.02 59 65 62
-141.507 -394.411 -2193.02 61 64 63
-145.318 -394.76 -2191.02 61 64 63
-149.136 -395.109 -2189.02 61 64 63
-153.039 -395.263 -2188.02 59 63 62
-157.021 -395.223 -2188.02 59 63 62
-161.001 -395.184 -2188.02 61 65 64
-165.052 -394.949 -2189.02 60 64 63
-169.168 -394.521 -2191.02 59 63 62
-173.07 -394.68 -2190.02 58 62 61
-177.108 -394.45 -2191.02 57 64 60
-180.885 -395.003 -2188.02 58 65 61
-184.797 -395.166 -2187.02 60 65 62
-188.712 -395.329 -2186.02 59 65 60
-192.629 -395.494 -2185.02 57 64 58
-196.662 -395.269 -2186.02 59 63 58
-200.636 -395.24 -2186.02 60 64 59
-204.661 -395.017 -2187.02 58 63 60
-208.581 -395.186 -2186.02 59 64 61
-212.552 -395.16 -2186.02 59 64 61
-216.477 -395.331 -2185.02 59 63 59
-220.405 -395.503 -2184.02 61 65 62
-224.253 -396.068 -2181.02 63 66 65
-228.152 -396.438 -2179.02 63 66 63
-232.096 -396.613 -2178.02 64 67 64
-236.008 -396.985 -2176.02 63 66 61
-240.029 -396.771 -2177.02 62 65 62
-244.076 -396.363 -2179.02 61 64 61
-248.085 -396.151 -2180.02 61 64 61
-252.035 -396.332 -2179.02 59 62 58
-255.988 -396.513 -2178.02 57 61 56
-259.898 -397.087 -2175.02 59 63 58
-263.819 -397.662 -2172.02 60 64 59
-267.771 -398.042 -2170.02 56 59 54
-271.679 -399.01 -2165.02 57 60 54
-275.684 -399.001 -2165.02 57 60 54
-279.621 -399.971 -2160.02 55 59 54
-283.589 -400.746 -2156.02 52 56 51
-287.564 -401.718 -2151.02 50 54 50
-291.559 -402.691 -2146.02 49 54 50
-295.557 -404.252 -2138.02 51 55 52
-299.598 -405.227 -2133.02 51 55 50
-303.663 -405.617 -2131.02 50 54 48
-307.74 -407.18 -2123.02 50 54 49
-311.833 -407.572 -2121.02 51 54 49
-315.971 -409.529 -2111.02 50 53 48
-320.163 -411.878 -2099.02 54 57 53
-324.462 -415.597 -2080.02 59 62 60
8.88607 -418.943 -2101.02 52 56 57
2.68707 -416.269 -2114.02 52 56 55
-2.41093 -414.991 -2120.02 49 53 52
-8.06993 -412.919 -2130.02 47 49 51
-13.3959 -411.246 -2138.02 47 49 50
-18.3999 -409.973 -2144.02 50 52 52
-23.3769 -408.702 -2150.02 50 54 53
-28.3269 -407.432 -2156.02 51 54 53
-32.5649 -407.158 -2157.02 50 52 52
-37.3359 -406.09 -2162.02 51 54 53
-41.9519 -405.223 -2166.02 52 56 55
-46.8109 -403.959 -2172.02 52 56 55
-51.2569 -403.293 -2175.02 55 59 56
-55.8149 -402.43 -2179.02 57 61 56
-59.8559 -402.362 -2179.02 58 62 59
-64.3849 -401.501 -2183.02 57 61 58
-68.6549 -401.039 -2185.02 58 62 59
-73.0329 -400.38 -2188.02 56 60 57
-76.9309 -400.515 -2187.02 57 61 58
-81.2899 -399.858 -2190.02 60 64 61
-85.1839 -399.996 -2189.02 61 65 62
-89.1909 -399.937 -2189.02 61 65 62
-93.3039 -399.68 -2190.02 61 65 62
-97.5179 -399.226 -2192.02 62 66 63
-101.617 -398.972 -2193.02 62 66 61
-105.711 -398.719 -2194.02 60 64 59
-109.699 -398.665 -2194.02 60 64 59
-113.784 -398.414 -2195.02 61 68 62
-117.67 -398.561 -2194.02 59 65 60
-121.371 -399.104 -2191.02 62 66 63
-125.635 -398.461 -2194.02 61 67 63
-129.435 -398.808 -2192.02 61 68 64
-133.594 -398.365 -2194.02 60 67 63
-137.485 -398.517 -2193.02 58 63 61
-141.462 -398.472 -2193.02 60 62 62
-145.357 -398.626 -2192.02 61 63 63
-149.174 -398.979 -2190.02 61 63 63
-152.998 -399.333 -2188.02 59 63 62
-157.132 -398.896 -2190.02 60 64 63
-161.11 -398.856 -2190.02 61 65 64
-165.086 -398.818 -2190.02 60 64 63
-169.131 -398.582 -2191.02 59 63 62
-173.103 -398.545 -2191.02 58 62 61
-177.007 -398.708 -2190.02 57 63 60
-180.979 -398.674 -2190.02 58 65 61
-184.826 -399.036 -2188.02 60 64 61
-188.68 -399.399 -2186.02 59 64 60
-192.657 -399.368 -2186.02 57 64 58
-196.521 -399.734 -2184.02 59 63 58
-200.5 -399.704 -2184.02 59 63 58
-204.581 -399.281 -2186.02 59 63 60
-208.505 -399.452 -2185.02 60 64 61
-212.575 -399.03 -2187.02 60 64 61
-216.499 -399.203 -2186.02 60 64 61
-220.557 -398.784 -2188.02 60 63 62
-224.398 -399.355 -2185.02 61 63 63
-228.33 -399.531 -2184.02 62 65 63
-232.227 -399.906 -2182.02 62 65 62
-236.168 -400.084 -2181.02 61 64 59
-240.146 -400.065 -2181.02 61 64 60
-244.123 -400.048 -2181.02 60 63 60
-248.099 -400.032 -2181.02 59 62 59
-252.048 -400.214 -2180.02 58 61 58
-256.026 -400.2 -2180.02 57 60 56
-259.932 -400.78 -2177.02 58 62 57
-263.894 -400.965 -2176.02 59 63 58
-267.859 -401.152 -2175.02 56 59 54
-271.74 -402.328 -2169.02 54 57 52
-275.722 -402.516 -2168.02 54 57 51
-279.614 -404.089 -2160.02 52 56 52
-283.641 -403.885 -2161.02 50 54 50
-287.588 -405.262 -2154.02 49 53 50
-291.555 -406.838 -2146.02 50 54 51
-295.593 -407.033 -2145.02 49 53 50
-299.628 -407.623 -2142.02 50 54 49
-303.67 -408.807 -2136.02 49 53 48
-307.738 -410.585 -2127.02 49 53 48
-311.82 -410.586 -2127.02 49 52 47
-315.956 -412.959 -2115.02 51 54 49
-320.127 -414.937 -2105.02 56 59 54
-324.381 -417.905 -2090.02 60 62 61
8.35907 -422.417 -2105.02 53 57 58
2.46907 -420.117 -2116.02 51 55 54
-2.77493 -418.625 -2123.02 47 51 50
-8.13593 -416.933 -2131.02 46 48 50
-13.3149 -415.444 -2138.02 45 48 49
-18.8929 -413.354 -2148.02 47 50 49
-23.5809 -412.471 -2152.02 50 54 53
-28.3899 -411.389 -2157.02 51 55 54
-32.7639 -410.912 -2159.02 51 53 53
-37.3979 -410.033 -2163.02 52 55 55
-42.0129 -409.157 -2167.02 52 56 55
-46.6089 -408.282 -2171.02 53 57 56
-51.1869 -407.408 -2175.02 56 60 57
-55.7459 -406.535 -2179.02 58 62 57
-60.0379 -406.066 -2181.02 58 62 59
-64.4419 -405.397 -2184.02 56 60 57
-68.8319 -404.729 -2187.02 56 60 57
-73.0879 -404.263 -2189.02 56 60 57
-77.1019 -404.2 -2189.02 56 60 57
-81.2279 -403.937 -2190.02 59 63 60
-85.1229 -404.076 -2189.02 61 65 62
-89.1309 -404.016 -2189.02 60 64 61
-93.3539 -403.556 -2191.02 60 64 61
-97.6739 -402.897 -2194.02 61 65 62
-101.77 -402.64 -2195.02 61 65 60
-106.066 -401.984 -2198.02 60 64 59
-110.147 -401.729 -2199.02 60 64 59
-114.125 -401.676 -2199.02 59 66 60
-118.004 -401.824 -2198.02 57 64 59
-121.792 -402.174 -2196.02 62 66 64
-125.77 -402.124 -2196.02 61 67 64
-129.657 -402.275 -2195.02 60 67 63
-133.723 -402.027 -2196.02 61 66 63
-137.611 -402.181 -2195.02 59 63 61
-141.502 -402.335 -2194.02 60 62 62
-145.395 -402.491 -2193.02 61 63 63
-149.291 -402.648 -2192.02 60 62 62
-153.034 -403.205 -2189.02 59 63 62
-157.092 -402.964 -2190.02 59 63 62
-160.996 -403.124 -2189.02 60 64 63
-165.191 -402.485 -2192.02 61 65 64
-169.094 -402.647 -2191.02 60 64 63
-173.066 -402.61 -2191.02 59 63 62
-176.972 -402.774 -2190.02 58 63 60
-180.945 -402.739 -2190.02 58 63 60
-184.917 -402.705 -2190.02 59 63 60
-188.768 -403.073 -2188.02 57 63 59
-192.626 -403.441 -2186.02 56 63 58
-196.603 -403.41 -2186.02 58 62 59
-200.579 -403.381 -2186.02 58 62 58
-204.657 -402.953 -2188.02 58 62 59
-208.628 -402.926 -2188.02 60 64 61
-212.645 -402.7 -2189.02 61 65 62
-216.566 -402.875 -2188.02 60 64 61
-220.534 -402.851 -2188.02 59 62 60
-224.417 -403.227 -2186.02 60 62 62
-228.428 -403.006 -2187.02 61 64 62
-232.32 -403.385 -2185.02 61 64 61
-236.292 -403.365 -2185.02 60 63 60
-240.229 -403.546 -2184.02 60 63 60
-244.169 -403.728 -2183.02 59 62 59
-248.084 -404.111 -2181.02 58 61 58
-252.061 -404.096 -2181.02 57 60 57
-255.91 -405.08 -2176.02 57 60 56
-259.92 -404.867 -2177.02 58 62 57
-263.817 -405.654 -2173.02 58 62 57
-267.789 -405.842 -2172.02 56 59 54
-271.748 -406.232 -2170.02 53 56 51
-275.714 -406.622 -2168.02 54 57 52
-279.647 -407.612 -2163.02 53 57 54
-283.612 -408.404 -2159.02 49 53 50
-287.573 -409.596 -2153.02 48 52 49
-291.566 -410.59 -2148.02 50 54 51
-295.579 -411.584 -2143.02 49 53 50
-299.609 -412.78 -2137.02 49 53 48
-303.675 -412.18 -2140.02 49 53 48
-307.736 -413.976 -2131.02 48 52 47
-311.813 -414.176 -2130.02 49 52 47
-315.935 -416.175 -2120.02 52 55 50
-320.078 -417.575 -2113.02 56 59 54
-324.343 -421.173 -2095.02 58 61 58
8.75307 -427.097 -2103.02 54 58 59
2.55507 -424.367 -2116.02 51 55 55
-3.13893 -422.25 -2126.02 49 53 52
-8.49493 -420.541 -2134.02 48 50 52
-13.5249 -419.239 -2140.02 48 51 52
-19.3869 -416.721 -2152.02 49 53 52
-23.6439 -416.439 -2153.02 49 53 52
-28.1739 -415.752 -2156.02 50 53 52
-33.0989 -414.457 -2162.02 51 53 53
-37.5929 -413.773 -2165.02 51 55 54
-41.9399 -413.293 -2167.02 51 55 54
-47.0609 -411.597 -2175.02 52 56 55
-51.6319 -410.715 -2179.02 55 59 57
-56.0579 -410.036 -2182.02 57 61 56
-60.2199 -409.764 -2183.02 57 61 58
-64.8659 -408.683 -2188.02 56 60 57
-69.1279 -408.211 -2190.02 56 60 57
-73.3799 -407.741 -2192.02 57 61 58
-77.5049 -407.474 -2193.02 57 61 58
-81.5099 -407.411 -2193.02 57 61 58
-85.5129 -407.349 -2193.02 59 63 60
-89.5129 -407.289 -2193.02 58 62 59
-93.6209 -407.027 -2194.02 58 62 59
-97.7229 -406.766 -2195.02 59 63 60
-102.027 -406.102 -2198.02 60 64 60
-106.216 -405.641 -2200.02 60 64 60
-110.093 -405.788 -2199.02 60 64 60
-114.268 -405.33 -2201.02 59 64 60
-118.337 -405.075 -2202.02 57 63 58
-122.212 -405.226 -2201.02 60 64 63
-125.905 -405.782 -2198.02 61 66 64
-129.789 -405.935 -2197.02 60 65 63
-133.676 -406.089 -2196.02 61 65 63
-137.565 -406.244 -2195.02 61 65 63
-141.541 -406.198 -2195.02 62 65 65
-145.351 -406.558 -2193.02 61 63 63
-149.248 -406.716 -2192.02 60 62 62
-153.226 -406.673 -2192.02 58 62 61
-157.203 -406.631 -2192.02 58 62 61
-161.178 -406.591 -2192.02 59 63 62
-165.225 -406.349 -2193.02 60 64 63
-169.056 -406.715 -2191.02 60 64 63
-173.098 -406.475 -2192.02 59 63 62
-177.069 -406.439 -2192.02 58 62 60
-181.038 -406.404 -2192.02 59 63 60
-185.007 -406.37 -2192.02 59 63 60
-188.975 -406.337 -2192.02 58 62 59
-192.826 -406.709 -2190.02 55 61 57
-196.684 -407.082 -2188.02 57 61 58
-200.657 -407.053 -2188.02 58 62 59
-204.733 -406.62 -2190.02 58 62 59
-208.651 -406.795 -2189.02 60 64 61
-212.619 -406.768 -2189.02 61 65 62
-216.541 -406.945 -2188.02 59 62 59
-220.51 -406.921 -2188.02 59 62 60
-224.395 -407.301 -2186.02 60 62 62
-228.367 -407.279 -2186.02 60 63 60
-232.3 -407.46 -2185.02 60 63 60
-236.344 -407.037 -2187.02 60 63 60
-240.177 -407.825 -2183.02 60 63 60
-244.215 -407.404 -2185.02 58 61 58
-248.068 -408.194 -2181.02 56 59 56
-252.074 -407.977 -2182.02 56 59 56
-255.947 -408.77 -2178.02 58 61 58
-259.954 -408.554 -2179.02 58 61 57
-263.87 -409.147 -2176.02 58 61 57
-267.838 -409.338 -2175.02 57 60 56
-271.721 -410.538 -2169.02 54 57 53
-275.705 -410.731 -2168.02 55 58 53
-279.64 -411.731 -2163.02 54 57 54
-283.605 -412.531 -2159.02 50 53 50
-287.577 -413.534 -2154.02 48 52 49
-291.577 -414.336 -2150.02 49 53 50
-295.587 -415.341 -2145.02 48 52 49
-299.613 -416.549 -2139.02 50 54 49
-303.676 -416.144 -2141.02 51 55 50
-307.736 -417.757 -2133.02 50 53 48
-311.817 -418.565 -2129.02 50 53 48
-315.942 -420.584 -2119.02 52 55 50
-320.095 -422.201 -2111.02 54 57 52
-324.331 -425.029 -2097.02 56 59 56
-328.602 -427.455 -2085.02 60 64 61
7.76707 -429.941 -2110.02 53 57 58
1.58107 -427.184 -2123.02 52 56 55
-3.50193 -425.866 -2129.02 50 54 53
-8.70593 -424.344 -2136.02 48 50 52
-13.5879 -423.235 -2141.02 48 50 51
-18.5899 -421.922 -2147.02 48 52 51
-23.2829 -421.022 -2151.02 48 52 51
-28.5129 -419.302 -2159.02 49 53 52
-33.4339 -417.994 -2165.02 51 54 52
-37.9229 -417.303 -2168.02 49 53 51
-42.3979 -416.613 -2171.02 48 52 51
-47.1189 -415.515 -2176.02 50 54 53
-51.5609 -414.828 -2179.02 54 58 56
-56.1149 -413.937 -2183.02 56 60 56
-60.5249 -413.253 -2186.02 56 60 57
-64.9219 -412.57 -2189.02 56 60 57
-69.3039 -411.889 -2192.02 56 60 57
-73.4339 -411.619 -2193.02 58 62 59
-77.6749 -411.144 -2195.02 58 62 59
-81.4469 -411.49 -2193.02 58 62 59
-85.7889 -410.814 -2196.02 58 62 59
-89.5639 -411.162 -2194.02 57 61 58
-93.7789 -410.693 -2196.02 58 62 59
-97.7709 -410.634 -2196.02 59 63 60
-101.971 -410.167 -2198.02 60 64 61
-106.16 -409.702 -2200.02 61 65 61
-110.24 -409.442 -2201.02 60 64 61
-114.412 -408.978 -2203.02 59 63 60
-118.478 -408.721 -2204.02 57 61 59
-122.161 -409.282 -2201.02 60 64 63
-126.224 -409.027 -2202.02 63 67 66
-130.011 -409.386 -2200.02 61 65 64
-133.804 -409.746 -2198.02 61 65 64
-137.69 -409.903 -2197.02 62 66 65
-141.579 -410.06 -2196.02 62 66 67
-145.388 -410.423 -2194.02 61 63 64
-149.205 -410.787 -2192.02 61 63 63
-153.184 -410.744 -2192.02 58 62 61
-157.162 -410.702 -2192.02 56 60 59
-161.212 -410.457 -2193.02 57 61 60
-165.258 -410.213 -2194.02 60 62 62
-169.228 -410.174 -2194.02 62 64 64
-173.333 -409.728 -2196.02 60 64 63
-177.099 -410.304 -2193.02 58 62 59
-181.26 -409.656 -2196.02 58 62 59
-185.097 -410.03 -2194.02 59 63 60
-189.182 -409.589 -2196.02 58 62 59
-192.968 -410.169 -2193.02 56 60 57
-196.877 -410.341 -2192.02 57 61 58
-200.79 -410.516 -2191.02 58 62 59
-204.705 -410.691 -2190.02 58 62 59
-208.723 -410.459 -2191.02 59 63 61
-212.689 -410.432 -2191.02 60 64 61
-216.562 -410.815 -2189.02 59 62 60
-220.53 -410.79 -2189.02 59 61 60
-224.498 -410.767 -2189.02 59 61 61
-228.425 -410.948 -2188.02 59 62 60
-232.355 -411.131 -2187.02 59 62 59
-236.396 -410.703 -2189.02 59 62 59
-240.226 -411.5 -2185.02 59 61 59
-244.198 -411.482 -2185.02 59 61 59
-248.022 -412.484 -2180.02 57 60 57
-252.059 -412.061 -2182.02 56 59 56
-255.933 -412.862 -2178.02 56 59 56
-259.918 -412.848 -2178.02 58 61 58
-263.859 -413.243 -2176.02 58 61 58
-267.827 -413.436 -2175.02 57 59 56
-271.746 -414.241 -2171.02 54 57 53
-275.697 -414.843 -2168.02 55 58 53
-279.646 -415.65 -2164.02 54 57 54
-283.611 -416.458 -2160.02 51 54 51
-287.582 -417.471 -2155.02 49 53 50
-291.558 -418.893 -2148.02 49 53 50
-295.579 -419.704 -2144.02 49 53 50
-299.619 -420.313 -2141.02 51 55 50
-303.671 -420.923 -2138.02 52 55 51
-307.735 -421.534 -2135.02 51 54 49
-311.814 -422.35 -2131.02 50 53 48
-315.931 -424.186 -2122.02 52 55 50
-320.079 -425.819 -2114.02 54 57 52
-324.293 -428.268 -2102.02 55 58 54
-328.555 -430.719 -2090.02 60 63 59
13.6331 -436.377 -2100.02 55 61 64
7.54907 -433.797 -2112.02 52 56 57
0.911074 -430.389 -2128.02 52 56 56
-3.71593 -429.681 -2131.02 51 55 55
-9.21193 -427.729 -2140.02 50 52 54
-13.7959 -427.023 -2143.02 48 51 51
-19.0819 -425.282 -2151.02 49 53 52
-23.7679 -424.373 -2155.02 49 53 52
-28.7129 -423.05 -2161.02 49 53 52
-33.0829 -422.557 -2163.02 51 54 51
-37.9819 -421.238 -2169.02 49 52 51
-42.4559 -420.541 -2172.02 48 52 51
-47.1769 -419.432 -2177.02 49 53 52
-51.3599 -419.152 -2178.02 53 57 55
-56.4249 -417.424 -2186.02 55 59 56
-60.8309 -416.733 -2189.02 56 60 57
-64.9759 -416.457 -2190.02 56 60 57
-69.2369 -415.976 -2192.02 56 60 57
-73.4869 -415.496 -2194.02 58 62 59
-77.7269 -415.017 -2196.02 59 63 60
-81.8429 -414.746 -2197.02 56 60 58
-85.9519 -414.476 -2198.02 56 60 58
-89.7239 -414.828 -2196.02 56 60 57
-94.0449 -414.147 -2199.02 58 62 59
-98.0319 -414.088 -2199.02 57 61 59
-102.122 -413.823 -2200.02 58 62 59
-106.104 -413.766 -2200.02 61 65 62
-110.285 -413.297 -2202.02 61 65 62
-114.358 -413.035 -2203.02 59 63 60
-118.425 -412.775 -2204.02 58 62 59
-122.204 -413.135 -2202.02 59 63 62
-126.173 -413.084 -2202.02 61 65 64
-129.961 -413.447 -2200.02 60 64 63
-133.844 -413.604 -2199.02 58 62 61
-137.729 -413.762 -2198.02 60 64 64
-141.617 -413.921 -2197.02 60 64 65
-145.59 -413.876 -2197.02 59 61 63
-149.481 -414.037 -2196.02 59 61 63
-153.375 -414.2 -2195.02 58 62 61
-157.424 -413.951 -2196.02 57 61 60
-161.542 -413.497 -2198.02 60 62 62
-165.434 -413.663 -2197.02 63 65 65
-169.399 -413.624 -2197.02 63 65 65
-173.295 -413.792 -2196.02 61 64 63
-177.195 -413.961 -2195.02 59 63 60
-181.224 -413.719 -2196.02 57 61 58
-185.187 -413.685 -2196.02 57 61 58
-189.209 -413.445 -2197.02 59 63 60
-192.995 -414.031 -2194.02 59 63 60
-197.014 -413.793 -2195.02 59 63 60
-200.814 -414.381 -2192.02 59 62 59
-204.78 -414.352 -2192.02 58 62 59
-208.795 -414.118 -2193.02 57 61 59
-212.71 -414.297 -2192.02 57 61 59
-216.72 -414.066 -2193.02 58 60 60
-220.637 -414.247 -2192.02 58 60 60
-224.6 -414.223 -2192.02 59 61 61
-228.522 -414.407 -2191.02 58 61 58
-232.41 -414.797 -2189.02 58 61 58
-236.376 -414.777 -2189.02 60 63 60
-240.207 -415.582 -2185.02 60 62 60
-244.181 -415.563 -2185.02 61 61 61
-248.035 -416.37 -2181.02 57 60 57
-251.988 -416.56 -2180.02 56 59 56
-255.893 -417.163 -2177.02 54 57 54
-259.952 -416.532 -2180.02 57 60 57
-263.868 -417.137 -2177.02 57 59 57
-267.757 -418.155 -2172.02 57 57 55
-271.719 -418.556 -2170.02 55 56 54
-275.657 -419.37 -2166.02 54 57 54
-279.652 -419.568 -2165.02 52 55 52
-283.593 -420.796 -2159.02 50 53 50
-287.595 -421.202 -2157.02 50 54 51
-291.584 -422.226 -2152.02 49 53 50
-295.586 -423.457 -2146.02 50 54 51
-299.62 -424.278 -2142.02 51 55 52
-303.67 -425.1 -2138.02 52 55 51
-307.737 -426.335 -2132.02 51 54 49
-311.823 -427.159 -2128.02 51 54 49
-315.948 -429.014 -2119.02 51 54 49
-320.122 -431.281 -2108.02 54 57 52
-324.306 -432.726 -2101.02 51 54 49
-328.572 -435.202 -2089.02 56 59 55
-333.012 -439.737 -2067.02 58 62 61
13.2571 -440.045 -2103.02 54 59 62
7.17807 -437.438 -2115.02 51 55 56
1.30207 -435.044 -2126.02 51 55 56
-4.07693 -433.281 -2134.02 51 55 56
-9.56893 -431.31 -2143.02 50 52 54
-13.4209 -431.644 -2141.02 47 50 51
-19.1429 -429.257 -2152.02 47 51 50
-23.4039 -428.966 -2153.02 49 53 52
-29.0509 -426.584 -2164.02 49 53 52
-33.4159 -426.086 -2166.02 51 54 51
-38.0409 -425.172 -2170.02 50 53 51
-42.3809 -424.677 -2172.02 49 53 52
-47.1029 -423.557 -2177.02 49 53 52
-51.5449 -422.856 -2180.02 52 57 55
-55.9729 -422.156 -2183.02 55 59 56
-60.3859 -421.458 -2186.02 55 59 56
-64.9079 -420.553 -2190.02 55 59 56
-69.4109 -419.648 -2194.02 56 60 57
-73.3019 -419.79 -2193.02 58 62 59
-77.7789 -418.888 -2197.02 59 63 60
-81.8929 -418.615 -2198.02 57 61 60
-86.1149 -418.134 -2200.02 57 61 59
-89.9939 -418.28 -2199.02 57 61 58
