ply
format ascii 1.0
comment Created by Open3D
element vertex 741
property double x
property double y
property double z
property double nx
property double ny
property double nz
property uchar red
property uchar green
property uchar blue
end_header
-271.003 -858.58 -2148.65 0.151339 0.084886 -0.275833 37 41 38
-269.897 -845.839 -2150.29 0.135089 -0.00819144 0.363849 38 42 39
-253.691 -839.911 -2152.8 0.311095 0.170938 -0.925733 36 39 37
-237.81 -863.061 -2149.71 0.19706 0.0112171 -0.980884 40 42 42
-239.121 -857.135 -2150.06 0.201259 -0.00999447 -0.981511 39 40 41
-225.426 -860.765 -2147.73 0.220028 -0.000706605 -0.971572 42 44 43
-228.163 -853.634 -2148.5 0.174844 -0.0195181 -0.987279 41 43 43
-243.264 -851.396 -2151.12 0.23034 0.00834447 -0.974009 38 39 39
-244.756 -842.243 -2150.96 0.216159 0.0987425 -0.969622 37 39 37
-231.965 -849.021 -2149.49 0.172306 -0.0282272 -0.990294 40 41 41
-236.505 -842.943 -2150.05 0.168704 0.0454695 -0.981112 39 40 40
-270.368 -838.442 -2146.89 0.250612 -0.0543639 -0.474304 39 42 39
-271.111 -827.153 -2150.51 0.386329 -0.108386 -0.89095 40 42 40
-255.06 -828.581 -2151.21 0.453732 0.0566934 -0.89027 38 41 38
-271.756 -819.803 -2152.03 0.4214 -0.0528466 -0.853181 39 42 40
-255.656 -821.927 -2152.11 0.539411 -0.0716313 -0.837934 39 42 39
-250.66 -818.038 -2149.06 0.544424 0.00733929 -0.8257 37 39 38
-239.503 -838.223 -2149.62 0.174098 0.144584 -0.963586 37 39 38
-241.743 -832.782 -2147.98 0.198856 0.2881 -0.927745 36 38 37
-227.423 -839.175 -2148.07 0.23233 0.174246 -0.937862 41 43 42
-248.687 -819.67 -2147.27 0.525019 0.0606663 -0.830823 36 38 37
-222.994 -852.343 -2147.86 0.162984 -0.00993307 -0.986908 42 45 43
-212.554 -855.589 -2146.67 0.197059 -0.0319536 -0.967399 45 48 45
-214.717 -851.302 -2147.03 0.163716 0.0449329 -0.980555 44 47 44
-150.823 -1049.65 -2149.87 0.867293 -0.00299408 0.369823 33 37 35
-158.606 -1036.53 -2146.32 0.599123 -0.0415358 0.294136 31 33 31
-160.747 -1027.16 -2148.72 0.558253 -0.0464862 0.283928 31 34 32
-149.105 -1038.63 -2151.7 0.873034 -0.077007 0.437159 34 38 35
-146.716 -1021.9 -2148.37 0.768587 -0.236713 0.495995 34 38 35
-142.741 -1015.88 -2150.74 0.762011 -0.238893 0.601159 35 39 36
-143.744 -1013.55 -2148.74 0.763467 -0.20596 0.609526 35 39 36
-146.49 -996.645 -2146.17 0.787258 0.0165014 0.602073 34 37 34
-143.006 -993.667 -2150.84 0.769718 0.0453561 0.642708 36 40 37
-147.197 -977.961 -2149.73 0.828119 0.116763 0.535579 34 38 35
-149.15 -974.228 -2147.18 0.864147 0.0662175 0.477813 33 36 33
-24.9387 -646.595 -2147.01 -0.949443 0.198246 0.230263 39 41 41
-24.2734 -634.535 -2148.82 -0.955808 0.0761459 0.281928 37 39 40
-22.7265 -620.882 -2149.9 -0.94661 0.173385 0.252859 38 40 40
-21.0496 -609.954 -2152.17 -0.96091 0.218936 0.134633 38 40 40
-19.3753 -600.686 -2147.88 -0.977415 0.161672 0.1133 39 42 43
-17.9657 -594.401 -2152.22 -0.981364 0.105421 0.151135 39 41 41
-17.5641 -577.349 -2152.52 -0.93425 0.0224572 0.350623 40 42 43
-17.3043 -568.791 -2152.65 -0.936485 0.102479 0.299242 41 43 44
-145.152 -553.054 -2147.61 0.864618 0.197685 0.460629 34 36 40
-145.803 -549.055 -2148.18 0.860754 0.200958 0.464938 33 35 39
-164.335 -538.258 -2149.78 0.635432 0.436201 0.392867 30 31 35
-161.778 -530.556 -2149.31 0.625251 0.549787 0.453091 30 31 35
-174.074 -516.547 -2146.16 0.451713 -0.636633 -0.619744 25 24 32
-266.296 -78.1673 -2147.97 0.515939 0.191724 0.817759 242 236 192
-261.673 -86.5852 -2148.67 0.52321 0.257103 0.798357 238 233 189
-256.279 -79.3846 -2152.54 0.413631 -0.010833 0.892693 241 235 195
-266.036 -66.1018 -2148.04 0.53016 0.0530047 0.811741 239 234 196
-251.59 -72.247 -2152.46 0.28878 -0.0817368 0.944713 240 235 197
-262.837 -66.9609 -2149.61 0.457791 0.0708365 0.865993 241 236 197
-222.257 83.8465 -2149.86 0.139027 -0.523335 0.832366 254 252 246
-218.86 85.0034 -2149.58 0.0985758 -0.537641 0.82983 254 252 248
-206.745 85.0322 -2148.57 -0.0987133 -0.487975 0.872962 252 253 251
-206.197 80.7529 -2150.49 -0.117949 -0.439808 0.892073 253 253 251
-190.598 79.6186 -2150.64 0.171192 -0.320331 0.898166 254 253 242
-199.459 84.5196 -2147.95 -0.0465278 -0.434733 0.882278 253 254 248
-183.464 84.07 -2152.16 0.49397 -0.204539 0.814662 253 252 236
-218.653 87.2413 -2148.03 0.116498 -0.560605 0.81407 253 252 248
-184.215 91.039 -2149.89 0.530595 -0.190226 0.794324 252 251 236
-185.868 93.0197 -2147.68 0.518248 -0.207793 0.800062 251 251 236
-181.604 100.278 -2151.89 0.68458 -0.061231 0.752563 255 254 238
-27.3356 -421.424 -2151.57 -0.727243 -0.313324 0.576318 50 53 52
-9.24981 14.5384 -2146.9 -0.345726 0.324713 0.879307 221 218 170
-5.27054 18.5808 -2147.66 -0.304142 0.284443 0.901749 227 224 177
-20.4694 32.6692 -2152.89 -0.295281 -0.0171094 0.949867 217 215 163
-10.5786 26.2002 -2151.06 -0.245253 0.0589714 0.956666 228 225 178
-9.85975 31.1952 -2150.53 -0.237994 -0.0618173 0.966249 225 223 175
0.599236 24.5297 -2147.44 -0.322176 0.181513 0.902686 223 220 173
514.388 -31.9196 -2150.78 -0.362448 0.635313 -0.605645 185 145 127
522.278 -27.6988 -2150.21 -0.473889 0.526896 -0.666801 207 166 147
523.693 -18.0379 -2149.73 -0.591498 -0.0285493 -0.771016 196 156 134
428.49 -8.29238 -2147.04 0.0944601 0.712262 -0.658634 151 125 113
441.127 -11.7963 -2149.19 0.200358 0.778367 -0.572141 145 120 109
514.134 -8.9091 -2146.92 -0.441804 -0.346728 -0.835415 227 195 180
515.617 -6.33024 -2149 -0.473281 -0.336761 -0.81932 227 197 183
509.163 1.10629 -2147.75 -0.469508 -0.307625 -0.821208 230 201 188
509.518 10.3082 -2152.08 -0.489082 -0.253178 -0.81074 227 197 183
526.404 -17.0008 -2152.28 -0.623984 0.0179667 -0.750628 189 149 128
-244.616 -1061.09 -2151.3 0.655829 0.0021235 -0.615989 40 42 41
-244.077 -1055.17 -2152.79 0.655781 0.00487121 -0.771431 40 42 42
-244.015 -1050.11 -2149.41 0.634008 0.00699978 -0.700239 40 42 42
-245.179 -1045.4 -2158.39 0.633936 -0.00250284 -0.85238 41 43 42
-250.575 -1023.08 -2147.76 0.633515 0.0819679 0.283733 38 40 40
-252.848 -1017.54 -2150.48 0.602508 0.0728225 0.414764 38 40 40
-248.234 -1035.81 -2158.73 0.594798 0.053752 -0.492701 40 42 42
-247.472 -1035.88 -2152.69 0.605345 0.0558406 -0.362009 40 42 42
-248.474 -1028.23 -2145.59 0.620938 0.0717697 0.0295418 39 41 41
-255.523 -1009.63 -2151.49 0.48399 0.0224843 0.26819 39 42 41
-255.363 -1002.82 -2147.19 0.335714 0.0342684 -0.0473828 40 43 42
-258.339 -999.572 -2152.44 0.293768 0.0194008 -0.0185818 40 43 42
-259.388 -997.944 -2154.19 0.262301 0.0257201 -0.0320068 40 43 42
-261.155 -992.946 -2156.91 0.199213 0.0439103 -0.0632581 40 44 43
-261.179 -984.607 -2151.51 0.176646 0.0664505 -0.156483 40 44 42
-262.53 -978.105 -2148.49 0.145252 0.060017 -0.223403 40 44 42
-362.804 -1161.08 -2145.09 0.416998 -0.199418 0.871018 44 46 41
-360.854 -1150.43 -2145.38 0.381774 -0.189901 0.895209 44 46 41
-327.657 -1164.25 -2143.1 0.328954 -0.303376 0.890959 45 47 43
-320.783 -1163.18 -2145.16 0.34993 -0.248693 0.899202 44 47 42
-317.35 -1154.3 -2144.28 0.483016 -0.290756 0.815449 45 48 43
-315.692 -1143.59 -2140.23 0.587744 -0.383652 0.703111 43 46 40
-313.361 -1135.91 -2140.79 0.686427 -0.250572 0.669836 43 46 41
-308.545 -1130.46 -2145.29 0.713335 -0.186698 0.67628 43 46 41
-305.922 -1123 -2144.79 0.651844 -0.283403 0.694877 43 46 42
-302.6 -1120.61 -2146.59 0.593667 -0.368653 0.710445 42 45 42
-203.463 -928.381 -2145.24 0.766019 0.0672082 -0.63386 36 38 38
-202.355 -926.25 -2143.04 0.793786 0.0698279 -0.599072 35 37 37
-270.524 -886.246 -2146.42 0.212344 0.163188 -0.855355 38 43 40
-269.54 -873.59 -2141.19 0.231203 0.179463 -0.873946 40 44 42
-271.142 -868.096 -2144.32 0.21979 0.198803 -0.837387 39 43 41
-203.503 -908.402 -2145.9 0.642202 0.0254779 -0.755514 42 44 42
-200.315 -896.489 -2141.15 0.705856 0.142559 -0.666248 41 42 41
-204.183 -891.437 -2142.62 0.547683 0.273868 -0.764279 43 45 43
-215.567 -881.775 -2145.13 0.348951 0.289241 -0.886788 44 47 44
-207.623 -884.902 -2142.37 0.450632 0.324363 -0.831636 44 46 44
-207.186 -882.121 -2141.05 0.459791 0.296006 -0.836759 43 46 43
-214.01 -870.733 -2143.85 0.332898 0.0103989 -0.933264 43 46 43
-208.686 -871.143 -2141.77 0.38796 -0.0550242 -0.90812 43 46 43
-211.54 -869.909 -2143.18 0.341598 -0.0326112 -0.930807 43 46 43
-306.839 -635.194 -2143.02 0.813544 0.0919559 0.573635 39 43 45
-308.995 -623.335 -2141.9 0.797349 0.0563625 0.590787 40 44 45
-305.895 -614.044 -2146.1 0.877017 0.00662059 0.480392 41 45 46
-309.365 -604.188 -2140.46 0.873452 0.0379261 0.468835 42 46 46
-309.161 -591.339 -2144.25 0.911372 0.0665049 0.394342 41 45 45
-309.486 -589.089 -2144.23 0.907669 0.0634975 0.403752 42 45 46
-313.73 -568.206 -2141.98 0.743986 0.18462 0.623696 42 46 49
-312.632 -567.122 -2144.21 0.770221 0.199875 0.587258 42 46 49
-233.991 -655.727 -2145.09 0.824045 -0.00506933 -0.561099 37 38 41
-229.416 -649.899 -2140.63 0.758813 -0.0780131 -0.642631 34 34 38
-228.442 -645.544 -2141.03 0.737878 -0.10124 -0.663434 33 34 38
-229.895 -626.387 -2141.41 0.780602 0.00944818 -0.622184 31 31 35
-229.917 -625.481 -2141.39 0.780133 0.00353568 -0.622571 31 31 35
-150.918 -971.269 -2144.61 0.893342 0.0197466 0.428336 32 34 32
-148.111 -988.045 -2144.69 0.849224 0.0565955 0.512354 33 37 34
-150.118 -972.629 -2145.83 0.882427 0.0402726 0.447695 32 35 32
-64.6629 -1057.17 -2143.93 -0.748503 0.0198474 0.569212 31 34 32
-62.5197 -1045.18 -2144.25 -0.703739 0.0836395 0.613789 32 35 33
-57.1332 -1034.28 -2142.37 -0.575928 -0.0544748 0.781854 35 35 33
-58.8665 -1028.7 -2143.65 -0.64352 -0.113516 0.736798 33 34 32
-60.6606 -1025.6 -2144.87 -0.690135 -0.0863132 0.702377 32 33 31
-61.7527 -1016.76 -2145.75 -0.752246 0.119929 0.633109 33 34 33
-49.2078 -855.529 -2145.23 -0.935562 0.0994375 0.310582 34 37 34
-47.341 -842.819 -2143.3 -0.961301 0.0881685 0.220309 34 37 34
-46.4902 -833.072 -2142.82 -0.9573 0.0371471 0.246922 34 37 35
-45.7289 -821.914 -2142.14 -0.945069 0.0638793 0.306331 35 37 35
-45.1934 -814.203 -2144.57 -0.932527 0.147327 0.324967 35 38 36
-42.6775 -798.92 -2144.47 -0.927934 0.176956 0.322072 35 38 35
-40.526 -790.684 -2142.01 -0.939211 0.176948 0.289664 36 39 36
-38.7216 -778.594 -2144.66 -0.941468 0.155031 0.292627 35 39 36
-36.3885 -767.895 -2142.48 -0.925689 0.114009 0.352509 35 38 36
-127.498 -764.039 -2145.13 0.713464 -0.256913 0.609889 41 45 46
-129.604 -746.466 -2141.73 0.681828 -0.0232148 0.728833 45 47 49
-126.374 -733.562 -2141 0.720904 -0.225226 0.651617 39 42 43
-270.404 -357.213 -2145.71 0.388136 -0.303663 0.862089 61 65 59
-272.558 -346.886 -2143.42 0.35717 -0.110596 0.908417 60 63 58
-267.441 -344.848 -2144.63 0.328825 -0.122201 0.926914 59 63 57
-266.317 -340.862 -2144.41 0.310234 -0.0990159 0.929196 56 60 54
-273.133 -332.787 -2140.68 0.462146 -0.108169 0.829195 49 52 47
-270.165 -329.808 -2140.99 0.412082 -0.125089 0.856641 50 53 48
-260.625 -336.069 -2145.07 0.232618 -0.162697 0.936498 52 56 51
-259.095 -331.676 -2144.3 0.201086 -0.202709 0.930328 50 54 49
-265.78 -324.53 -2140.58 0.31835 -0.238216 0.87159 54 57 53
-253.021 -326.249 -2144.11 0.175138 -0.203096 0.946685 51 54 51
-248.699 -329.673 -2146.06 0.262989 -0.221029 0.928666 45 48 46
-246.434 -318.834 -2145.25 0.383902 -0.13221 0.903474 57 60 58
-250.771 -306.745 -2141.1 0.45548 -0.23662 0.832622 60 63 60
-244.608 -313.423 -2145.12 0.354949 -0.164334 0.905815 60 63 61
-241.295 -307.369 -2144.67 0.260939 -0.202696 0.922728 60 63 61
-232.126 -301.189 -2144.52 0.136125 -0.160777 0.964244 51 53 50
-244.025 -296.882 -2141.93 0.225585 -0.114152 0.954284 52 54 50
-245.691 -293.387 -2140.84 0.186412 -0.101845 0.965743 51 53 48
-27.1136 -392.828 -2144.31 -0.696594 -0.32037 0.621062 47 50 47
-31.2672 -385.65 -2145.33 -0.71076 -0.297157 0.599598 48 51 48
-30.1388 -371.719 -2145.23 -0.611596 -0.272346 0.669004 54 57 56
-25.9759 -365.97 -2140.65 -0.744485 0.124414 0.629024 48 51 49
-20.4528 -406.22 -2142.28 -0.799169 -0.112079 0.579915 49 52 50
-22.8258 -396.639 -2141.45 -0.723874 -0.298801 0.607462 47 50 47
-19.4549 -14.0761 -2141.27 -0.542532 0.308635 0.782353 195 195 152
-14.7894 -7.29965 -2141.05 -0.521349 0.274965 0.807617 197 197 149
-18.0061 -5.84496 -2143.53 -0.543368 0.263248 0.796938 197 197 150
-14.9845 4.8825 -2144.52 -0.485754 0.229905 0.838514 200 198 148
-6.84071 4.96654 -2140.6 -0.440277 0.274761 0.855086 203 200 145
-13.4827 11.3276 -2146.35 -0.402048 0.296126 0.86266 213 210 162
-4.45349 15.6082 -2145.73 -0.33887 0.299032 0.883735 221 218 170
8.3349 33.5788 -2145.85 -0.346361 0.137383 0.861374 208 206 158
410.853 33.2049 -2142.91 -0.211052 0.0190052 -0.93889 240 214 200
458.971 -15.1905 -2140.79 0.423287 0.596141 -0.666032 184 153 136
471.099 -22.6226 -2141.52 0.324422 0.800384 -0.450511 171 143 128
482.583 -26.8855 -2142.68 0.00115231 0.697147 -0.59515 195 168 155
496.219 -29.5741 -2145.93 -0.0304832 0.791781 -0.559517 182 151 136
479.821 -25.3097 -2140.53 0.0606863 0.680754 -0.607207 198 171 157
507.698 -28.2194 -2144.22 -0.157353 0.631622 -0.670959 184 146 131
510.045 -24.3976 -2141.82 -0.242201 0.349147 -0.814407 202 165 148
512.32 -25.1195 -2143.11 -0.284234 0.370457 -0.777846 200 162 145
517.778 -17.0145 -2145.41 -0.498786 -0.183516 -0.838351 206 165 144
427.574 -7.20019 -2145.54 0.0686918 0.692839 -0.684082 153 126 113
437.872 -7.5025 -2144.44 0.176984 0.725313 -0.646066 152 125 112
448.977 -12.5924 -2144.88 0.271014 0.698966 -0.612696 156 127 112
452.712 -12.7429 -2142.59 0.33238 0.619988 -0.672658 171 141 123
433.227 21.5347 -2141.43 -0.00057476 -0.157839 -0.966984 242 218 206
496.052 10.2598 -2140.96 -0.270663 0.100933 -0.911009 245 215 202
511.795 -11.6933 -2144.25 -0.400134 -0.272961 -0.881161 226 192 176
507.406 -4.80423 -2144.64 -0.430905 -0.256538 -0.855668 233 204 190
500.624 4.23483 -2142.34 -0.364243 -0.0435894 -0.878258 241 211 198
-200.607 -1041.73 -2139.71 0.759533 0.0627618 -0.647043 31 31 32
-192.832 -1064.43 -2137.11 0.486513 0.203415 -0.842005 32 31 32
-190.877 -1057.16 -2135.12 0.47228 0.182494 -0.859514 32 30 31
-194.92 -1052.33 -2136.09 0.574535 0.135945 -0.800932 30 29 30
-196.405 -1045.45 -2135.83 0.690911 0.102472 -0.710201 30 30 31
-201.618 -1014.97 -2138.18 0.760133 0.0141734 -0.647905 33 33 33
-196.481 -1026.57 -2134.21 0.654379 0.100755 -0.746083 31 31 31
-198.867 -1015.13 -2134.74 0.72989 0.0397465 -0.676584 32 32 32
-201.354 -989.194 -2138.66 0.798695 0.0632778 -0.598082 33 33 33
-199.952 -996.692 -2138.64 0.789901 0.0293429 -0.61226 32 33 33
-202.021 -986.904 -2139.06 0.79922 0.0676822 -0.596752 33 34 34
-203.183 -974.036 -2139.81 0.801843 0.00892577 -0.593441 35 36 36
-199.518 -982.757 -2134.41 0.81184 0.0723645 -0.580764 34 34 34
-362.298 -963.981 -2134.87 0.501634 -0.193813 0.837997 41 44 41
-354.451 -951.883 -2135.45 0.431264 -0.106505 0.895073 40 44 41
-356.02 -950.745 -2135.06 0.44048 -0.104652 0.891271 40 44 41
-348.837 -963.992 -2137.23 0.352697 -0.13978 0.925308 40 44 41
-340.076 -958.6 -2137.84 0.349024 -0.0839243 0.933645 41 45 42
-343.854 -953.959 -2137.58 0.377555 -0.0706826 0.92206 42 46 43
-332.439 -952.895 -2137.01 0.328796 -0.0742694 0.941789 44 48 45
-306.535 -712.678 -2137.35 0.80471 0.0460865 0.578754 40 42 41
-306.425 -707.273 -2137.68 0.803602 0.0650547 0.576689 40 42 41
-305.978 -699.124 -2139.51 0.738128 0.0820514 0.62309 41 43 42
-311.213 -682.323 -2133.64 0.673677 0.0262182 0.643498 42 45 44
-310.051 -678.001 -2135.27 0.712991 0.0142955 0.624316 42 44 44
-307.585 -674.08 -2139.36 0.811922 -0.0091748 0.559483 41 43 43
-219.329 -761.91 -2138.76 0.379062 -0.362889 -0.839586 31 32 34
-214.9 -754.295 -2139.08 0.557102 -0.264897 -0.769944 32 32 34
-214.974 -740.598 -2139.87 0.640747 0.0797832 -0.752537 34 34 37
-209.543 -742.087 -2134.09 0.680762 0.0128075 -0.72778 34 34 36
-162.031 -1198.34 -2137.46 0.303909 0.0450711 -0.149273 26 28 27
-161.5 -1185.61 -2139.21 0.338753 -0.0180535 -0.013171 26 27 26
-160.118 -1174.5 -2139.52 0.234674 0.0171119 -0.22366 26 26 26
-28.8849 -1228.05 -2139.24 -0.246596 -0.795073 0.51683 26 24 23
-28.5143 -1219.18 -2137.91 -0.360903 -0.11611 0.802458 37 36 36
-20.0385 -1223.59 -2136.68 0.0128208 -0.493707 0.677707 29 28 27
-17.315 -1224.24 -2137.38 0.144658 -0.578273 0.657778 27 26 26
-17.5566 -1215.14 -2136.13 -0.112895 0.157889 0.8692 43 43 43
-0.903633 -1215.33 -2134.14 -0.0640446 -0.328118 0.663972 36 36 36
5.33313 -1223.57 -2135.95 -0.17667 -0.890097 0.497449 24 24 24
5.89985 -1223.73 -2135.03 -0.206925 -0.916577 0.479673 23 23 23
22.4305 -1225.47 -2136.11 -0.0871441 -0.755433 0.577287 40 39 38
-47.3167 -880.736 -2138.26 -0.905884 0.00459307 0.413262 32 35 31
-47.0958 -874.214 -2138.65 -0.8894 0.0177504 0.450053 32 35 31
-148.492 -861.393 -2136.16 0.866477 -0.0570505 0.4828 35 39 38
-148.494 -857.368 -2135.21 0.866355 -0.083712 0.47916 35 39 38
-143.425 -842.553 -2137.12 0.867932 -0.13946 0.477414 36 40 39
-144.55 -829.723 -2134.61 0.880412 -0.0740324 0.468778 36 40 39
-143.739 -826.013 -2136.05 0.8723 -0.0732651 0.483132 36 40 39
-145.014 -809.345 -2134.91 0.757247 -0.0312384 0.640265 36 40 39
-142.648 -801.574 -2137.15 0.692076 -0.0108085 0.725208 36 40 39
-140.724 -797.998 -2139.08 0.674258 0.0133973 0.742898 36 40 39
-143.409 -794.165 -2136.97 0.692274 0.0189472 0.724137 36 40 39
-139.258 -779.272 -2140.05 0.770453 -0.124459 0.607392 37 41 40
-138.267 -773.004 -2137.57 0.793244 -0.210806 0.556855 38 41 40
-136.506 -769.677 -2137.02 0.774181 -0.199542 0.572285 39 42 42
-301.207 -382.156 -2139.28 0.856595 -0.256082 0.372709 53 56 55
-298.86 -374.949 -2139.65 0.828192 -0.13165 0.440619 54 56 55
-287.558 -369.696 -2140.35 0.687757 -0.225337 0.658323 56 59 56
-299.343 -362.774 -2137.73 0.772487 -0.0816341 0.606962 57 60 57
-299.177 -348.815 -2134.5 0.716979 -0.304592 0.605841 60 63 60
-295.537 -343.084 -2134.17 0.72951 -0.390381 0.533282 58 60 59
-290.028 -338.222 -2136.41 0.652157 -0.374579 0.601839 58 60 59
-276.975 -338.874 -2140.5 0.506997 -0.0643314 0.821407 56 58 54
-274.413 -326.673 -2138.18 0.499893 -0.238167 0.786388 52 54 50
-276.316 -323.071 -2135.51 0.517794 -0.322709 0.767025 55 58 54
-242.934 91.5539 -2139.04 0.0790817 -0.386802 0.915247 254 252 253
-240.984 93.6675 -2138.65 0.118114 -0.378666 0.914326 254 252 251
-227.252 98.0051 -2139.37 0.20244 -0.441861 0.868393 253 253 251
-237.94 100.643 -2137.15 0.142626 -0.363556 0.91877 254 252 244
-233.46 102.716 -2136.98 0.168177 -0.393742 0.898799 254 252 245
-237.687 108.637 -2134.38 0.135737 -0.393712 0.905547 254 251 239
-224.738 97.3013 -2140 0.20134 -0.467734 0.855522 254 253 252
-218.028 103.695 -2138.19 0.0879874 -0.522095 0.837462 253 253 251
-223.37 105.414 -2137.07 0.138057 -0.464847 0.86226 254 252 249
-212.542 104.104 -2138.36 0.0308144 -0.55915 0.822041 253 253 252
-206.817 109.334 -2137.17 0.0498094 -0.539474 0.829532 253 253 249
-202.909 107.66 -2137.96 0.0572157 -0.526479 0.83932 252 252 247
-221.589 113.231 -2134.36 0.169129 -0.47446 0.84948 252 251 241
-3.2208 -462.897 -2138.19 -0.785692 -0.175394 0.589237 48 52 50
-7.91531 -447.549 -2138.86 -0.797257 -0.18834 0.570108 50 53 51
-10.0921 -439.387 -2139.95 -0.791352 -0.214307 0.558606 50 53 51
-9.50656 -433.835 -2137.66 -0.744743 -0.305333 0.572168 50 52 52
-8.43922 -429.769 -2133.88 -0.73477 -0.307541 0.588903 49 52 49
-19.3824 -419.593 -2139.32 -0.785719 -0.191325 0.540121 49 51 49
327.407 -13.2575 -2139.75 -0.126062 0.254889 -0.881985 212 184 169
341.874 -13.6804 -2134.16 -0.113076 0.241496 -0.918264 209 179 163
361.49 -9.74505 -2137.72 -0.208514 0.269002 -0.887144 202 173 156
368.524 -6.27621 -2140 -0.227422 0.565736 -0.781443 187 158 142
374.033 0.360904 -2135.03 -0.192571 0.492006 -0.817759 192 163 146
351.797 29.1099 -2134.79 -0.25846 -0.142567 -0.924019 249 223 210
357.566 35.2476 -2138.9 -0.0608011 -0.0216179 -0.942353 242 215 202
368.102 32.4745 -2134.91 0.0750776 -0.0524054 -0.970938 245 219 206
370.326 35.7265 -2137.95 0.0242944 -0.0229128 -0.958234 241 215 202
393.654 -2.86115 -2139.65 -0.0118823 0.717334 -0.698306 180 149 131
384.677 1.7578 -2135.14 -0.0740393 0.580199 -0.800501 193 163 144
395.01 -0.925855 -2137.51 -0.0165326 0.668398 -0.737216 184 153 134
411.488 -2.42355 -2138.91 -0.0477536 0.590549 -0.80289 176 145 128
405.259 2.38152 -2135.37 -0.063415 0.503082 -0.848338 194 162 144
407.635 5.78415 -2134.1 -0.109254 0.391597 -0.906522 205 172 155
419.72 -1.78097 -2139.1 -0.0707874 0.525438 -0.846503 172 143 126
416.574 7.04693 -2136.64 -0.0863611 0.315073 -0.912803 205 174 156
381.137 35.7237 -2138.18 -0.0773058 -0.0130117 -0.961755 236 214 205
381.876 32.8763 -2135.46 -0.0928616 -0.00970993 -0.975118 238 217 209
395.336 34.024 -2138.49 -0.129693 0.110528 -0.971162 245 218 206
411.749 14.6078 -2135.64 -0.174894 0.150395 -0.935414 228 198 183
417.281 14.6366 -2138.33 -0.18546 0.00887322 -0.948412 235 207 192
412.563 23.0361 -2138.18 -0.234226 -0.0821463 -0.957483 247 221 208
-364.452 -1158.54 -2143.07 0.442637 -0.185552 0.854043 44 46 41
-364.188 -1155.38 -2142.9 0.423213 -0.187348 0.863425 44 46 41
-370.392 -1150.74 -2135.98 0.474191 -0.177537 0.839824 43 46 41
-368.736 -1145.99 -2137.12 0.4419 -0.220433 0.852524 44 46 41
-363.723 -1139.43 -2141.1 0.388551 -0.229341 0.873799 43 46 41
-362.875 -1129.94 -2139.25 0.365696 -0.251912 0.874269 43 46 40
-359.308 -1135.11 -2144.06 0.375491 -0.196785 0.89146 42 45 40
-358.158 -1128.78 -2142.95 0.370244 -0.203054 0.889814 42 44 39
-358.783 -1119.44 -2139.07 0.361 -0.245873 0.878015 43 45 41
-358.775 -1123.78 -2140.75 0.368204 -0.22547 0.882529 42 45 40
-351.061 -1119.06 -2146.24 0.365027 -0.164545 0.905097 41 44 39
-352.96 -1113.89 -2142.61 0.353849 -0.212267 0.892547 43 45 41
-350.413 -1105.58 -2142.12 0.358509 -0.195226 0.899387 44 45 42
-355.056 -1101.67 -2136.41 0.407539 -0.207908 0.879664 43 45 42
-347.945 -1105.45 -2144.39 0.334318 -0.18829 0.910993 44 45 42
-346.902 -1094.52 -2141.88 0.381726 -0.185266 0.895853 43 45 42
-342.881 -1089.68 -2144.96 0.347486 -0.184016 0.912377 43 45 42
-347.777 -1081.24 -2137.12 0.470347 -0.18249 0.85445 42 44 41
-343.12 -1085.61 -2144.06 0.359207 -0.183061 0.906731 42 45 42
-339.806 -1078.05 -2143.68 0.340171 -0.166039 0.915222 43 46 43
-255.546 -1150.07 -2141.45 0.585835 -0.0650639 0.0594794 39 41 39
-254.643 -1140.19 -2143.86 0.619204 -0.123586 0.237285 39 41 39
-253.199 -1136.54 -2143.19 0.620462 -0.130513 0.25272 39 42 39
-250.389 -1130.42 -2141.27 0.615892 -0.130916 0.24041 39 42 39
-251.55 -1127.56 -2143.45 0.634509 -0.156893 0.31951 39 42 39
-248.806 -1129.91 -2139.48 0.605893 -0.11599 0.194155 39 41 39
-246.328 -1123.76 -2137.55 0.604095 -0.0985712 0.160457 39 41 39
-251.044 -1110.7 -2144.24 0.671885 -0.0876787 0.360637 39 41 39
-246.35 -1114.46 -2138.58 0.630775 -0.0933562 0.211816 39 41 39
-242.098 -1109.9 -2134.33 0.6165 -0.0430056 0.0828416 38 41 38
-249.398 -1114.96 -2141.74 0.647723 -0.112827 0.297832 39 41 39
-246.089 -1096.35 -2139.64 0.658669 0.00806699 0.203774 38 41 38
-246.494 -1090.12 -2140.66 0.664912 0.0175732 0.227946 37 41 38
-247.881 -1085.84 -2143.38 0.66611 -0.0145895 0.245414 38 41 38
-241.298 -1081.72 -2135.23 0.65203 0.0124443 -0.00298327 38 41 38
-240.942 -1083.82 -2134.5 0.65116 0.0164078 -0.00100681 38 41 38
-244.523 -1073.07 -2143.52 0.653822 -0.00989768 -0.174194 38 41 39
-240.971 -1071.68 -2137.33 0.642542 0.0199314 -0.179186 38 41 39
-137.524 139.232 -2134.59 -0.241688 -0.108248 0.464008 124 116 108
-123.838 137.108 -2134.79 -0.183442 -0.111947 0.601756 120 113 106
-154.822 210.728 -2138.78 -0.318097 0.14367 0.705491 24 21 24
-146.198 207.866 -2137.51 -0.0299493 0.26 0.596238 21 18 21
-144.299 209.64 -2139.62 -0.0734245 0.238152 0.610218 21 19 22
-166.916 214.685 -2138.1 -0.229439 0.157916 0.698334 37 33 33
-156.211 215.494 -2142.11 -0.421964 0.133216 0.797389 27 24 27
-162.291 214.563 -2140.31 -0.367468 0.149588 0.77244 29 26 28
-358.447 -942.703 -2134.19 0.444995 -0.0742333 0.887335 40 44 41
-365.102 -934.805 -2131.32 0.606328 0.0020396 0.774793 41 45 42
-364.836 -928.043 -2131.75 0.604572 -0.0536932 0.769861 42 46 43
-371.124 -922.155 -2128.02 0.708139 -0.191409 0.659365 43 47 44
-365.691 -918.741 -2129.23 0.619561 -0.265975 0.715511 43 47 44
-351.522 -920.925 -2133.49 0.453238 -0.19232 0.852196 42 46 43
-360.723 -918.124 -2130.26 0.540787 -0.256863 0.781362 43 47 44
-331.127 -936.48 -2130.72 0.334024 -0.10821 0.932243 42 46 43
-346.82 -914.557 -2133.7 0.39344 -0.161498 0.90322 42 46 43
-327.736 -917.263 -2129.58 0.358478 -0.0862675 0.926522 42 46 43
-295.258 -955.214 -2129.42 0.77972 0.166658 0.591852 32 36 33
-297.292 -950.965 -2128.57 0.761964 0.1165 0.613212 32 36 33
-299 -944.498 -2128.56 0.756311 0.0976924 0.648337 32 36 33
-296.914 -932.378 -2131.08 0.890096 -0.116957 0.418869 35 39 36
-295.969 -918.131 -2127.55 0.897606 -0.066455 0.42494 36 39 36
-354.277 -909.243 -2130.65 0.502317 -0.141103 0.847837 41 45 42
-355.679 -903.053 -2129.96 0.534995 -0.0736169 0.835603 41 45 42
-358.813 -901.019 -2128.69 0.585628 -0.0730761 0.798584 40 44 41
-350.85 -893.523 -2132.23 0.440927 -0.013568 0.893898 42 46 44
-349.598 -908.321 -2132.39 0.451777 -0.102394 0.880539 42 46 43
-327.41 -908.37 -2128.34 0.384214 -0.0435536 0.925712 43 47 44
-217.048 -709.248 -2131.7 0.680661 0.168638 -0.706028 38 38 42
-213.762 -707.513 -2128.88 0.634444 0.154776 -0.754259 35 36 40
-217.294 -701.646 -2130.83 0.684471 0.123998 -0.714038 36 37 40
-215.991 -692.021 -2128.44 0.637895 0.142072 -0.75606 34 34 39
-216.122 -688.803 -2127.79 0.618412 0.139405 -0.77315 33 33 38
-224.678 -671.279 -2133.9 0.730996 -0.0686015 -0.675264 33 34 38
-221.49 -668.219 -2131.69 0.634182 -0.0740492 -0.762463 33 33 38
-314.191 -657.885 -2130.58 0.450859 -0.00792825 0.84766 43 46 45
-312.488 -660.18 -2133.18 0.552298 -0.0126943 0.777976 42 45 45
-317.085 -647.47 -2130.31 0.466579 0.00776247 0.857632 42 46 45
-315.882 -641.682 -2132.02 0.580821 0.0205142 0.794622 42 46 46
32.2621 -1220.94 -2130.77 0.153245 -0.637455 0.700276 35 36 36
31.1787 -1214.73 -2129.3 0.10591 -0.371758 0.789835 35 36 36
29.6203 -1213.05 -2129.92 0.054175 -0.236089 0.818956 36 37 37
29.2819 -1204.45 -2132.95 -0.322613 0.213316 0.886035 42 43 44
36.8044 -1202.18 -2129.92 -0.515952 0.265849 0.825791 44 45 45
40.747 -1195.92 -2129.91 -0.5072 0.305005 0.808237 46 47 47
42.2881 -1187.46 -2131.78 -0.376877 0.251497 0.874639 46 48 46
41.6989 -1179.92 -2132.54 -0.301651 0.0958777 0.910227 45 46 44
46.9741 -1179.31 -2130.2 -0.27842 0.0849275 0.928161 46 47 45
37.1948 -1167.94 -2131.92 -0.201318 -0.247877 0.932275 42 44 44
39.3085 -1172.59 -2132.36 -0.263871 -0.198791 0.90964 43 45 44
38.3045 -1165.92 -2131.43 -0.183736 -0.214833 0.945883 42 44 44
52.9808 -1180.33 -2128.62 -0.128639 0.127562 0.960028 47 47 45
66.7211 -1183.86 -2128.44 -0.30166 0.504528 0.729477 41 41 40
70.6145 -1180.67 -2128.71 -0.363866 0.484297 0.72281 42 42 40
57.8614 -1173.01 -2130.14 -0.0031305 0.0545527 0.997121 43 45 43
58.0871 -1165.44 -2130.74 -0.0208401 0.0512892 0.99902 41 44 41
74.0883 -1173.79 -2130.86 -0.308923 0.283653 0.802333 44 44 42
65.5462 -1167.62 -2132.32 -0.00380992 0.0701673 0.977419 44 46 44
74.67 -1170.4 -2132.54 -0.280496 0.21523 0.818202 45 45 43
30.7044 -1163.08 -2131.94 -0.160125 -0.276772 0.942937 43 46 45
30.9977 -1153.1 -2130.76 -0.124593 -0.124213 0.984706 42 45 44
32.0293 -1156.01 -2131.06 -0.128154 -0.144938 0.97651 43 45 45
46.2148 -1159.51 -2130.65 -0.0971569 -0.000342172 0.992873 41 43 42
49.8882 -1151.62 -2130.28 -0.0500128 0.0574152 1.00235 42 44 43
37.4445 -1146.72 -2129.82 -0.0423443 -0.117546 0.981389 43 45 44
34.7752 -1141.82 -2128.37 -0.0520094 -0.210247 0.962103 42 45 44
41.2812 -1149.9 -2130.47 -0.031744 -0.0272617 0.99543 42 44 44
39.761 -1143.14 -2129.14 -0.0680245 -0.217822 0.947715 44 46 45
53.2713 -1159.99 -2130.38 -0.0816454 0.057306 0.998655 41 43 41
50.7975 -1154.58 -2130.37 -0.0611858 0.0606533 1.00211 42 44 42
64.2109 -1164.92 -2132.42 -0.00423809 0.0344609 0.993402 44 46 43
52.0129 -1150.92 -2129.85 -0.0694933 0.0369799 0.995337 43 45 43
56.176 -1147.32 -2128.06 -0.131338 -0.0772301 0.963825 44 47 44
72.6618 -1147.66 -2133.35 -0.348756 -0.20844 0.818629 43 46 43
72.8967 -1139.91 -2130.35 -0.459426 -0.297309 0.770935 42 46 41
-275.79 95.5336 -2129.46 0.578164 -0.280496 0.758439 255 253 245
-274.276 96.4344 -2129.9 0.540818 -0.311316 0.768631 255 253 245
-265.724 103.771 -2129.6 0.376017 -0.46584 0.791908 255 252 236
-260.738 102.32 -2132.06 0.277962 -0.438663 0.844092 254 251 237
-260.747 106.309 -2129.78 0.311147 -0.46026 0.819338 255 251 234
-246.051 111.102 -2131.16 0.187109 -0.439145 0.866945 254 251 237
-251.529 111.633 -2129.42 0.205247 -0.432557 0.864476 254 251 237
-238.573 112.285 -2132.26 0.175304 -0.438225 0.872406 254 251 239
-234.71 112.923 -2132.57 0.184755 -0.432715 0.873268 253 251 243
-226.351 123.208 -2128.26 0.215339 -0.477602 0.848239 253 252 237
473.163 -17.2384 -2132.73 0.362918 0.611451 -0.654557 206 176 160
480.643 -18.3886 -2131.9 0.0903827 0.557813 -0.769433 223 193 178
488.35 -14.4519 -2132.11 -0.192347 0.362005 -0.874643 234 205 191
473.193 -13.0145 -2130.47 0.330707 0.489038 -0.76477 226 195 180
474.268 -2.40054 -2127.91 0.333669 0.254862 -0.900097 248 218 204
467.207 0.0766083 -2130.99 0.397439 0.305242 -0.862922 244 213 197
471.598 -0.425644 -2129.12 0.359852 0.265304 -0.883648 245 215 200
472.907 6.38189 -2130.05 0.279766 0.277665 -0.873931 241 210 194
479.768 -9.38946 -2128.84 0.0716541 0.354502 -0.902224 245 215 200
477.617 -5.19692 -2128.04 0.150137 0.28975 -0.912546 249 218 204
491.961 -12.7484 -2133.46 -0.30488 0.252361 -0.886025 234 205 191
477.998 2.08171 -2128.81 0.133707 0.202284 -0.919076 247 217 203
476.656 7.679 -2130.37 0.163482 0.249256 -0.883546 241 210 195
485.923 11.2287 -2133.86 -0.231407 0.145785 -0.917398 244 214 201
-295.754 -985.796 -2122.84 0.67466 -0.132331 0.723565 34 37 34
-291.688 -982.056 -2127.83 0.771716 -0.0876942 0.613243 33 36 33
-296.275 -968.466 -2122.97 0.716757 0.0567215 0.677661 33 37 34
-181.41 -1046 -2126.44 0.446421 0.21302 -0.871467 32 32 32
-183.063 -1044.16 -2127.01 0.454329 0.19724 -0.868677 31 31 31
-181.303 -1035.47 -2125.36 0.441425 0.135333 -0.886327 31 31 31
-182.988 -1030.8 -2125.87 0.471234 0.127365 -0.87107 30 30 30
-190.199 -1018.49 -2127.25 0.584726 0.179559 -0.793662 28 28 28
-180.092 -1023.16 -2122.55 0.434163 0.173208 -0.881949 28 28 28
-191.24 -1011.79 -2126.35 0.600163 0.136269 -0.784709 28 28 28
-188.027 -1009.05 -2124.04 0.564864 0.121085 -0.808273 29 28 28
-184.753 -1006.94 -2121.7 0.480331 0.127754 -0.861435 28 27 28
-191.969 -990.645 -2126.21 0.725819 0.0898211 -0.677709 31 30 30
-193.281 -986.271 -2127.07 0.741346 0.0813838 -0.6608 30 30 30
-192.332 -981.744 -2125.32 0.724592 0.0643822 -0.673293 29 30 30
-192.906 -975.367 -2126.02 0.744974 0.0157535 -0.655336 28 29 29
-373.477 -958.119 -2127.36 0.687502 -0.180395 0.702014 43 47 44
-369.844 -949.151 -2127.63 0.645527 -0.155884 0.741269 42 46 43
-312.636 -695.185 -2122.31 0.912876 -0.016515 0.204859 43 45 42
-318.443 -684.337 -2125.16 0.7316 0.00784429 0.558773 42 45 44
-322.846 -677.581 -2122.59 0.649742 -0.00319615 0.667472 43 45 44
-311.886 -687.12 -2123.34 0.893285 0.05115 0.294441 42 44 42
-320.374 -675.577 -2125.7 0.532195 -0.035739 0.757886 43 46 45
-316.407 -673.471 -2122.66 0.546378 -0.0161084 0.745654 42 45 44
-204.976 -758.831 -2127.09 0.648405 -0.141124 -0.749504 30 31 31
-202.357 -753.624 -2126.26 0.611759 -0.0994297 -0.779687 31 32 32
-198.758 -762.615 -2122.22 0.52481 0.0106234 -0.836808 32 34 34
-194.894 -747.743 -2122.07 0.573177 0.0070065 -0.814524 33 34 35
-198.935 -742.818 -2124.84 0.62416 -0.00168022 -0.778211 34 35 35
-202.822 -724.761 -2126.47 0.624212 0.159587 -0.759738 39 39 41
-198.206 -735.301 -2123.88 0.656887 0.0385136 -0.751395 36 37 38
-198.473 -720.809 -2121.83 0.640985 0.204655 -0.735254 36 36 39
13.9218 -1219.42 -2127.09 -0.115664 -0.701661 0.433009 22 24 24
-172.153 -1126.87 -2124.08 0.276126 0.0866608 -0.393133 32 32 31
-169.88 -1109.41 -2123.76 0.307971 -0.0331859 0.0160265 30 30 29
-168.406 -1102.4 -2123.25 0.293853 -0.0333979 -0.0593364 31 31 30
-163.915 -1092.88 -2125.26 0.226233 0.139217 -0.433401 32 31 31
-170.135 -1061.37 -2125.36 0.377385 0.245753 -0.868313 32 32 32
-174.931 -1055.61 -2126.03 0.441012 0.245872 -0.867204 32 32 32
-163 -1063.46 -2122.96 0.154084 0.176984 -0.680966 28 29 29
-171.381 -1043.61 -2122.49 0.290767 0.127856 -0.945332 32 32 32
-162.365 -971.653 -2128.01 0.909075 -0.0172965 0.400751 30 32 30
-53.1259 -1057.43 -2126.2 -0.403937 -0.073125 0.818407 31 34 31
-55.0684 -1048.77 -2126.18 -0.503256 -0.0598694 0.796094 28 32 29
-46.5784 -1059.91 -2126.37 -0.0249661 -0.166785 0.951319 35 38 35
-41.7171 -1061.33 -2126.96 0.137619 -0.23318 0.94317 36 39 36
-37.8881 -1056.38 -2127.05 0.125798 -0.0971636 0.991131 37 39 37
-28.3651 -1059.52 -2126.48 -0.0739378 -0.157562 0.965772 40 42 41
-25.8173 -1055.51 -2125.85 -0.0825574 -0.0699289 0.974818 40 42 41
-39.5533 -1050.22 -2126.63 0.179153 -0.0394974 0.994687 36 38 37
-37.9498 -1043.98 -2126.01 0.17631 -0.0578773 0.952459 37 39 37
-39.0103 -859.189 -2125.05 -0.836297 -0.0111589 0.539081 34 37 32
-38.7111 -847.858 -2124.85 -0.784571 0.0118317 0.618169 33 36 32
-36.7775 -846.576 -2122.71 -0.747198 0.0277497 0.666044 33 36 33
-38.1028 -830.744 -2124.19 -0.781672 0.0132438 0.621659 32 35 32
-38.2607 -823.328 -2124.28 -0.799824 0.0204395 0.592993 33 35 33
-36.8709 -822.792 -2122.81 -0.766461 0.0243635 0.638455 33 35 33
-34.7782 -809.356 -2122.56 -0.75753 0.141258 0.62071 33 36 34
-34.3044 -800.219 -2124.62 -0.804804 0.163662 0.550633 33 36 33
-34.4934 -791.338 -2127.49 -0.840805 0.15574 0.508799 33 36 33
-31.4082 -784.85 -2124.37 -0.827527 0.113278 0.549605 33 36 33
-33.0459 -775.086 -2127.85 -0.911241 0.100195 0.386947 34 37 35
-163.809 -758.821 -2125.35 0.632995 -0.125981 0.747392 39 42 44
-162.983 -762.529 -2124.36 0.664329 -0.115009 0.689123 38 41 43
-307.695 -353.453 -2124.17 0.900193 -0.168777 0.362394 57 61 58
-303.947 -346.918 -2126.29 0.797983 -0.350751 0.452885 58 60 58
-299.286 -339.504 -2121.74 0.757619 -0.356547 0.365669 56 59 56
-295.987 -330.872 -2122.05 0.796446 -0.230492 0.333712 53 55 54
-292.806 -325.05 -2124.64 0.7469 -0.253064 0.468092 52 53 54
-291.478 -313.355 -2122.54 0.626443 -0.24752 0.726074 57 59 59
-281.065 -310.091 -2126.12 0.4516 -0.338524 0.796779 60 63 59
-276.187 -301.94 -2126.2 0.479637 -0.229523 0.801371 61 63 59
-282.93 -301.472 -2123.41 0.574215 -0.198496 0.752756 59 61 59
-276.956 -291.839 -2124.55 0.586628 -0.105376 0.759133 58 61 57
-10.7267 -409.801 -2124.18 -0.817055 -0.0548041 0.544841 49 52 50
-12.7123 -392.434 -2122.11 -0.884671 -0.301159 0.260349 48 50 47
-14.0842 -387.812 -2122.16 -0.86649 -0.3374 0.304472 47 50 47
-15.2839 -381.878 -2122.65 -0.829935 -0.20676 0.452318 47 50 47
-14.9186 -367.736 -2122.23 -0.809756 0.0167261 0.557183 47 50 47
-27.8455 -342.629 -2124.08 -0.791589 -0.387183 0.447081 47 50 47
-29.2057 -336.192 -2121.97 -0.807649 -0.355581 0.438997 46 49 45
-38.3988 -314.574 -2127.27 -0.838717 -0.161311 0.500996 49 52 48
-33.8821 -318.689 -2121.74 -0.808029 -0.218854 0.525462 47 50 46
-21.002 -351.727 -2121 -0.768209 -0.418726 0.450753 48 51 48
-24.8557 -349.393 -2124.29 -0.731714 -0.480699 0.47185 47 50 47
-324.347 -861.957 -2129.82 0.380786 -0.0712155 0.950422 44 48 44
-324.145 -842.596 -2128.39 0.384703 -0.0882273 0.911454 44 48 44
-320.732 -847.13 -2131.25 0.385813 -0.0876134 0.929162 44 48 44
-315.466 -839.619 -2132.72 0.359949 -0.140588 0.915011 44 48 44
-258.158 -862.795 -2123.3 0.308572 0.111241 -0.818015 38 41 40
-261.179 -852.912 -2126.97 0.317469 0.101833 -0.834768 38 40 39
-264.197 -844.282 -2131.74 0.311439 0.105966 -0.833047 38 40 39
-259.218 -845.584 -2123.76 0.330372 0.0893183 -0.8126 38 40 39
-260.35 -841.382 -2125.32 0.323441 0.0927077 -0.809846 38 40 39
-264.115 -827.666 -2131.69 0.307346 0.0994495 -0.798062 38 40 39
-257.843 -835.432 -2121.61 0.348347 0.0714991 -0.79398 38 40 39
-263.649 -819.383 -2131.43 0.342953 0.0610165 -0.796328 37 40 39
-259.64 -825.778 -2124.52 0.352807 0.0618308 -0.791357 38 40 39
-260.38 -813.999 -2126.09 0.398066 0.0123076 -0.790942 37 39 39
-166.78 -861.456 -2132.01 0.910238 -0.0732039 0.400859 34 38 37
-165.096 -861.515 -2128.84 0.913338 -0.0718845 0.377005 34 38 37
-165.269 -843.596 -2127.5 0.745596 -0.0488617 0.253727 32 35 34
-163.611 -842.36 -2122.82 0.583738 -0.0694847 0.024284 29 31 31
315.458 40.4616 -2127 -0.236775 0.112962 -0.891637 234 205 192
333.393 37.9464 -2133.32 -0.285201 0.00299499 -0.898789 241 213 200
-400.986 -1080.02 -2115.52 0.967622 -0.071164 0.218323 42 45 40
-400.513 -1080.88 -2117.33 0.952165 -0.0820668 0.26141 42 45 40
-397.452 -1064.73 -2116.77 0.899059 -0.231075 0.315139 43 46 41
-340.651 -1220.13 -2116.3 0.338298 0.644695 0.614071 40 40 38
-325.407 -1223.1 -2121.42 -0.0379823 0.540118 -0.0563157 40 38 37
-334.469 -1218.38 -2120.85 -0.147872 0.541924 -0.209277 43 41 39
-372.879 -1203.23 -2120.05 -0.296618 0.477414 -0.160852 42 42 39
-357.818 -1208.65 -2120.99 -0.0993759 0.271349 -0.0226618 38 38 35
-362.29 -1207.84 -2121.1 0.115078 0.107451 0.108556 39 40 36
-374.765 -1186.55 -2116.47 0.650258 0.0148985 0.419002 44 46 42
-369.932 -1182.79 -2121.18 0.597569 -0.165704 0.614356 45 48 43
-370.362 -1170.6 -2119.43 0.643409 -0.0508086 0.757665 43 46 41
-367.615 -1169.19 -2121.48 0.622291 -0.0415094 0.780972 43 46 41
-375.172 -1158 -2118.07 0.646738 -0.0510641 0.756061 42 45 40
-374.18 -1146.19 -2119.09 0.601142 -0.145161 0.753259 43 46 41
-371.699 -1142.59 -2118 0.506163 -0.267506 0.769255 43 46 41
-362.608 -1140.8 -2119.59 0.297222 -0.4083 0.856116 45 48 43
-356.078 -763.956 -2119.2 0.646489 -0.110598 0.717298 45 48 45
-354.906 -756.996 -2119.57 0.620922 -0.0854651 0.713148 44 47 45
-356.863 -740.169 -2116.95 0.745571 -0.0608596 0.651228 42 45 42
-330.765 -761.282 -2118.19 0.614526 -0.0247615 0.279687 42 46 42
-329.186 -755.037 -2120.65 0.54243 -0.0257283 0.517261 44 47 44
-331.297 -741.709 -2116.41 0.648039 -0.033325 0.168187 42 45 42
-356.614 -735.182 -2116.86 0.73545 -0.0581039 0.690865 42 46 43
-357.203 -723.289 -2115.96 0.68424 0.00272941 0.736432 43 46 43
-355.963 -719.908 -2116.78 0.640451 0.0061455 0.765679 43 46 44
-350.168 -728.658 -2119.65 0.582818 -0.0803642 0.788835 44 47 45
-328.805 -729.739 -2117.69 0.601576 -0.0393745 0.586943 42 45 43
-349.365 -721.339 -2119.87 0.542628 -0.0683781 0.814527 44 47 46
-329.847 -725.085 -2116.34 0.59222 -0.0439885 0.583155 42 46 43
-328.282 -716.379 -2117.2 0.580686 -0.0584396 0.657463 42 46 44
-307.638 -756.459 -2121.34 0.950556 -0.000818399 0.278252 38 41 38
-311.012 -749.657 -2115.35 0.855808 0.00920688 0.480166 38 41 37
-308.622 -735.606 -2121.38 0.963868 0.046209 0.219201 39 42 39
-325.216 -718.287 -2120.33 0.632983 -0.0345796 0.602952 42 45 43
-311.995 -716.139 -2117.95 0.851604 0.0622921 0.432512 39 42 39
-354.228 -708.615 -2116.94 0.567423 -0.181461 0.79148 43 47 45
0.932127 -1077.07 -2121.39 -0.271308 -0.373078 0.878368 43 47 46
1.57287 -1068.37 -2121.46 -0.148064 -0.106344 0.953078 43 48 46
48.8252 -1233.08 -2117.38 -0.1611 -0.30264 0.557474 44 44 43
44.7213 -1220.94 -2119.76 0.120283 -0.485036 0.701279 44 44 43
47.4289 -1212.92 -2116.35 -0.432825 0.260542 0.457591 45 45 44
47.2885 -1203.96 -2121.06 -0.570606 0.444311 0.646224 45 45 45
52.025 -1201.16 -2119.41 -0.521265 0.589029 0.500735 44 44 44
63.3929 -1199.28 -2113.91 -0.421943 0.73455 0.457386 47 47 45
65.5477 -1192.01 -2121.96 -0.312609 0.585268 0.690336 35 33 32
72.4307 -1188.82 -2120.79 -0.515884 0.505934 0.583702 39 38 37
-159.272 -783.648 -2121.52 0.868527 -0.0809366 0.432355 33 36 35
-160.164 -774.689 -2121.6 0.811228 -0.0752391 0.459668 33 37 36
-152.84 -765.213 -2119.67 0.702295 0.0535685 0.599643 33 37 37
-149.788 -766.729 -2120.45 0.739437 0.0639531 0.633723 33 37 37
-35.9649 -856.016 -2120.94 -0.774242 0.0719935 0.613985 34 38 33
-35.3352 -849.634 -2120.98 -0.737116 0.0592051 0.66743 34 37 33
-28.3532 -845.223 -2115.38 -0.614724 0.0768366 0.779287 34 38 34
-28.5623 -834.441 -2115.41 -0.582048 0.00511519 0.804913 32 37 34
-33.5473 -824.223 -2119.89 -0.689446 0.019241 0.717204 32 36 33
-32.3771 -816.82 -2119.26 -0.684039 0.0733088 0.725443 33 36 34
-7.9128 -611.894 -2117.32 -0.772436 0.221061 0.576303 35 39 41
-5.83602 -603.373 -2117.47 -0.77829 0.225121 0.582917 35 39 41
-7.02263 -594.765 -2121.18 -0.778904 0.196315 0.593919 36 40 43
-2.87453 -586.332 -2119.3 -0.766508 0.153752 0.612073 37 41 43
-1.64066 -574.758 -2118.86 -0.825747 0.110697 0.545319 37 41 43
-0.148935 -582.799 -2116.62 -0.753538 0.0755552 0.643334 36 40 42
-155.502 -563.073 -2119.99 0.897633 0.171848 0.316589 27 29 34
-171.089 -535.202 -2121.5 0.567423 -0.499588 -0.410896 24 24 31
-170.802 -523.182 -2115.12 0.490499 -0.487534 -0.454502 23 22 30
-173.864 -516.606 -2121.01 0.427394 -0.527133 -0.476022 26 25 32
-289.281 -4.39726 -2116.29 0.77231 -0.0294315 0.353606 217 211 166
-285.409 -7.13861 -2121.07 0.826982 0.141333 0.383845 217 212 170
-289.33 -0.0169638 -2121.16 0.71247 0.129215 0.521885 225 219 179
-302.37 15.0595 -2119.45 0.624408 0.0965484 0.776212 244 241 203
-304.234 20.3805 -2118.3 0.608827 0.100514 0.784021 241 240 200
-309.017 28.1247 -2117.95 0.502292 0.165289 0.836991 240 238 197
-309.288 33.3921 -2119.37 0.421372 0.126191 0.886559 244 242 199
-299.654 21.5385 -2121.38 0.593666 0.0204657 0.802698 249 245 208
-315.691 45.6904 -2116.28 0.470907 -0.0365116 0.876798 247 245 201
-310.838 49.2341 -2118.21 0.457955 -0.0778021 0.877978 248 247 204
-309.078 50.0255 -2119.2 0.449827 -0.0689188 0.883407 249 248 207
-309.63 54.9241 -2117.61 0.496239 -0.123825 0.8564 249 249 208
-47.0046 -94.3745 -2121.18 -0.930758 0.147469 0.282783 204 193 140
-44.5197 -84.3175 -2118.82 -0.921894 0.186608 0.342097 204 190 138
-41.8502 -76.165 -2118.9 -0.891738 0.287382 0.347958 204 189 138
-35.1634 -62.5914 -2120.58 -0.828598 0.30658 0.394254 208 191 143
-32.0095 -53.77 -2115.84 -0.955056 0.14525 0.1959 204 185 136
-31.5262 -45.6605 -2115.78 -0.925455 -0.0209036 0.355035 191 168 126
-36.84 -33.7127 -2119.49 -0.775706 -0.517357 0.362945 196 166 138
-34.1331 -26.2366 -2119.3 -0.66772 -0.301238 0.433899 205 184 149
-27.9141 -25.6844 -2116.06 -0.696245 -0.192595 0.504802 191 172 133
-17.9469 -30.7339 -2119.31 -0.751838 0.243396 0.486433 182 177 134
-354.77 -1010.96 -2114.13 0.506528 -0.17946 0.565287 41 43 41
-322.536 -1008.86 -2109.76 0.402348 -0.11153 0.903882 39 42 39
-318.69 -1011.17 -2111.65 0.420044 -0.0581488 0.901583 39 41 39
-318.197 -1001.81 -2111.34 0.450962 -0.100104 0.884473 38 41 38
-314.551 -996.542 -2112.24 0.489524 -0.143181 0.857847 37 40 38
-310.617 -997.004 -2114.3 0.53035 -0.155538 0.830531 37 40 38
-316.107 -983.355 -2109.09 0.517395 -0.0982257 0.848943 35 39 36
-313.001 -987.089 -2111.27 0.500409 -0.125546 0.854992 36 39 37
-311.221 -980.813 -2111.47 0.516614 -0.0798221 0.852596 35 39 36
-311.115 -973.205 -2111.19 0.528887 -0.0272962 0.845706 34 38 35
-311.851 -967.367 -2111.1 0.527446 0.00663787 0.836689 35 39 36
-184.4 -879.198 -2112.31 0.857357 -0.060579 -0.517696 35 35 35
-184.238 -875.011 -2112.56 0.847518 -0.0660323 -0.529716 36 36 36
-375.774 -845.584 -2112.31 0.935791 0.118587 0.363028 42 46 43
-373.165 -864.449 -2110.22 0.907557 -0.183993 0.202137 41 45 42
-375.237 -847.7 -2111.91 0.930731 0.127241 0.33878 41 45 42
-337.961 -850.789 -2113.28 0.523368 0.0313453 0.200073 39 43 39
-373.909 -829.072 -2112.93 0.831098 -0.122931 0.524226 41 45 42
-191.383 -652.962 -2114.7 0.699046 0.0230979 -0.709466 32 32 36
-191.203 -648.442 -2113.73 0.701039 0.0677651 -0.705309 31 32 36
-187.824 -639.956 -2110.33 0.696712 0.0373671 -0.710743 31 31 37
-187.072 -639.049 -2109.69 0.696613 0.0251218 -0.710975 31 31 37
-187.559 -634.499 -2109.93 0.642748 0.045415 -0.755029 29 29 35
-196.702 -615.825 -2114.7 0.591014 -0.0328045 -0.797798 26 25 32
-195.868 -609.983 -2114.76 0.681517 -0.0977417 -0.710796 27 26 34
-191.933 -607.657 -2110.6 0.710465 -0.0692764 -0.693452 26 26 33
-188.87 -594.308 -2111.41 0.796207 -0.189509 -0.574069 24 24 32
-188.101 -585.7 -2112.11 0.821213 -0.199162 -0.533724 25 24 33
-183.541 -571.519 -2109.8 0.828794 -0.24603 -0.506979 26 25 34
-183.029 -570.019 -2109.62 0.82783 -0.258537 -0.503655 26 25 34
-343.324 -559.348 -2112.32 0.809087 0.0226068 0.599965 48 50 52
-341.11 -545.437 -2110.47 0.643705 -0.229017 0.69738 48 50 52
-340.686 -544.349 -2110.61 0.6325 -0.211408 0.714374 47 50 52
-337.228 -544.658 -2112.61 0.63751 -0.239647 0.692478 47 49 51
-161.318 -1008.36 -2109.98 0.217577 -0.0212138 -0.00013163 23 23 23
-166.191 -999.741 -2113.02 0.0174832 0.318207 -0.845149 23 23 23
-168.756 -991.36 -2109.07 0.134289 0.339136 -0.9196 24 24 24
-173.429 -980.17 -2110.3 0.309891 0.102171 -0.868199 24 24 24
-172.796 -970.364 -2109.95 0.277719 0.0675723 -0.933431 25 25 25
32.5225 -1025.25 -2112.64 -0.232664 -0.0331108 0.960453 43 46 45
35.6559 -1018.87 -2112.77 -0.178851 -0.000290736 0.98172 43 46 45
39.6705 -1022.18 -2111.76 -0.182627 -0.0381484 0.975894 43 46 44
39.878 -1016.41 -2112.33 -0.164849 -0.0310585 0.983351 43 45 44
51.7821 -1034.4 -2110.43 -0.47412 -0.0627681 0.831631 42 45 43
61.0379 -1028.05 -2109.32 -0.706936 0.0642203 0.661941 45 48 46
61.0277 -1025.52 -2109.24 -0.594262 0.0392203 0.732319 45 48 45
55.5132 -1018.69 -2110.78 -0.246935 -0.134609 0.976184 42 45 43
31.0252 -1008.75 -2112.49 -0.0271383 -0.151167 0.975167 45 48 48
36.6065 -1004.65 -2112.34 -0.0198088 -0.0871045 0.984405 44 47 46
47.0091 -1009.64 -2110.62 -0.213418 -0.0940716 0.964424 43 46 44
37.5862 -1003.46 -2112.2 -0.0252337 -0.0837921 0.982765 44 47 46
28.6409 -1001.62 -2110.42 0.103732 -0.211259 0.962246 44 48 47
31.0545 -996.963 -2110.91 0.157111 -0.116673 0.98383 44 47 45
42.5462 -996.911 -2109.98 -0.27329 -0.174283 0.930535 43 45 43
53.4456 -1011.45 -2109.71 -0.25855 -0.15738 0.951602 42 45 43
35.4682 -984.53 -2110.08 0.028613 -0.138397 0.97897 42 45 43
37.4744 -987.064 -2110.29 -0.0524831 -0.127007 0.969791 43 45 44
-0.0960322 -616.424 -2110.32 -0.519471 0.00680333 0.846363 37 41 43
-3.03254 -603.93 -2114.36 -0.720135 0.218465 0.65337 36 39 42
3.29027 -601.74 -2109.8 -0.609661 0.180792 0.769131 38 42 44
5.29441 -593.279 -2110.46 -0.652334 0.171428 0.736605 37 41 43
1.34249 -588.317 -2114.96 -0.697904 0.120447 0.704925 36 40 42
6.43602 -580.007 -2110.43 -0.66785 0.0151067 0.736924 38 41 44
7.95542 -576.655 -2109.14 -0.639819 0.00223578 0.765226 38 41 45
-175.123 -548.929 -2110.45 0.757901 -0.431956 -0.489896 27 26 33
-167.078 -532.926 -2111.54 0.381571 -0.610122 -0.501759 21 20 27
-167.393 -528.4 -2115.24 0.358678 -0.638546 -0.517525 20 19 27
-312.873 62.2145 -2114.37 0.47152 -0.133908 0.873294 250 249 213
-313.24 74.4979 -2114.08 0.410562 -0.137451 0.90232 252 251 221
-313.008 82.705 -2111.23 0.309676 -0.235966 0.913077 252 250 225
-309.308 79.9366 -2113.56 0.328262 -0.224854 0.913459 253 251 227
-299.321 85.4545 -2114.03 0.321635 -0.328378 0.883911 254 252 236
-305.599 88.2005 -2110.46 0.248038 -0.352072 0.898203 254 252 233
-294.168 97.1149 -2112.39 0.495685 -0.300371 0.808709 253 252 242
-296.494 102.04 -2110.33 0.472785 -0.241505 0.840091 254 253 242
-295.537 107.329 -2110.34 0.50389 -0.255749 0.810318 254 252 241
-288.536 114.016 -2111.9 0.462761 -0.453929 0.71261 254 252 242
-286.371 114.181 -2112.96 0.459398 -0.441631 0.728064 254 252 242
-280.384 123.014 -2110.1 0.407501 -0.539014 0.732977 255 252 243
-272.607 126.788 -2110.21 0.305272 -0.70932 0.601502 249 247 240
-268.538 124.841 -2113.63 0.28588 -0.720096 0.611747 251 249 242
-254.454 128.207 -2115.47 0.246095 -0.722665 0.628616 251 249 241
-254.19 133.182 -2110.16 0.240282 -0.769778 0.553561 228 226 220
-239.803 135.038 -2113.71 0.2839 -0.79394 0.502 131 130 126
-86.6637 260.249 -2113.66 -0.832398 0.261592 0.392965 34 31 34
-89.8175 269.406 -2112.14 -0.890158 -0.151593 0.33031 37 34 38
-87.2812 266.65 -2114.31 -0.893736 -0.00405727 0.415093 36 32 36
-126.644 304.1 -2112.4 -0.0897575 -0.159788 0.68148 37 37 40
-112.442 291.42 -2109.51 -0.56648 -0.820102 -0.176225 43 42 47
-118.165 294.707 -2109.51 -0.548104 -0.823294 -0.163043 42 41 46
-123.494 300.492 -2114.05 -0.334397 -0.528737 0.293753 41 40 44
229.991 -13.3465 -2112.98 -0.184755 0.387641 -0.748002 211 179 164
243.158 -11.8019 -2109.39 -0.170091 0.737252 -0.545071 176 145 132
255.969 -10.0951 -2110.32 -0.253652 0.739275 -0.576863 191 157 141
