ply
format ascii 1.0
comment Created by Open3D
element vertex 736
property double x
property double y
property double z
property double nx
property double ny
property double nz
property uchar red
property uchar green
property uchar blue
end_header
-204.368 498.374 -1522.28 -0.509535 -0.235898 0.388374 54 40 43
-196.768 470.605 -1517.08 -0.39315 -0.318528 0.831629 41 30 35
-194.323 508.087 -1517.49 -0.664768 -0.179145 0.184825 53 39 42
-181.518 513.767 -1522.23 -0.684141 -0.172544 0.233779 49 36 40
146.894 -342.245 -1517.2 0.858626 0.250787 -0.126409 66 57 64
148.181 -328.416 -1517.95 0.858739 -0.179436 -0.420221 230 223 228
146.389 -326.303 -1521.45 0.88462 -0.034775 -0.374587 210 201 206
346.001 107.802 -1521.16 -0.212226 -0.0683585 0.937997 239 225 237
292.677 121.082 -1521.37 0.313587 -0.365246 0.860081 229 215 226
297.463 130.066 -1520.17 0.216252 -0.231899 0.926719 228 213 225
300.036 128.357 -1521.27 0.194966 -0.279481 0.919453 230 216 227
300.539 135.762 -1518.95 0.11532 -0.181438 0.957988 229 214 226
317.652 131.01 -1521.92 0.0866238 -0.340853 0.914441 232 216 228
316.99 134.875 -1520.14 0.0804329 -0.27194 0.930436 232 216 228
340.524 120.542 -1521.64 -0.348221 -0.162976 0.907039 220 208 218
344.004 125.925 -1519.07 -0.37695 -0.143741 0.907606 218 206 216
319.249 136.477 -1520.33 0.110371 -0.228078 0.934845 232 216 227
343.321 127.22 -1519.26 -0.393888 -0.132084 0.90521 220 208 218
340.813 139.763 -1523.33 -0.216782 0.00817793 0.940837 228 213 222
347.746 106.72 -1520.79 -0.177363 -0.165848 0.926235 239 225 237
348.09 111.209 -1520.41 -0.224366 -0.110826 0.932164 235 221 232
367.107 107.173 -1522.29 0.13791 -0.201415 0.977407 220 207 218
364.477 112.274 -1520.31 0.0618625 -0.22122 0.964641 230 216 227
383.544 96.2758 -1521.37 -0.386838 -0.0631366 0.853677 235 224 234
388.673 97.7882 -1518.87 -0.596573 -0.00481745 0.692252 237 228 237
396.215 92.5839 -1522.76 -0.386743 -0.0851904 0.805758 244 239 245
385.653 105.646 -1517.2 -0.65855 -0.056246 0.672643 230 219 228
384.659 106.581 -1517.56 -0.598517 -0.0882585 0.705396 229 217 227
352.259 113.774 -1519.51 -0.130069 -0.139046 0.948219 235 221 232
346.947 125.463 -1517.89 -0.334195 -0.149739 0.918284 217 204 214
373.478 116.154 -1518.23 -0.10097 -0.35299 0.922651 229 214 225
367.858 121.931 -1516.45 -0.108622 -0.38795 0.912755 240 225 236
376.277 115.979 -1518.03 -0.116863 -0.342474 0.922527 227 212 224
-154.256 -758.887 -1513.69 -0.133459 -0.421286 0.898228 15 15 19
-194.411 -752.766 -1510.45 -0.685142 -0.0125087 0.719304 27 24 27
-173.928 -749.721 -1511.38 -0.645025 -0.0215432 0.732112 16 16 20
-168.169 -755.271 -1514.07 -0.559979 -0.115987 0.77319 14 16 20
-167.893 -747.113 -1510.28 -0.533125 -0.149196 0.787133 17 17 22
-147.135 -752.272 -1512.61 0.18938 -0.428887 0.866341 15 14 18
-201.795 -721.95 -1514.84 -0.944773 -0.156743 0.165573 26 23 26
-204.337 -709.391 -1509.18 -0.984123 -0.078121 0.160162 28 25 28
-205.584 -701.498 -1512.97 -0.877028 0.021469 0.427064 24 21 24
-204.093 -694.09 -1512.79 -0.884782 0.214179 0.401403 22 19 22
-202.962 -687.357 -1510.37 -0.864039 0.0283758 0.427224 22 19 22
45.7058 -711.529 -1515.37 -0.444832 -0.318179 0.839744 14 14 17
45.2592 -701.286 -1510.65 -0.350814 -0.316347 0.859433 15 15 18
58.6031 -709.341 -1516.16 0.374584 -0.420174 0.792229 14 14 16
55.0582 -701.622 -1512.28 0.266069 -0.240634 0.878238 16 16 19
21.1184 -691.407 -1515.47 -0.158535 -0.500884 0.8576 16 16 19
38.8666 -696.59 -1513.59 -0.334587 -0.322968 0.863234 14 14 16
40.2686 -689.468 -1510.62 -0.146127 -0.307775 0.90056 14 14 15
43.5959 -689.814 -1509.67 -0.0933433 -0.200646 0.933758 14 14 16
29.7816 -685.783 -1511.05 -0.119515 -0.406262 0.89944 18 18 20
53.3091 -694.844 -1511.04 0.174457 -0.074293 0.949887 16 16 19
48.4459 -692.959 -1509.86 -0.07557 -0.0626161 0.965102 15 15 18
56.4769 -690.726 -1511.59 0.211184 -0.0807703 0.942708 16 16 18
64.5793 -694.843 -1516.42 0.635998 -0.116929 0.751605 15 16 18
58.6648 -687.361 -1511.59 0.185884 -0.136318 0.934531 15 15 18
65.6033 -681.884 -1510.06 0.20775 -0.370887 0.875628 15 16 17
72.8541 -679.68 -1510.89 0.556021 -0.365504 0.669869 18 17 19
-101.435 -669.261 -1516.33 0.841743 -0.20167 0.487062 12 12 15
-101.891 -657.83 -1510.43 0.800514 -0.250911 0.536121 13 13 16
-94.2333 -640.422 -1510.36 0.842068 -0.137951 0.510415 12 12 14
-92.2667 -639.399 -1514.62 0.846999 -0.170014 0.491589 12 12 14
-88.3095 -622.02 -1516.27 0.840249 -0.180559 0.500129 12 12 14
-178.457 234.971 -1510.39 0.348409 0.763416 0.536413 227 203 203
-185.932 240.639 -1511.67 0.45098 0.703072 0.538003 223 200 200
-188.779 244.251 -1513.74 0.460311 0.699992 0.536623 222 199 199
-168.488 234.08 -1514.38 0.163836 0.79991 0.564729 229 204 204
-157.387 231.262 -1509.95 -0.0792424 0.79339 0.579383 233 208 210
-152.056 235.719 -1513.2 -0.291481 0.725644 0.604226 237 214 215
-225.578 262.55 -1514.79 0.354268 0.762328 0.532478 223 204 204
-244 269.261 -1515.69 -0.0211454 0.732682 0.673871 239 219 220
-236.355 264.824 -1511.32 0.115729 0.721743 0.637196 233 212 212
-214.549 250.752 -1510.6 0.457329 0.657066 0.599254 220 199 199
-219.863 256.231 -1511.48 0.41861 0.632932 0.62073 222 201 201
-199.415 250.311 -1514.18 0.265123 0.683323 0.650552 230 207 206
262.527 117.129 -1513.62 0.186371 -0.337684 0.917744 203 188 197
259.969 123.227 -1510.72 0.289735 -0.333407 0.862233 198 182 190
271.843 115.255 -1516.33 0.211431 -0.298119 0.925543 226 211 220
273.378 122.066 -1514.52 0.196021 -0.288511 0.933328 222 207 216
266.952 131.23 -1510.6 0.254018 -0.285112 0.910757 201 186 194
271.742 134.557 -1510.79 0.202212 -0.240393 0.945809 210 195 205
280.619 129.067 -1514.81 0.288367 -0.234068 0.918755 229 214 224
287.227 135.306 -1516.08 0.397775 -0.172698 0.901582 235 220 231
199.205 167.331 -1510.32 -0.159275 0.51514 0.822287 246 226 230
196.271 170.781 -1512.54 -0.0418746 0.364746 0.88463 246 226 230
195.304 180.237 -1516.53 0.224739 0.13659 0.951252 245 224 228
196.827 171.79 -1513.25 -0.0193074 0.35142 0.89284 247 226 230
207.898 175.597 -1513.59 -0.178698 0.500672 0.823834 245 227 231
186.071 185.177 -1513.27 0.250252 0.0886854 0.944831 237 217 221
190.421 188.715 -1515.69 0.361395 0.132658 0.933577 235 215 219
219.699 180.068 -1511.77 -0.290865 0.546608 0.77625 244 226 230
217.704 183.152 -1515.26 -0.248138 0.497047 0.81886 244 227 231
233.977 185.384 -1510.95 -0.0554272 0.367165 0.878782 240 222 225
230.584 192.459 -1516.11 -0.275892 0.408804 0.860749 244 226 228
280.39 145.46 -1511.81 0.361843 -0.152378 0.919443 210 196 205
286.711 142.321 -1514.81 0.359007 -0.171155 0.912692 232 218 228
286.681 151.045 -1513.74 0.276959 -0.137105 0.928068 221 206 216
288.164 156.384 -1513.33 0.278636 -0.168875 0.910376 220 204 215
248 171.614 -1511 -0.00430232 0.16322 0.907506 247 230 234
250.823 178.744 -1512.03 -0.126336 0.140433 0.919495 245 228 232
-28.4718 -1147.58 -1503.36 -0.442703 0.651374 0.518416 102 69 60
-20.6078 -1135.84 -1505.91 -0.261665 0.748518 0.486325 85 59 53
-4.21083 -1154.99 -1509.34 -0.54359 0.717252 0.342501 138 96 77
2.96845 -1152.14 -1503.19 -0.455164 0.832639 0.154642 147 97 79
17.9631 -1148.94 -1508.3 -0.14911 0.875512 0.401612 137 87 70
-29.3067 -1125.54 -1508.6 -0.0059262 0.87577 0.473645 67 51 48
26.9715 -1149.09 -1505.39 -0.0336341 0.913803 0.362584 99 63 54
29.4134 -1149.1 -1503.7 -0.0621815 0.937911 0.297231 92 58 52
43.5157 -1145.89 -1504.56 -0.175819 0.969485 0.0755098 113 70 58
52.9536 -1144.12 -1508.48 -0.0372034 0.892882 0.121544 125 79 62
67.6478 -1146.84 -1507.06 0.283691 0.77933 0.32031 119 84 72
111.422 -655.21 -1504.56 0.971961 -0.147497 -0.100248 25 20 25
114.829 -642.173 -1503.03 0.979584 -0.0941663 -0.175977 23 19 24
115.754 -637.253 -1508.51 0.985757 -0.102691 -0.0609947 25 21 26
116.78 -624.199 -1503.06 0.96959 -0.0722215 -0.101353 25 22 27
119.976 -608.423 -1506.83 0.93943 -0.227784 0.0769559 25 21 28
121.611 -593.166 -1504.19 0.939551 -0.0180141 -0.0530789 25 22 29
122.173 -590.248 -1508.23 0.906761 -0.080387 0.291823 24 21 28
124.004 -573.632 -1504.54 0.849973 -0.258817 0.408152 23 20 27
125.9 -570.956 -1504.76 0.80311 -0.351461 0.452893 23 20 27
144.221 -363.87 -1505.67 0.763389 0.144002 0.571099 55 53 58
144.226 -359.598 -1506.13 0.731585 0.166826 0.612359 59 55 60
-259.988 -347.538 -1510.2 -0.900907 -0.0589932 0.349305 28 24 30
-257.39 -340.329 -1502.94 -0.896812 -0.134101 0.442442 68 60 65
-262.075 -324.498 -1507.55 -0.918087 -0.105189 0.296624 218 202 209
-258.44 -314.017 -1504.92 -0.754949 0.218648 0.586925 248 228 235
-253.935 -305.619 -1504.9 -0.718585 0.302364 0.573924 243 224 231
-251.593 -296.474 -1503.56 -0.825007 0.257539 0.485541 245 223 229
-262.579 -271.045 -1503.26 -0.418614 -0.452313 0.574977 211 198 203
-279.812 -251.818 -1508.29 -0.678666 -0.0499906 0.529452 172 168 173
-278.231 -239.546 -1506.95 -0.742305 0.329419 0.353678 102 99 104
-266.21 -265.115 -1507.37 -0.396418 -0.30962 0.692952 226 213 217
-257.188 -260.775 -1504.17 -0.171886 -0.110679 0.78397 232 215 219
-252.246 -246.7 -1504.68 -0.570124 0.21412 0.528337 245 224 229
-252.739 -241.985 -1509.26 -0.314869 0.248194 0.734434 237 220 224
161.88 -27.6718 -1503.16 0.595211 -0.461287 0.292136 182 167 175
171.69 -18.6914 -1502.8 0.634841 -0.646165 0.207088 187 167 174
177.187 -15.0114 -1508.78 0.600074 -0.740207 0.213481 192 176 182
196.404 -3.35457 -1506.73 0.498434 -0.835941 0.181257 192 171 177
198.477 -1.89009 -1504.3 0.499288 -0.854862 0.121073 190 167 174
216.997 9.9815 -1504.34 0.615359 -0.748577 0.13011 190 170 178
220.115 11.9345 -1509.35 0.640676 -0.735638 -0.13338 191 172 179
-14.8219 279.066 -1503.13 0.657355 0.221132 0.7093 150 97 79
-12.1605 287.067 -1507.66 0.706649 0.0950967 0.680615 148 91 73
-12.4369 290.547 -1507.53 0.724845 0.0298605 0.670038 144 86 67
257.23 133.21 -1504.39 0.605871 -0.432604 0.667376 203 187 194
257.818 135.382 -1503.59 0.631548 -0.44696 0.661463 205 189 196
268.467 136.468 -1509.41 0.278285 -0.277514 0.904648 201 186 195
191.044 155.638 -1503.04 -0.237902 0.609556 0.754801 247 226 232
200.49 160.644 -1504.11 -0.174902 0.52809 0.825669 245 225 230
207.037 164.74 -1505.54 -0.139374 0.475633 0.842428 244 226 230
226.52 153.115 -1503.77 0.0213378 0.215293 0.966416 248 229 233
221.43 157.726 -1503.71 0.112666 0.146646 0.979863 243 225 229
220.179 166.591 -1505.18 0.0531885 0.213793 0.939981 241 223 227
238.658 159.438 -1506.46 0.0886939 0.302944 0.920178 249 230 235
232.965 161.505 -1505.98 0.144314 0.149484 0.983074 246 227 232
214.86 168.705 -1506.47 -0.102458 0.389517 0.861312 243 225 229
217.41 175.386 -1509.1 -0.307445 0.573989 0.760055 244 226 230
233.1 169.805 -1506.85 0.192701 0.0954023 0.983059 242 224 227
225.903 178.768 -1508.74 -0.166415 0.423522 0.835797 242 224 228
263.978 142.793 -1503.99 0.510943 -0.383759 0.774351 207 191 200
246.167 155.786 -1504.23 -0.137043 0.628599 0.754494 246 229 233
249.358 164.795 -1509.05 -0.146814 0.310944 0.866269 248 231 235
259.604 168.072 -1503.67 -0.523965 0.444021 0.737802 242 226 229
271.723 144.597 -1507.93 0.34644 -0.258502 0.888789 202 187 196
275.327 151.554 -1507.51 0.471808 -0.281551 0.83672 200 185 193
280.96 157.046 -1509.22 0.508472 -0.27941 0.827794 200 185 194
285.706 164.361 -1509.07 0.364844 -0.179339 0.832457 215 200 208
257.141 171.076 -1507.81 -0.51161 0.309839 0.803906 245 228 232
257.068 175.079 -1509.61 -0.5126 0.225716 0.847736 247 230 234
-191.64 -1147.13 -1498.43 -0.448884 0.831345 -0.0994049 137 102 86
-182.816 -1141.37 -1499.14 -0.523014 0.739678 0.151459 133 98 82
-157.729 -1136.53 -1499.65 -0.241964 0.562838 0.630189 155 108 87
-149.354 -1137.47 -1503.24 -0.188387 0.787084 0.613874 151 102 81
-168.508 -1134.59 -1497.13 -0.422406 0.64464 0.456528 118 87 73
-163.25 -1135.02 -1496.87 -0.282301 0.566612 0.522433 131 94 78
124.19 -1183.96 -1500.06 0.835841 0.400487 0.241675 116 84 67
122.997 -1181.3 -1499.37 0.802838 0.419405 0.273822 121 88 70
114.468 -1164.51 -1500.33 0.585293 0.551781 0.387124 79 54 48
122.02 -1176.61 -1500.84 0.781472 0.408873 0.331393 131 97 78
147.99 -1214.92 -1496.62 0.615494 0.696238 -0.0177553 55 40 36
134.49 -1201.22 -1498.66 0.704834 0.622722 0.0409501 67 49 43
77.5497 -1160.15 -1498.57 0.446294 0.548919 0.672967 83 62 55
85.8634 -1158.12 -1500.49 0.506323 0.529005 0.20388 85 63 55
96.3251 -1159.01 -1497.89 0.225347 0.757151 0.0750086 100 75 66
102.535 -1159.12 -1498.16 0.258527 0.812565 0.145256 94 69 61
102.097 -1155.46 -1501.65 0.188575 0.915555 -0.0808777 100 74 66
-221.333 -137.007 -1500.85 -0.819646 0.19593 0.201428 242 234 237
-450.684 51.7114 -1502.8 -0.00138792 -0.799407 0.35747 248 244 249
-440.101 50.9719 -1500.09 -0.0100575 -0.875656 0.313508 251 246 251
-421.851 50.5767 -1499.15 -0.0519338 -0.984353 0.231225 255 250 255
-408.931 50.3246 -1500.65 0.0138463 -0.87162 0.293884 251 250 255
-394.289 52.3632 -1496.48 -0.0325648 -0.948633 0.229376 252 253 255
-393.511 50.6503 -1501.24 -0.0543408 -0.973794 0.216518 248 249 253
-361.157 38.1173 -1498.07 -0.0473079 -0.690681 0.61594 220 217 227
-361.633 38.8881 -1495.9 -0.0418117 -0.66386 0.681262 221 219 228
-528.923 266.26 -1497.13 0.116551 0.916154 0.352729 253 250 249
-500.902 256.697 -1500.85 0.278862 0.938666 0.203774 255 252 252
-486.663 255.526 -1502.63 0.27284 0.937328 0.215385 255 253 252
-397.131 246.532 -1499.38 0.083609 0.850615 0.507169 245 240 240
-391.133 245.932 -1501.46 0.055942 0.84869 0.494122 245 239 239
-378.059 243.759 -1497.74 -0.0795892 0.868025 0.491061 241 233 233
-370.727 248.612 -1503.21 -0.0368459 0.854259 0.516494 235 224 225
-413.081 250.833 -1498.07 0.15556 0.654978 0.600636 243 233 235
-353.786 241.715 -1498.44 0.404653 0.678125 0.610578 217 204 203
-358.933 247.593 -1501.82 0.258814 0.757637 0.591643 226 214 216
-342.409 239.209 -1500.79 0.13132 0.682411 0.681697 223 206 207
-333.621 243.111 -1502.51 -0.240759 0.609242 0.744449 221 205 207
165.992 -23.375 -1501.55 0.59366 -0.520762 0.276215 184 167 174
172.679 -18.0748 -1497.55 0.628404 -0.698304 0.0740145 185 164 172
184.33 -9.95984 -1496.51 0.62321 -0.74153 0.036688 191 174 182
192.277 -5.23179 -1499.66 0.541036 -0.808401 0.0986007 190 171 178
207.43 4.74443 -1499.53 0.59276 -0.760513 0.222685 193 172 181
214.616 10.7555 -1498.65 0.609627 -0.726257 0.310871 191 171 180
219.845 14.6222 -1499.36 0.610165 -0.739412 0.242786 188 167 175
229.696 97.2665 -1500.65 0.573883 -0.43403 0.672074 186 169 175
236.216 106.157 -1500.15 0.60464 -0.445345 0.648585 189 172 178
204.948 124.454 -1496.33 0.207226 0.181027 0.926887 250 231 236
206.98 135.735 -1497.2 0.20195 0.120142 0.947932 247 227 232
214.641 132.485 -1498.6 0.0659966 0.20444 0.918186 248 230 234
213.066 135.919 -1498.78 0.129873 0.175085 0.935071 247 228 232
226.944 136.254 -1496.83 -0.409482 0.424475 0.792805 247 230 233
243.655 119.652 -1498.06 0.728417 -0.469898 0.524229 200 183 189
244.953 120.589 -1499.28 0.714911 -0.470156 0.534421 199 182 188
410.026 194.697 -1501.7 -0.0147788 0.199993 0.967327 241 229 235
676.27 182.555 -1501.92 -0.334842 -0.770379 0.533369 12 11 11
673.901 190.627 -1498 -0.289675 -0.677724 0.606482 1 2 2
603.296 204.218 -1502.49 -0.124751 -0.0834058 0.946301 200 150 147
610.536 203.807 -1497.57 -0.576327 0.249971 0.721916 202 150 143
595.451 212.458 -1503.06 -0.175033 -0.0101407 0.955902 202 162 161
638.226 197.304 -1500.06 0.312738 -0.364457 0.837088 206 194 201
639.637 196.436 -1500.66 0.288122 -0.420373 0.828879 203 190 197
620.217 209.939 -1496.68 -0.282122 0.499377 0.735285 192 151 148
621.334 215.853 -1502.17 -0.336848 0.536442 0.728176 163 127 124
633.271 214.26 -1497.98 -0.0219375 0.245107 0.866667 169 148 152
632.36 216.62 -1499.23 -0.0622098 0.246839 0.849222 161 139 142
643.467 218.545 -1498.09 -0.238245 0.10921 0.872274 144 123 127
654.143 199.326 -1496.79 -0.18257 -0.429599 0.851492 202 158 153
655.711 205.85 -1496.82 -0.00192297 -0.120541 0.902616 193 150 141
663.584 206.693 -1499.13 0.215704 0.291146 0.844299 124 94 86
664.701 202.786 -1497.5 0.0609354 0.125279 0.864578 93 73 68
647.273 221.435 -1501.03 -0.0614976 0.182725 0.861807 148 123 122
-428.933 252.963 -1498.47 0.170366 0.418106 0.740854 241 227 229
-416.024 253.522 -1503.54 0.159716 0.441514 0.753076 239 224 226
690.14 188.832 -1508.4 -0.354174 -0.44496 0.564611 10 8 9
689.949 203.974 -1508.52 -0.352148 0.354018 0.653667 8 7 8
688.038 208.054 -1505.99 -0.419387 0.576019 0.662045 2 2 2
-191.985 -1147.32 -1494.17 -0.495853 0.817046 0.0234553 157 116 95
-178.183 -1139.7 -1494.02 -0.483638 0.795122 0.232064 143 104 86
-172.716 -1137.05 -1495.31 -0.481336 0.741405 0.33846 126 93 78
-152.86 -1138.94 -1494.87 -0.129247 0.782547 0.365346 157 106 84
-147.551 -1139.85 -1495.64 0.01859 0.842208 0.33974 152 101 80
-126.492 -685.941 -1489.9 0.377567 -0.034119 0.923298 15 15 18
-124.86 -678.885 -1490.6 0.412297 -0.077641 0.894829 16 16 19
-123.041 -672.239 -1490.24 0.415352 -0.149344 0.886716 18 18 20
-115.882 -665.904 -1493.18 0.637841 -0.162877 0.738574 16 16 18
-114.772 -671.964 -1495.27 0.654559 -0.108126 0.72835 16 16 18
-110.888 -649.96 -1495.63 0.683216 -0.201287 0.688143 15 15 18
-111.31 -642.731 -1492.53 0.60703 -0.220047 0.754499 14 14 17
-106.796 -636.323 -1494.66 0.663749 -0.198721 0.717312 14 14 17
-107.144 -633.927 -1493.91 0.673471 -0.170185 0.715617 14 14 17
-106.905 -615.684 -1490.22 0.67993 -0.202446 0.697938 13 13 15
-98.3279 -608.909 -1494.87 0.638594 -0.345988 0.670381 12 12 14
-99.3638 -603.574 -1490.01 0.528736 -0.385453 0.740726 14 12 15
-94.2806 -598.955 -1491.24 0.603105 -0.404675 0.660827 11 12 14
-92.7973 -581.662 -1489.9 0.834066 0.0136677 0.514289 11 12 14
-90.3657 -568.335 -1493.58 0.843921 -0.176474 0.475427 11 12 14
-224.604 -146.143 -1494.63 -0.922722 0.180371 0.128458 254 249 251
-221.537 -140.14 -1495.38 -0.851963 0.26635 0.240106 249 244 247
-215.651 -133.866 -1490.55 -0.815724 0.272141 0.458651 250 242 247
-492.305 83.9336 -1492.34 -0.386594 -0.153934 0.738177 239 231 235
-445.298 51.1901 -1491.54 -0.00245596 -0.815665 0.344686 249 244 249
-427.935 51.1457 -1492.91 -0.0674659 -0.991218 0.224779 255 250 255
-416.161 50.7128 -1494.48 0.0166326 -0.850853 0.327126 255 250 255
-405.693 51.5025 -1493.84 0.257848 -0.420025 0.623067 252 252 255
-389.225 52.4743 -1494.9 -0.109863 -0.728607 0.478582 249 248 251
-392.091 55.8826 -1492.43 0.0565331 -0.606928 0.628462 250 248 251
-371.962 43.1938 -1493.94 -0.129227 -0.34718 0.844144 228 225 232
-366.784 41.6819 -1492.58 -0.088279 -0.47716 0.788269 224 223 230
119.889 -315.044 -1495.69 0.409543 0.130316 0.901077 209 188 193
118.227 -312.804 -1494.66 0.480123 0.136922 0.862791 214 193 198
107.489 -301.08 -1490.46 0.53018 0.219341 0.814826 220 199 204
106.262 -300.301 -1489.83 0.538923 0.22289 0.807553 218 197 202
117.713 -306.342 -1495.38 0.520423 0.166622 0.834448 218 197 201
126.003 -296.579 -1491.88 0.477496 0.203605 0.846889 219 202 204
136.202 -346.187 -1493.25 0.77841 -0.148489 0.2657 174 162 167
129.155 -325.277 -1490.86 0.0779183 0.024768 0.91258 201 185 189
146.772 -323.319 -1494.34 0.474754 0.0686611 0.473734 231 221 226
128.823 -315.798 -1494.92 0.270972 0.346487 0.830743 202 185 189
145.4 -317.833 -1494.21 0.260012 0.382503 0.501338 222 214 220
139.996 -302.178 -1490.91 0.697754 0.186643 0.567315 238 224 228
137.697 -298.113 -1488.97 0.656295 0.211652 0.691121 236 222 225
100.804 -279.369 -1490.59 0.691923 0.160866 0.703672 205 184 188
104.178 -288.177 -1492.48 0.601766 0.260629 0.743106 211 190 194
102.808 -282.754 -1492.37 0.64031 0.200463 0.731489 207 186 190
123.216 -280.647 -1493.46 0.424753 0.229364 0.896482 226 209 211
104.188 -271.986 -1495.74 0.616582 0.188116 0.757307 206 186 188
128.066 -272.889 -1492.56 0.579916 0.256559 0.670816 236 220 223
94.5259 -265.731 -1490.37 0.448477 0.263563 0.855568 199 177 182
98.5382 -255.217 -1491.75 0.634878 0.163698 0.743163 207 187 190
101 -247.362 -1495.63 0.674056 0.194648 0.699258 214 196 199
-140.606 347.556 -1490.92 -0.66428 -0.334216 -0.0704539 234 165 132
-131.749 345.632 -1492.99 -0.444555 -0.670409 0.344271 235 167 133
-118.488 346.148 -1495.01 -0.353966 -0.660191 0.492103 211 149 119
-120.472 355.373 -1489.23 -0.470718 -0.631287 0.402474 211 149 118
-90.495 333.244 -1492.8 -0.58342 -0.370439 0.620132 58 39 31
-101.022 341.071 -1493.58 -0.727038 -0.207267 0.601782 79 52 43
-82.8895 306.108 -1492.99 -0.449615 -0.220421 0.860212 162 102 80
-78.021 307.718 -1489.23 -0.537721 -0.199724 0.806463 143 88 69
-82.0047 324.046 -1490.4 -0.527922 -0.0538461 0.825296 69 42 36
-87.2491 326.496 -1492.67 -0.530471 -0.166902 0.756407 82 52 42
-135.724 396.605 -1493.33 -0.861256 -0.00798648 0.495918 161 101 84
-123.779 395.36 -1493.12 -0.923564 -0.0295426 0.374608 155 99 83
-137.746 400.816 -1494.79 -0.849336 -0.0174673 0.481784 174 108 90
-122.935 401.51 -1492.9 -0.914659 0.000987091 0.397523 155 95 77
-122.119 405.573 -1490.89 -0.911587 0.0119849 0.402365 147 86 68
-563.229 265.023 -1485.79 0.094424 0.589841 0.658524 240 218 212
-552.969 267.46 -1491.14 0.122595 0.7899 0.46762 248 239 235
-519.893 262.079 -1485.94 0.142986 0.91188 0.360977 254 252 251
-515.461 261.933 -1492.95 0.20196 0.920225 0.293205 254 252 251
-523.191 264.235 -1492.09 0.132144 0.919651 0.341007 253 251 250
-182.519 -615.115 -1474.57 -0.46873 -0.46336 0.699938 13 12 18
-183.175 -609.381 -1470.8 -0.401974 -0.401903 0.743645 14 13 18
-190.172 -595.48 -1474.89 -0.784261 -0.146202 0.596223 14 14 18
-166.895 -617.292 -1471.01 -0.225113 -0.384104 0.867486 14 15 19
-162.766 -608.279 -1469.92 0.239917 -0.233343 0.925632 17 17 21
-149.721 -618.319 -1474.84 0.352181 0.039342 0.935711 16 17 20
-151.021 -607.143 -1474.06 0.358948 -0.0611922 0.931449 15 15 19
-156.816 -597.841 -1469.29 0.380192 -0.258963 0.887235 17 16 21
-149.187 -600.82 -1472.79 0.296774 -0.18767 0.916453 15 15 18
-147.734 -598.858 -1472.1 0.24643 -0.247278 0.909989 14 15 18
-189.206 -590.147 -1472.04 -0.751913 -0.163594 0.638852 14 14 18
-194.345 -586.1 -1475.88 -0.800459 -0.216452 0.557587 13 13 17
-219.801 -562.866 -1472.5 -0.743985 0.215733 -0.00238538 25 22 27
-220.598 -554.388 -1473.58 -0.780854 0.273193 0.037526 26 23 28
-205.091 -560.381 -1470.48 -0.812748 -0.0870718 0.372944 16 16 20
-208.173 -556.624 -1469.6 -0.807545 0.0185115 0.248052 19 18 23
-221.387 -544.627 -1476 -0.809608 -0.0525588 0.214618 28 25 30
-202.315 -551.088 -1469.82 -0.8365 -0.145331 0.537698 12 14 18
-225.355 -526.834 -1470 -0.889308 -0.0291735 -0.00889257 27 25 30
-212.525 -178.876 -1475.03 -0.447745 0.187841 0.890527 240 220 227
-204.788 -180.257 -1469.9 -0.34441 0.0922648 0.892366 240 220 226
-208.237 -170.943 -1473.46 -0.493981 0.147671 0.81582 238 218 225
-210.109 -160.162 -1474.21 -0.729145 -0.025699 0.646237 235 215 223
-209.528 -151.744 -1471.25 -0.868747 -0.0557069 0.467377 241 220 227
-209.741 -143.419 -1472.21 -0.906724 0.0498378 0.407442 247 226 233
-189.197 -161.781 -1469.27 -0.372091 0.282211 0.875 235 214 218
-185.139 -152.544 -1471.74 -0.437602 0.310159 0.825898 233 213 218
-184.115 -150.173 -1471.18 -0.470501 0.274257 0.810414 231 212 216
-190.888 -143.775 -1473.63 -0.549518 0.214238 0.788567 229 209 213
-480.352 115.866 -1469.03 -0.698391 -0.192709 0.692491 246 232 233
-489.654 136.956 -1471.15 -0.702786 -0.208699 0.681433 242 229 228
-570.045 163.419 -1470.42 -0.160104 -0.88739 0.407514 121 109 122
-556.957 158.932 -1472.67 -0.173707 -0.775736 0.497758 132 115 124
-554.379 158.946 -1471.45 -0.171148 -0.777179 0.488711 132 115 124
-541.201 161.176 -1469.62 -0.0202688 -0.985006 0.194666 130 115 120
-522.981 163.089 -1470.72 -0.093065 -0.978603 0.211241 140 124 132
-499.965 154.408 -1474.06 -0.676786 -0.440308 0.56345 232 219 218
-511.886 161.652 -1473.24 -0.381838 -0.812968 0.36554 171 160 165
-499.384 155.832 -1469.85 -0.588449 -0.596921 0.471366 225 211 211
-495.214 147.199 -1473.17 -0.680055 -0.332239 0.637982 227 216 217
-433.598 97.5287 -1469.39 0.579072 0.0395466 0.808049 232 219 224
-431.955 104.738 -1470.82 0.556366 -0.0330316 0.826713 228 213 218
-428.162 107.335 -1471.88 0.449001 -0.17647 0.847341 224 209 213
-424.21 107.71 -1472.92 0.372189 -0.230811 0.867025 223 209 212
-418.424 109.862 -1473.42 0.303317 -0.240949 0.88879 224 210 213
-213.771 199.708 -1473.71 -0.233026 0.130716 0.9389 242 222 225
-211.676 205.44 -1474.38 -0.0740156 0.123132 0.946031 243 222 225
-197.934 199.912 -1468.83 -0.19419 0.625975 0.7167 241 219 222
-201.434 202.615 -1471.99 -0.179911 0.498471 0.803372 242 221 224
-215.159 209.57 -1475.29 -0.0236209 0.0668269 0.947334 243 223 226
-166.993 497.696 -1475.42 -0.65919 0.694201 0.0901077 46 39 43
-155.091 504.871 -1469.91 -0.695345 0.610864 -0.191513 45 37 42
-146.542 514.973 -1473.55 -0.773532 0.429041 -0.391393 38 30 34
61.8495 -217.578 -1469.41 0.2731 0.283615 0.875595 236 214 216
74.2716 -217.871 -1469.37 -0.0553577 0.480014 0.884208 247 225 225
61.9536 -207.651 -1470.54 0.518325 0.0965345 0.819473 223 201 203
67.9396 -198.493 -1473.5 0.352232 0.075351 0.886905 226 204 206
67.3625 -194.874 -1473.52 0.409577 0.0597397 0.867958 223 200 203
65.047 -187.041 -1471.56 0.588618 0.00540498 0.78552 213 191 194
65.6658 -184.148 -1471.75 0.617588 0.0103803 0.767243 212 190 193
69.1529 -175.559 -1474.84 0.639096 -0.0180893 0.752396 210 188 191
326.556 51.5567 -1470.77 0.139086 -0.979987 -0.0839304 157 140 146
340.451 51.0187 -1469.83 0.216678 -0.926011 -0.235243 166 148 155
323.679 80.7165 -1475.43 0.550531 0.649391 -0.126323 212 194 202
336.549 76.9224 -1470.45 0.572373 0.731032 -0.140447 213 195 203
350.296 51.7907 -1469.77 0.26185 -0.912177 -0.227449 167 148 156
353.901 54.4834 -1472.97 0.268559 -0.844283 -0.254464 171 151 159
349.71 72.82 -1472.26 0.577039 0.620781 0.213039 211 194 202
355.366 69.8432 -1471.53 0.561562 0.491568 0.5706 209 193 201
366.035 70.8721 -1474.06 0.559113 0.022219 0.239005 195 178 186
347.356 76.4788 -1476.65 0.474221 0.350953 -0.150983 208 191 199
-75.3433 321.624 -1475.86 -0.834058 -0.449412 0.329699 37 27 29
-72.7024 317.298 -1474.87 -0.806339 -0.438977 0.386293 45 31 31
-52.0418 307.622 -1471.39 0.27076 -0.597525 0.665478 45 30 30
-43.8145 311.278 -1473.23 0.295886 -0.672011 0.627935 28 23 27
-82.6873 331.195 -1474.25 -0.757803 -0.532703 0.27488 41 30 30
-139.233 376.628 -1470.12 -0.103335 -0.843894 0.422083 222 152 126
-133.354 378.579 -1476.27 -0.271805 -0.689234 0.404903 187 128 108
-116.667 382.329 -1471.92 -0.863973 -0.156021 0.301114 148 105 93
-113.36 366.125 -1474.66 -0.64548 -0.464658 0.274443 116 84 72
-131.862 385.723 -1472.43 -0.266895 -0.650445 0.40887 196 132 109
-117.041 391.163 -1472.91 -0.958851 -0.016106 0.281244 149 99 86
-117.977 398.98 -1474.24 -0.955675 0.00608754 0.287568 153 98 82
-117.739 410.436 -1472.01 -0.940956 -0.0240344 0.290437 135 83 70
-20.8686 315.923 -1473.68 0.521886 -0.802022 0.252183 34 25 32
-12.957 320.249 -1473.49 0.597263 -0.795957 0.17462 33 25 27
-2.30486 323.68 -1474.02 0.804563 -0.326496 0.266031 80 53 50
-0.595671 329.617 -1471.78 0.721344 -0.318578 0.502685 65 45 44
-0.501507 330.495 -1471.41 0.703501 -0.337447 0.528214 62 43 42
-905.791 190.97 -1475.2 -0.00715305 -0.767225 0.475606 173 154 148
-906.921 194.133 -1479.73 0.0101403 -0.692986 0.498677 173 149 142
-897.466 189.982 -1474.94 -0.0195122 -0.783604 0.456375 164 142 140
-901.961 191.374 -1476.19 -0.00665008 -0.737348 0.480722 169 146 141
-883.402 187.418 -1471.19 -0.0448802 -0.869262 0.413886 155 136 138
-867.319 186.109 -1473.62 -0.0270556 -0.870907 0.40756 153 134 136
-856.54 185.415 -1475.19 -0.0255655 -0.875694 0.391541 160 143 144
-836.624 183.364 -1471.32 -0.101217 -0.941507 0.252492 232 226 228
-821.973 182.335 -1473.28 -0.0204239 -0.942185 0.215477 235 229 232
-829.106 182.101 -1469.25 -0.127719 -0.957123 0.234059 242 238 239
-811.497 182.53 -1473.13 0.290954 -0.913484 0.120749 238 233 236
-812.887 184.414 -1479.45 0.232795 -0.909675 0.158229 228 221 224
-228.145 -393.859 -1467.17 -0.716758 -0.0276864 0.666048 31 28 33
-226.374 -378.701 -1467.48 -0.601117 0.0495283 0.70474 28 25 30
-223.86 -391.628 -1464.52 -0.611923 0.0434647 0.752448 31 28 33
-219.979 -376.307 -1464.1 -0.483926 0.0455007 0.784759 23 21 26
-225.606 -353.523 -1467.55 -0.565502 -0.115745 0.767441 190 170 176
-217.561 -361.596 -1462.93 -0.621484 -0.071437 0.769765 101 92 97
-223.701 -360.689 -1467.98 -0.562647 0.0385496 0.723066 89 77 82
-116.144 -1200.84 -1463.56 0.8722 0.431563 0.190921 52 40 37
-117.395 -1194.88 -1463.19 0.921078 0.299709 0.190488 60 48 43
-114.165 -1205.29 -1462.29 0.838033 0.501461 0.191753 41 30 28
-95.1334 -1206.35 -1462.74 0.790165 0.560636 0.207988 27 17 15
-93.8987 -1200.98 -1465.47 0.798657 0.559901 0.195446 28 17 16
-92.7571 -1196.61 -1469.47 0.813 0.550459 0.203138 26 16 15
-234.596 85.7872 -1462.67 0.421479 0.566266 0.698363 249 225 229
-217.584 77.7823 -1463.11 0.135803 0.352641 0.854202 247 225 229
-214.988 83.7832 -1462.87 -0.202395 0.117426 0.922019 243 221 224
-437.012 98.1689 -1467.08 0.549771 0.0339823 0.83543 233 219 225
-436.15 105.083 -1467.66 0.548425 -0.0156529 0.843229 229 215 220
-440.007 112.339 -1464.28 0.349416 -0.161522 0.903048 228 213 217
-427.945 115.759 -1468.7 0.351287 -0.363996 0.854955 222 208 211
-429.809 123.425 -1465.28 0.371526 -0.235772 0.873189 223 209 212
-421.289 123.682 -1468.64 0.316011 -0.179967 0.906927 226 212 216
-431.046 128.19 -1464.24 0.413007 -0.0706931 0.864423 225 210 214
-427.315 128.064 -1466.61 0.405163 -0.0489474 0.868492 223 209 212
-407.812 133.684 -1468.54 -0.111056 -0.317273 0.916111 226 209 212
-393.885 129.449 -1467.08 -0.124765 -0.416239 0.832335 238 219 222
-388.778 128.488 -1467.2 0.0334283 -0.358147 0.879811 241 221 223
-387.869 134.697 -1467.17 0.124486 -0.106522 0.928253 239 219 221
-377.134 134.391 -1467.62 0.130435 -0.242024 0.931499 235 214 216
-376.207 139.836 -1467.22 0.0272474 -0.118391 0.950091 235 214 216
-367.083 131.462 -1468.35 -0.033647 -0.231818 0.957203 234 213 216
-364.678 134.049 -1467.68 -0.00487364 -0.22152 0.959844 238 217 220
-451.66 166.375 -1462.12 0.421872 -0.0463587 0.843433 217 201 203
-15.8543 195.498 -1466.79 0.297791 0.476912 0.764961 235 212 215
-97.9282 341.922 -1466.58 -0.731169 -0.646504 0.173543 38 29 26
-103.138 349.62 -1462.35 -0.864347 -0.427011 0.197698 37 26 23
-64.3082 309.908 -1467.78 -0.452349 -0.653798 0.483516 43 26 26
-78.538 327.515 -1462.82 -0.714209 -0.67239 0.194454 37 30 25
-72.7551 320.619 -1467.56 -0.751951 -0.589742 0.272482 35 26 26
-52.139 309.981 -1466.24 0.32977 -0.743393 0.492409 33 25 27
-45.1749 313.502 -1463.55 0.298306 -0.82115 0.369558 30 25 28
-86.4991 333.66 -1469.15 -0.709025 -0.664849 0.20397 40 31 28
-139.075 378.777 -1467.74 -0.0334149 -0.908977 0.431176 225 154 127
-110.339 363.348 -1464.02 -0.902602 -0.321354 0.219642 76 58 54
-113.472 372.283 -1465.07 -0.806966 -0.270112 0.301653 122 91 82
-115.141 384.884 -1468.49 -0.951649 -0.0572954 0.302207 146 102 91
-130.806 395.53 -1463.9 -0.289913 -0.530712 0.414593 190 129 108
-114.06 388.768 -1466.44 -0.941543 -0.0288569 0.337223 148 103 92
-114.729 403.106 -1465.43 -0.926493 -0.0453216 0.311191 146 95 80
-118.638 -1187.29 -1459.31 0.95829 0.175009 0.196497 65 52 45
-120.57 -1173.62 -1457.86 0.949275 0.150567 0.293118 70 53 47
-125.675 -1165.44 -1455.33 0.766542 0.492574 0.314436 72 54 47
-104.447 -1178.07 -1459.56 0.0300788 0.860133 0.256251 71 44 39
-99.0255 -1171.34 -1455.6 0.0366578 0.852472 0.339418 112 72 60
-91.8831 -1168.49 -1460.21 0.215486 0.760743 0.412849 134 89 72
-56.4936 -1190.97 -1457.47 0.450793 0.694367 0.000585082 73 51 47
-40.9855 -1197.98 -1455.29 -0.0197385 0.97747 0.0400639 37 22 26
-76.0505 -1181.47 -1458.28 0.547738 0.748255 0.0138287 48 28 27
-62.6541 -1190.14 -1460.39 0.593896 0.729593 -0.0331611 82 57 50
-82.0813 -1172.32 -1460.84 0.470911 0.625973 0.521704 115 77 61
-48.2076 -1179.72 -1459.25 -0.696719 0.503388 0.0806478 85 61 57
-46.8582 -1181.67 -1458.04 -0.626488 0.518159 0.0989573 86 62 57
-49.6195 -1176.5 -1458.2 -0.601464 0.409713 0.135151 84 61 57
-139.339 -1156.19 -1455.58 0.0618197 0.890793 0.40335 88 66 56
-137.571 -1155.05 -1459.36 0.185468 0.869992 0.399573 96 69 59
-199.356 -47.6208 -1462.25 -0.618106 -0.431614 0.649706 193 175 185
-202.995 -38.2843 -1456.49 -0.592932 -0.559739 0.569304 193 176 185
-219.197 -25.1841 -1462.44 -0.666915 -0.46402 0.568703 187 170 179
-183.575 -70.1798 -1458.9 -0.649943 -0.466267 0.599428 210 194 204
-183.047 -72.9249 -1460.31 -0.657553 -0.467678 0.59249 209 193 204
-192.473 -59.6898 -1461.36 -0.630894 -0.427445 0.638956 209 192 202
-194.506 -54.8512 -1461.4 -0.627213 -0.384881 0.670688 202 185 195
-279.112 -10.2229 -1462.26 -0.801726 -0.545255 -0.206072 207 194 205
-284.76 -4.28973 -1457.13 -0.739258 -0.600799 -0.180456 206 193 204
-274.951 -16.3701 -1460.57 -0.811806 -0.56815 -0.105464 207 194 205
-255.509 -3.53204 -1458.95 -0.705887 -0.457478 0.208409 208 193 205
-260.631 2.17117 -1459.23 -0.691632 -0.47344 0.193395 207 193 204
-294.472 8.77571 -1460.19 -0.766004 -0.539682 -0.310437 202 190 201
-298.192 13.0577 -1459.51 -0.795464 -0.530692 -0.304104 201 189 199
-296.681 28.2182 -1456.99 -0.793366 -0.483992 -0.0660302 200 187 199
-288.565 28.2529 -1456.76 -0.730645 -0.452208 0.0984722 203 189 202
-268.842 10.4886 -1460.35 -0.430136 -0.371257 0.709399 204 188 197
-267.388 11.7265 -1458 -0.365145 -0.37366 0.812072 202 186 194
-252.548 17.5253 -1459.67 -0.568287 -0.50896 0.621658 195 179 187
-252.64 20.9296 -1456.76 -0.61505 -0.518694 0.591311 203 187 194
-262.377 26.3469 -1462 -0.479418 -0.396097 0.763519 191 176 183
-167.065 439.742 -1457.4 -0.943422 0.195486 0.0731603 122 85 80
-171.186 459.441 -1456.47 -0.620488 -0.334241 0.632543 60 40 42
-167.01 440.04 -1457.22 -0.940802 0.187141 0.0742994 123 86 81
-175.098 466.843 -1461.43 -0.580384 -0.314196 0.307768 40 30 33
-172.15 478.998 -1456.04 -0.795457 0.239568 0.268712 27 20 24
-165.817 492.137 -1457.57 -0.848544 0.441103 0.0227526 30 21 27
-162.558 499.357 -1457.43 -0.835602 0.339546 -0.286042 38 30 34
-157.317 509.744 -1458.13 -0.773072 0.45419 -0.410791 44 37 41
-148.825 518.037 -1460.93 -0.638796 0.449296 -0.442301 55 48 51
-147.659 523.342 -1456.18 -0.480695 0.230942 0.0227313 127 113 116
73.897 -334.106 -1457.79 0.618239 0.086599 0.773019 200 179 186
53.4249 115.982 -1458.21 0.553544 0.0264562 0.819279 189 174 176
47.4258 126.741 -1455.72 0.482115 0.1981 0.848438 215 198 199
54.6806 123.016 -1459.57 0.535765 0.0796774 0.827603 184 168 170
50.5713 134.041 -1459.5 0.48954 0.160078 0.851178 178 161 163
-22.2795 165.56 -1455.78 -0.1241 0.443155 0.879855 231 212 215
-1.59813 164.383 -1455.92 0.0480478 0.296643 0.947475 241 218 221
15.4266 159.519 -1456.59 0.110401 0.456496 0.853412 245 221 224
18.7619 167.896 -1458.91 0.104601 0.14873 0.959944 244 220 223
-32.9956 172.381 -1459.3 -0.0690465 0.29784 0.921062 241 220 223
-30.8384 176.564 -1460.33 -0.116854 0.210045 0.950132 242 222 224
-17.3302 170.195 -1457.18 -0.0791883 0.348922 0.923452 238 219 221
-16.4906 181.035 -1460.03 -0.0441624 0.207702 0.971758 242 220 223
-13.748 175.653 -1458.72 -0.0332977 0.258115 0.959516 242 221 223
-25.4881 183.834 -1460.65 -0.113386 0.132787 0.978883 242 221 223
-13.8989 184.382 -1461.12 0.0194531 0.257847 0.958121 241 220 222
-10.9228 186.287 -1461.6 0.0639246 0.310159 0.941198 241 219 222
4.89113 168.357 -1457.22 0.0885732 0.164788 0.971614 245 221 224
5.51003 175.32 -1458.23 0.0257786 0.144104 0.975172 241 217 220
9.63841 173.509 -1458.3 0.0889763 0.10817 0.975909 242 218 221
8.06576 178.85 -1459.31 0.055028 0.233898 0.929432 239 215 218
-5.14032 186.671 -1461.43 0.0936228 0.341686 0.920702 239 217 220
32.7272 152.958 -1455.44 0.254824 0.390578 0.875342 242 219 222
39.2304 152.4 -1456.77 0.304687 0.22777 0.914755 237 214 218
23.8353 156.604 -1455.68 0.113504 0.512321 0.836875 244 220 223
23.1975 163.731 -1458.34 0.065408 0.330649 0.912592 245 221 224
29.6584 164.673 -1458.83 0.0711162 0.269554 0.947373 244 220 223
41.7598 155.728 -1458.07 0.275742 0.199486 0.929657 237 215 218
44.9486 163.211 -1460.26 0.229529 0.220729 0.929558 239 216 218
52.276 149.281 -1461.42 0.422634 0.0501026 0.902532 225 205 206
50.1655 163.546 -1461.68 0.334098 0.227205 0.89359 236 214 215
29.2817 169.441 -1460.22 0.0785715 0.257649 0.947751 244 220 223
35.3864 171.56 -1461.45 0.130932 0.305598 0.931525 244 219 222
-753.705 183.991 -1457.27 0.0817067 -0.831903 0.436975 196 176 174
-766.835 186.155 -1465.92 0.32193 -0.892015 0.163256 234 226 228
-194.572 -364.558 -1448.63 -0.49625 -0.0680921 0.858762 105 97 102
-118.648 -1192.76 -1453.68 0.93575 0.270471 0.163858 61 46 40
-115.365 -1204.89 -1452.68 0.876022 0.412469 0.165209 50 37 33
-102.884 -1210.11 -1454.64 0.823556 0.536277 0.177035 20 11 11
-101.024 -1198.54 -1452.6 0.811309 0.506931 0.18387 33 21 19
-122.595 -1177.15 -1449.57 0.940953 0.207245 0.248786 71 54 45
-122.913 -1175.02 -1450.27 0.918718 0.231918 0.26792 71 55 46
-105.143 -1189.9 -1451.26 0.476118 0.67401 0.221152 55 35 31
-105.16 -1177.04 -1454.09 -0.0139609 0.892072 0.281205 65 40 36
-94.2938 -1172.37 -1450.95 0.231543 0.803774 0.386947 133 88 72
-76.2559 -466.474 -1450.99 0.494823 -0.342629 0.733441 19 19 21
-72.2944 -463.935 -1455.1 0.742731 -0.245778 0.6155 20 20 22
-11.3723 -479.463 -1454.37 -0.25556 -0.40068 0.823703 12 12 15
-7.55356 -475.699 -1451.52 -0.131735 -0.477717 0.827618 13 13 17
-15.5734 -469.448 -1450.96 -0.60201 -0.310764 0.705217 17 16 20
-18.5597 -458.877 -1448.61 -0.570941 -0.374407 0.738935 23 21 26
-3.74196 -471.139 -1448.74 0.0990336 -0.420267 0.855393 16 16 20
75.4595 -374.574 -1454.56 0.437504 -0.226473 0.839388 219 204 211
-184.668 -239.693 -1449.49 -0.510572 0.0329751 0.840009 225 209 213
-189.162 -232.021 -1453 -0.558516 0.0940508 0.810019 222 207 211
-175.53 -229.708 -1449.34 0.111977 0.333535 0.796289 238 219 223
-183.309 -214.281 -1454.7 -0.183614 0.297655 0.859433 233 214 219
-174.583 -221.573 -1453.61 0.138708 0.363872 0.856168 243 223 228
-166.418 -233.771 -1449.24 0.357815 0.34266 0.772987 248 227 230
-166.364 -233.283 -1449.37 0.350201 0.338978 0.775253 248 227 230
-159.972 -232.784 -1449.97 -0.130206 0.295646 0.858533 244 223 227
-156.513 -220.931 -1449.96 -0.431658 0.0661949 0.864232 232 213 218
-168.552 -216.175 -1455.57 -0.0747593 0.151315 0.917434 242 221 226
-155.33 -219.171 -1449.18 -0.497166 0.0156143 0.853452 229 210 215
-161.594 -209.574 -1450.15 -0.477207 -0.0858361 0.866552 228 208 213
-167.776 -202.332 -1453.64 -0.566531 0.0172472 0.842019 231 210 215
-167.617 -189.337 -1451.03 -0.67089 -0.0942764 0.733795 227 208 213
-197.614 -147.108 -1455.34 -0.70631 0.140476 0.658668 228 208 216
-189.62 -176.797 -1451.74 -0.653579 -0.161607 0.683054 227 208 215
-169.504 -182.42 -1452.19 -0.676102 -0.1587 0.716137 224 206 211
-175.395 -178.124 -1449.22 -0.603188 -0.268462 0.725625 220 201 209
-195.229 -168.151 -1454.53 -0.747039 -0.228711 0.590949 229 209 216
-190.76 -163.007 -1448.99 -0.666804 -0.0962585 0.720341 224 205 213
-168.496 -182.047 -1450.58 -0.67185 -0.17047 0.71547 223 205 210
-556.042 233.035 -1449.19 0.10068 0.552649 0.803673 222 159 134
-567.907 235.578 -1448.75 0.449234 0.616395 0.642033 214 153 129
-558.772 236.589 -1451.37 0.121005 0.5786 0.775182 215 154 129
-553.203 243.976 -1455.31 -0.0944798 0.548876 0.833153 200 144 122
-526.285 227.389 -1449.22 0.119431 0.379349 0.906186 233 187 173
-523.692 232.336 -1451.42 0.0666984 0.386413 0.909451 241 206 197
-545.897 238.638 -1451.43 -0.0418119 0.522861 0.847808 209 149 125
-538.37 242.08 -1453.35 0.0381635 0.487089 0.847483 209 159 142
-527.581 237.373 -1453.44 0.172938 0.347445 0.912578 239 201 192
-492.634 219.94 -1450.21 0.278618 0.436365 0.837553 246 228 230
-487.717 220.735 -1451.68 0.215698 0.46616 0.839238 242 224 226
-479.312 217.416 -1450.64 0.0737142 0.490749 0.863181 240 222 223
-518.338 229.664 -1449.52 -0.078684 0.420341 0.902173 248 222 216
-515.41 230.994 -1449.96 -0.10883 0.432876 0.898673 250 229 225
-498.245 224.817 -1450.37 0.290719 0.375842 0.871706 248 231 232
-496.762 229.931 -1453.02 0.25511 0.390636 0.869905 246 230 231
-513.902 240.706 -1455.15 -0.0495291 0.420649 0.911766 243 225 222
-494.743 226.723 -1452.37 0.276021 0.391526 0.865478 245 228 230
-491.414 230.405 -1454.96 0.289753 0.413985 0.840592 234 219 220
43.378 -121.032 -1448.67 0.539144 0.226003 0.80635 231 208 210
46.3803 -110.752 -1452.7 0.562304 0.179646 0.809292 219 197 199
52.4829 -125.077 -1451.73 0.582879 0.166518 0.780168 220 198 201
54.9874 -128.407 -1452.08 0.590167 0.104724 0.773296 217 196 200
60.6673 -121.354 -1455.59 0.5095 0.0483742 0.842822 223 202 205
47.8397 -109.32 -1453.91 0.570208 0.185463 0.803659 216 193 195
41.7247 -97.607 -1449.85 0.581256 -0.116993 0.79577 195 172 175
51.4416 -90.0665 -1451.64 0.466491 -0.396606 0.76179 208 185 187
53.2648 -85.0527 -1449.72 0.360499 -0.485986 0.788715 205 182 184
57.1164 -86.3826 -1451.51 0.332975 -0.483146 0.768641 211 189 191
61.6026 -87.0925 -1452.88 0.255761 -0.548134 0.726178 218 196 199
68.801 -82.1129 -1454.22 0.438437 -0.366866 0.687253 226 203 206
69.5437 -75.9343 -1453.52 0.558969 -0.206049 0.714524 223 199 201
69.4605 -69.9248 -1452.48 0.542716 -0.130436 0.802853 215 192 193
68.1147 -59.8395 -1449.79 0.516761 -0.210967 0.825247 190 167 168
-112.354 172.403 -1452.25 -0.235319 0.0089638 0.944281 242 220 222
-111.995 175.054 -1452.25 -0.268056 -0.0396675 0.960401 246 225 227
-97.1823 173.411 -1450.34 -0.0154271 0.254597 0.872163 245 224 226
-99.0203 180.542 -1453.49 0.104978 0.342292 0.842178 243 221 223
-112.317 185.569 -1454.94 -0.235984 0.384475 0.86297 246 223 225
-97.8772 183.857 -1455.16 0.16281 0.527847 0.775189 240 219 221
-74.8622 165.738 -1450.71 0.124103 0.608292 0.767053 236 215 220
-63.8199 164.784 -1453.26 0.179577 0.56224 0.77926 234 211 216
-60.9026 164.641 -1454.11 0.167982 0.506649 0.816672 233 211 216
-46.5362 158.48 -1450.22 0.167553 0.658906 0.712621 235 213 217
-34.9597 158.867 -1453.42 -0.044198 0.584027 0.78396 219 202 205
-82.4774 170.878 -1453.66 0.197758 0.575813 0.773315 236 215 218
-73.2082 168.344 -1453.9 0.140703 0.569026 0.794258 234 212 217
24.7696 463.305 -1454.29 0.559664 0.340221 0.150838 94 59 51
20.4009 487.139 -1448.88 0.354455 0.616836 -0.262125 52 31 29
14.6802 487.436 -1451.9 0.284823 0.355477 -0.294321 61 38 36
-2.44723 493.598 -1448.83 0.535842 0.582052 0.631677 93 59 55
-3.76462 501.153 -1453.49 0.601996 0.401063 0.468949 92 59 55
23.4619 474.418 -1450.33 0.317372 0.506155 -0.0422492 84 53 47
-137.93 531.759 -1452.25 -0.00225135 -0.042232 0.675137 214 192 194
-195.985 -1159.73 -1447.1 -0.3968 0.458121 0.735515 109 81 65
-183.366 -1156.36 -1447.89 -0.207953 0.663077 0.624641 105 79 64
-142.647 -1159.79 -1445.33 0.00787786 0.850602 0.408309 78 57 50
-81.2629 -465.423 -1446.67 0.22082 -0.387157 0.832898 21 21 24
-77.6461 -460.867 -1448.57 0.534512 -0.219063 0.770168 20 20 23
-15.3136 -460.513 -1446.94 -0.50663 -0.326322 0.775459 22 19 24
-11.8739 -461.444 -1445.8 -0.407765 -0.253508 0.811104 20 18 23
-201.977 -336.615 -1447.79 -0.517298 -0.0385236 0.850389 219 201 205
-197.157 -324.373 -1445.4 -0.473875 0.0631161 0.868894 222 205 209
-200.467 -310.288 -1447 -0.389745 0.0422428 0.869359 220 204 208
-202.815 -304.884 -1448.37 -0.314666 0.0542099 0.897529 221 204 208
-194.892 -341.292 -1443.71 -0.500664 -0.102064 0.853729 229 212 216
-191.168 -327.103 -1442 -0.475192 0.118718 0.870943 227 212 215
-193.597 -318.256 -1443.89 -0.448041 0.0969334 0.857301 223 207 211
-195.589 -309.688 -1444.63 -0.435996 0.073031 0.824584 221 206 209
-194.556 -303.19 -1444.91 -0.385528 0.111557 0.835799 222 207 211
-196.105 -297.639 -1447.14 -0.4062 0.182693 0.832273 223 209 213
-179.775 -298.078 -1441.37 -0.317698 0.0249809 0.898067 224 209 212
-183.638 34.9106 -1446.27 0.303633 0.553313 0.735149 246 223 225
-177.233 34.9168 -1447.61 0.0207497 0.412081 0.837869 242 219 221
-174.848 41.6277 -1447.87 -0.273085 0.0979985 0.914112 239 216 217
-172.816 49.066 -1446.1 -0.331998 -0.0126 0.911214 236 213 215
-174.185 55.4437 -1446.54 -0.350781 -0.00334671 0.900221 240 216 219
-168.403 42.2686 -1443.4 -0.434091 -0.117048 0.88766 243 219 221
-166.736 47.5689 -1442.28 -0.408696 -0.06765 0.886069 240 216 220
-166.722 53.1771 -1444.11 -0.266078 0.0893527 0.909949 222 200 203
-152.446 49.5346 -1442.72 0.0674404 0.204915 0.963785 186 169 172
-151.908 57.2437 -1443.7 -0.0755733 0.153511 0.957214 191 176 180
-177.521 60.6267 -1448.29 -0.363239 0.0569643 0.906321 248 223 227
-157.464 65.435 -1445.13 -0.205964 0.113014 0.926056 166 152 156
-158.322 71.7204 -1444.68 -0.407988 -0.0288232 0.874056 155 143 148
-154.178 59.1698 -1444.23 -0.0900198 0.178622 0.952571 186 171 175
-161.907 75.3253 -1447.07 -0.437661 0.0182992 0.870543 135 123 128
-158.265 79.8296 -1442.54 -0.615983 -0.136936 0.775128 150 138 143
-906.334 193.38 -1442.66 -0.0431875 -0.890581 0.421896 165 151 147
-902.957 192.043 -1445.12 -0.00104904 -0.892728 0.419227 162 147 144
-887.983 193.931 -1447.09 0.128519 -0.890259 0.426252 143 117 119
-864.496 189.303 -1448.09 -0.238641 -0.838494 0.480648 163 147 150
-850.556 186.745 -1446.36 -0.237155 -0.875108 0.397218 172 160 163
-844.851 186.399 -1442.87 -0.209832 -0.917279 0.315678 170 158 161
-829.001 184.563 -1442.82 -0.0898101 -0.976976 0.202858 203 195 197
-825.697 183.415 -1446.52 -0.0708102 -0.975364 0.201082 229 224 226
-69.0461 42.8352 -1442.21 0.328432 0.0333475 0.934763 248 222 224
-63.2542 51.8945 -1442.33 0.154415 -0.179999 0.964674 241 217 220
-58.3728 35.7329 -1443.58 0.114322 0.0920535 0.967969 249 223 226
-59.7517 41.6702 -1443.84 0.143022 0.0293893 0.967155 248 222 224
-43.9426 37.1678 -1444.05 0.0127821 0.0186763 0.991999 248 223 225
-45.8598 44.372 -1444.26 0.0213318 0.00606468 0.995307 246 221 224
-55.9511 49.6473 -1443.55 0.076353 -0.0797857 0.982443 242 218 221
-50.5689 52.2236 -1443.76 0.0589465 -0.0568511 0.991083 241 218 222
-41.6786 50.859 -1444.72 0.106128 0.0184923 0.991546 243 219 222
-40.2841 48.1318 -1444.85 0.106704 0.0313027 0.990551 244 219 222
-34.2569 53.4862 -1445.61 0.146167 0.0225935 0.979016 241 217 219
-53.4266 59.3068 -1442.45 0.150111 -0.172972 0.967275 221 201 206
-34.4919 61.5053 -1443.9 0.101767 -0.201878 0.944659 241 217 219
-33.5043 17.6262 -1442.48 -0.0117633 0.287229 0.929162 249 225 228
-125.895 153.073 -1443.53 0.0491122 0.608016 0.775403 193 175 178
-136.593 156.461 -1446.08 -0.0165225 0.60074 0.785524 215 195 199
-121.532 155.877 -1447.39 0.0965062 0.700001 0.728222 207 187 190
-107.565 151.211 -1443.59 -0.00824068 0.621498 0.779158 209 190 192
-112.784 154.115 -1446.23 0.0561314 0.674065 0.746171 202 183 185
-103.361 165.125 -1448.2 -0.296525 0.198308 0.890172 234 214 216
-88.8478 154.172 -1442.51 -0.102201 0.396924 0.915834 244 222 227
-92.5503 165.945 -1447.14 -0.0558572 0.330049 0.890937 245 224 227
-21.3182 319.696 -1447.3 0.127065 -0.935192 0.170493 35 24 28
-14.0246 324.835 -1444.91 0.224107 -0.881235 0.175406 35 25 28
-9.01271 330.668 -1446.37 0.333664 -0.767104 0.29437 44 31 33
-2.02509 340.589 -1446.41 0.441684 -0.640246 0.562227 43 33 34
9.47834 350.688 -1447.53 0.236939 -0.745342 0.604615 37 28 33
16.4419 356.644 -1447.25 0.473139 -0.627992 0.592966 40 30 32
20.551 379.308 -1448.29 0.933506 0.122543 0.258173 211 155 133
16.4828 400.269 -1446.84 0.797241 0.335181 0.405222 115 84 75
13.7648 409.113 -1446.75 0.735006 0.0445594 0.636037 133 92 81
20.2713 372.464 -1443.53 0.755867 -0.317174 0.404551 96 70 63
-23.6637 520.435 -1449.52 0.401613 0.283204 0.491733 117 89 89
-19.4441 514.898 -1448.4 0.58253 0.432161 0.472741 101 72 72
-17.8251 518 -1454.37 0.528736 0.328307 0.48883 115 86 86
-123.327 -455.481 -1435.17 0.126646 -0.304346 0.918507 12 13 18
-110.354 -451.493 -1435.8 0.181408 -0.43185 0.884028 18 17 22
-105.483 -453.299 -1437.82 0.193886 -0.32821 0.893323 19 18 22
-106.011 -449.331 -1437.51 0.250618 -0.207356 0.888579 20 19 24
-98.6512 -449.025 -1440.87 0.294371 0.192095 0.898292 23 20 25
-107.492 -440.969 -1438.64 0.345275 0.0996316 0.882123 24 22 27
-105.133 -435.088 -1441.87 0.288369 0.239701 0.923213 25 22 27
-114.492 -428.966 -1439.19 0.363294 0.254247 0.877637 25 22 27
-125.739 -421.364 -1436.64 0.287262 0.227804 0.912126 24 21 26
-130.162 -412.14 -1435.35 0.268333 0.00601393 0.941869 21 19 24
-120.023 -412.497 -1437.23 0.179583 -0.0562213 0.943205 20 17 22
