ply
format ascii 1.0
comment Created by Open3D
element vertex 716
property double x
property double y
property double z
property double nx
property double ny
property double nz
property uchar red
property uchar green
property uchar blue
end_header
-14.4422 63.8358 -1710.09 -0.187419 0.115395 -0.968175 253 253 255
16.8102 89.5028 -1713.22 -0.104597 -0.00620827 -0.975285 243 246 252
8.00289 93.5054 -1711.38 -0.268441 0.0440426 -0.934723 249 251 254
8.80707 99.3578 -1710.09 -0.261756 0.22519 -0.92521 251 253 255
17.0905 107.728 -1710.3 -0.310378 0.234887 -0.909368 250 252 255
26.0869 89.4666 -1713.45 -0.00986234 -0.0150173 -0.99485 237 241 249
19.835 92.6728 -1713.33 -0.0744991 0.00994044 -0.982463 242 246 251
32.9667 85.5222 -1713.43 -0.016741 0.0384936 -0.991315 238 241 250
42.6182 86.1817 -1712.95 0.0261756 0.0925742 -0.984121 238 242 250
38.6109 92.6355 -1713.5 0.0137108 -0.0171378 -0.982085 235 239 248
24.8019 101.937 -1713.61 -0.132653 0.0326866 -0.975016 242 247 253
18.9316 110.338 -1710.24 -0.332741 0.220942 -0.90421 250 252 254
28.9583 107.955 -1713.05 -0.136132 0.100184 -0.958862 242 247 253
38.2256 98.038 -1713.91 0.0127971 -0.0476571 -0.97774 235 240 249
36.3091 105.894 -1713.57 0.00298462 0.0606826 -0.973759 239 244 252
47.0733 88.5508 -1712.31 0.0785887 0.0875976 -0.979737 237 241 249
56.3698 86.8665 -1710.61 0.126458 0.194549 -0.969469 240 243 249
56.6962 93.5738 -1710.2 0.148045 0.01419 -0.974985 236 239 247
64.913 85.9265 -1710.25 0.0709012 0.169359 -0.964922 240 240 243
59.2613 98.3509 -1711.04 0.105854 -0.0926284 -0.981178 229 232 239
48.3667 100.076 -1712.23 0.13179 0.0231936 -0.971995 236 241 249
46.2924 110.177 -1712.47 0.0704936 0.0999599 -0.975346 238 244 252
53.8922 110.562 -1712.37 0.0466452 -0.00788578 -0.982387 235 242 251
69.8784 100.646 -1710.32 0.0808072 -0.0255278 -0.98441 212 203 204
63.4503 108.135 -1711.21 0.0923841 -0.0381341 -0.985154 234 241 250
21.6072 114.612 -1710.57 -0.3202 0.173767 -0.917605 249 252 255
27.3717 113.12 -1712.19 -0.171269 0.156004 -0.947924 245 250 254
30.0463 118.442 -1712.13 -0.15003 0.133728 -0.952095 245 250 255
37.3231 118.594 -1712.42 0.00210952 0.0799001 -0.979079 243 248 254
38.5029 122.248 -1712.66 -0.0377113 0.0276876 -0.984208 244 249 254
22.3834 131.171 -1709.85 -0.319857 0.0411359 -0.940048 250 253 255
24.8498 135.349 -1710.43 -0.274153 0.0789896 -0.951562 249 253 255
33.3972 128.455 -1712.43 -0.171803 0.0456609 -0.969457 247 251 255
45.4305 127.186 -1713.57 -0.092938 -0.0507529 -0.993466 243 248 254
41.0462 137.812 -1713.61 -0.169844 0.0303775 -0.986228 247 251 255
48.1119 115.827 -1712.69 -0.00091374 0.00831724 -0.984059 239 245 252
46.3681 121.748 -1713.15 -0.066167 -0.0465906 -0.990424 241 247 253
57.1807 122.282 -1712.26 0.0857329 -0.0482487 -0.972677 238 245 253
65.0117 114.161 -1710.39 0.228729 0.0112557 -0.960493 235 242 251
63.2336 120.257 -1710.46 0.259307 0.00485188 -0.949076 237 244 252
53.4176 125.821 -1713.16 -0.0018605 -0.0678299 -0.984211 241 247 253
48.3709 134.694 -1714.04 -0.0673426 -0.010819 -0.992131 245 250 255
60.8543 125.174 -1711.43 0.19278 -0.0354592 -0.958622 239 246 253
64.7478 134.5 -1710.96 0.285949 -0.0276153 -0.95126 242 247 254
-52.8766 -1141.2 -1707.18 0.765938 0.324527 -0.525836 115 88 79
-52.7481 -1132.93 -1703.63 0.822869 0.211087 -0.52445 121 98 91
-51.7318 -1117.96 -1704.07 0.773568 0.0762633 -0.600141 164 152 149
-174.782 -1099.65 -1705.5 -0.703542 -0.27485 -0.641485 203 199 201
-178.695 -1092.47 -1704.89 -0.746083 -0.133039 -0.641862 202 199 201
-171.112 -1108.64 -1703.69 -0.686663 -0.418703 -0.595548 201 197 201
-171.566 -1104.1 -1706.04 -0.679986 -0.349131 -0.634089 202 198 201
-147.418 -1086.83 -1705.82 -0.679833 -0.206618 -0.674881 199 194 196
-173.66 -1086.67 -1709.44 -0.658533 -0.0336962 -0.74328 200 196 199
-173.563 -1078.74 -1708.33 -0.695984 0.117896 -0.697645 196 190 194
-173.632 -1063.8 -1704.51 -0.77425 0.121681 -0.607414 215 208 212
-147.17 -1082.34 -1702.76 -0.709719 -0.0703577 -0.681898 196 191 192
-153.573 -1075.5 -1706.29 -0.748951 0.0447905 -0.657359 200 196 198
-170.269 -1074.38 -1709.87 -0.690993 0.125274 -0.708963 210 203 207
-154.04 -1070.63 -1704.51 -0.758164 0.0572408 -0.648194 203 198 201
-148.51 -1065.91 -1706.34 -0.731831 0.0202623 -0.660434 204 200 202
-173.153 -1046.94 -1703.64 -0.771307 0.144846 -0.613934 198 191 194
-170.2 -1049.62 -1706.85 -0.74816 0.15437 -0.637511 198 191 195
-166.123 -1039.02 -1706.77 -0.728537 0.229121 -0.639751 185 181 184
-163.017 -1034.7 -1708.47 -0.782899 0.17432 -0.58627 177 174 177
-63.7889 -942.931 -1707.02 0.598402 0.082295 -0.779958 196 196 194
-60.592 -947.572 -1704.29 0.635989 0.154909 -0.745936 196 195 193
-61.9036 -941.643 -1704.71 0.644365 0.0995604 -0.74699 196 195 193
-65.0008 -917.392 -1707.62 0.627416 0.0416001 -0.764872 196 196 193
-65.9044 -905.603 -1707.46 0.586331 0.0818499 -0.801054 196 195 193
-64.755 -899.701 -1705.92 0.61635 0.0676309 -0.777041 196 196 193
-61.116 -915.984 -1702.9 0.743649 0.0354322 -0.673814 194 194 192
-189.249 -890.589 -1702.92 -0.889308 -0.0416205 -0.444914 188 188 190
-188.386 -883.245 -1705.8 -0.871054 -0.082845 -0.479176 191 191 193
-189.545 -873.386 -1703.67 -0.876844 8.54279e-05 -0.473571 192 192 194
-167.49 -895.584 -1704.04 -0.550347 -0.0971972 -0.810692 200 197 198
-166.958 -886.622 -1708.32 -0.466476 -0.113305 -0.850211 201 198 198
-157.272 -893.621 -1705.15 -0.491625 -0.0750571 -0.844553 199 196 197
-150.88 -895.676 -1707.56 -0.407669 0.0592251 -0.890375 197 195 196
-153.578 -888.761 -1706.9 -0.394959 -0.0581536 -0.8998 196 194 195
-166.271 -876.153 -1708.34 -0.487521 -0.0756598 -0.843889 204 200 201
-170.647 -869.819 -1704.66 -0.652576 0.0593449 -0.704698 201 199 200
-163.377 -875.207 -1707.27 -0.470432 -0.0504328 -0.855825 203 200 201
-150.747 -878.063 -1708.54 -0.387391 -0.086819 -0.8984 199 196 197
-154.373 -873.939 -1708.01 -0.402608 -0.0479832 -0.891983 202 199 200
-187.502 -867.343 -1706.62 -0.86563 0.078824 -0.488246 192 192 195
-185.369 -857.963 -1708.11 -0.846906 0.0547104 -0.520874 192 192 195
-188.119 -848.462 -1703.42 -0.781672 -0.0239193 -0.622064 192 192 195
-144.373 -759.125 -1708.75 -0.0461729 0.331855 -0.932776 210 207 208
-136.642 -755.571 -1705.42 0.105523 0.296521 -0.938976 194 193 193
-138.899 -751.061 -1704.97 0.105408 0.222973 -0.949262 198 196 196
-130.125 -756.731 -1705.43 0.036842 0.261757 -0.953446 190 189 189
-119.215 -757.505 -1704.61 0.0953345 0.143955 -0.96041 188 188 188
-119.692 -752.549 -1704.37 0.058728 0.138492 -0.961672 186 187 186
-139.94 -744.697 -1704.69 0.124322 0.0818629 -0.968204 200 198 199
-143.649 -736.534 -1705.4 0.174223 -0.0104902 -0.976108 197 194 196
-133.496 -737.106 -1705.55 -0.0214642 -0.0596927 -0.981197 198 197 197
-119.112 -740.303 -1706.53 -0.0310664 -0.135015 -0.967494 189 189 190
-125.962 -736.451 -1707 -0.129694 -0.102837 -0.974689 196 196 197
-117.657 -755.911 -1704.11 0.126276 0.103114 -0.960162 189 189 188
-111.336 -747.33 -1703.43 0.171085 -0.178198 -0.963551 191 191 191
-110.381 -743.22 -1704.05 0.187298 -0.211889 -0.950643 191 191 191
-107.877 -734.6 -1704.82 0.293973 -0.176709 -0.90976 194 194 195
-144.729 -726.338 -1705.93 0.149813 0.0113863 -0.975927 182 180 181
-143.967 -719.071 -1707.09 0.123103 -0.087185 -0.967308 183 181 182
-134.822 -725.949 -1705.84 -0.0383543 -0.0219985 -0.983572 184 183 184
-123.2 -727.823 -1708.25 -0.169244 0.00294036 -0.972198 195 195 195
-125.015 -721.117 -1707.33 -0.176161 0.0702319 -0.966221 186 186 185
-143.12 -714.068 -1708.54 0.131128 -0.188557 -0.951694 190 189 190
-133.611 -715.059 -1706.4 0.0273878 -0.069727 -0.964065 179 178 178
-132.632 -712.446 -1706.93 0.032099 -0.10805 -0.957899 181 180 181
-122.536 -718.43 -1707.47 -0.168945 0.089907 -0.965226 185 184 184
-125.33 -707.147 -1708.34 -0.0653704 -0.149695 -0.963261 185 184 185
-118.457 -709.55 -1708.18 -0.0993 -0.0457726 -0.977491 186 185 186
-111.293 -728.149 -1706.91 0.174501 -0.0534746 -0.935435 196 196 197
-114.565 -724.235 -1708.18 0.0072237 0.0480844 -0.960323 195 195 195
-107.197 -720.313 -1704.85 0.342704 0.0349662 -0.895365 196 195 196
-107.043 -719.311 -1704.8 0.345823 0.0355623 -0.895455 196 195 196
-113.714 -711.204 -1707.4 -0.00111216 -0.00280867 -0.968737 188 188 188
-104.39 -716.373 -1703.77 0.472771 0.00557508 -0.872113 198 197 198
-131.82 -703.645 -1709.42 0.0978325 -0.261301 -0.949943 192 190 192
-119.598 -687.726 -1709.64 0.271876 -0.00223515 -0.948828 209 209 211
-114.507 -703.662 -1708.02 0.0448234 -0.0824241 -0.976191 193 193 195
-116.431 -693.56 -1709.09 0.218679 -0.0125594 -0.957135 206 206 208
-106.516 -695.954 -1705.86 0.290998 0.0377103 -0.935099 208 208 210
-104.832 -695.603 -1705.27 0.334668 0.0501777 -0.923461 210 210 212
-105.593 -689.613 -1704.36 0.329124 0.168425 -0.916642 212 211 214
-112.671 -681.144 -1705.11 0.411423 0.194268 -0.876465 214 213 215
-90.5105 -574.809 -1703.77 0.332698 -0.136999 -0.901222 185 183 186
-192.502 -565.317 -1709.09 -0.821959 -0.0615286 -0.563743 202 201 208
-193.716 -554.492 -1705.83 -0.802853 0.0483792 -0.59373 204 203 210
-194.625 -547.77 -1703.98 -0.800262 0.0823874 -0.592386 205 204 212
-192.69 -538.404 -1705.98 -0.843077 0.0427887 -0.511301 203 202 211
-192.378 -531.23 -1706.93 -0.906255 -0.00217372 -0.38663 201 200 209
-194.135 -521.771 -1703.24 -0.910356 -0.0548785 -0.398213 199 198 208
-200.301 -479.18 -1704.24 -0.876573 -0.0228954 -0.438567 205 204 213
-199.88 -458.934 -1704.81 -0.936584 -0.0260342 -0.184426 206 205 215
-199.933 -411.706 -1704.79 -0.87926 -0.0864976 -0.463493 199 200 209
-198.653 -441.801 -1703.2 -0.887093 0.122197 -0.218996 209 208 218
-197.307 -433.886 -1705.24 -0.922042 0.101574 -0.256376 204 204 215
-196.612 -421.52 -1708.26 -0.921625 -0.0544627 -0.33046 198 199 209
-197.309 -420.005 -1707.58 -0.909437 -0.0984393 -0.368619 199 200 209
-200.9 -404.165 -1703.35 -0.83559 -0.0196402 -0.508505 203 204 214
-198.812 -396.005 -1706.02 -0.825916 0.0400899 -0.529538 211 212 222
-197.27 -391.582 -1707.62 -0.866871 0.0586496 -0.454339 212 213 223
-196.28 -381.255 -1708.15 -0.919432 -0.0351415 -0.371527 203 204 214
-196.085 -372.252 -1709.73 -0.902271 -0.0125699 -0.397639 201 202 212
122.66 -1209.06 -1709.5 0.274106 0.540103 -0.11371 113 100 98
75.1311 -1190.99 -1708.37 -0.088148 0.86008 0.00654582 67 59 62
82.7092 -1190.07 -1708.51 -0.198993 0.898916 -0.000662316 58 53 55
90.8605 -1189.41 -1706.4 -0.158236 0.984692 -0.0870015 53 49 51
100.237 -1186.6 -1704.97 0.118848 0.719355 -0.0156316 53 48 48
121.806 -1191.46 -1708.91 0.489735 0.221884 0.0728553 65 55 54
106.036 -1182.05 -1704.25 0.594278 0.0938796 0.207183 55 47 46
103.633 -1170.1 -1706.84 0.580027 -0.195661 0.565069 87 77 77
125.189 -1172.77 -1702.31 0.719295 0.25472 0.040492 87 71 74
99.4364 -1155.5 -1703.4 0.365949 -0.455395 0.768057 170 157 161
101.866 -1161.7 -1703 0.364297 -0.398603 0.790803 135 122 125
120.523 -1163.1 -1708.07 0.418162 0.395059 0.738798 115 103 106
117.053 -1160.83 -1704.77 0.398323 0.417741 0.676027 110 97 100
109.047 -1154.1 -1703.98 0.268393 -0.158147 0.751242 141 127 131
-17.7606 -840.906 -1703.08 -0.831982 -0.000658915 -0.533384 209 206 209
-18.6173 -831.902 -1703.21 -0.818887 -0.100363 -0.553371 211 208 211
-16.3672 -825.351 -1709.21 -0.700569 -0.116378 -0.683316 213 209 213
-19.0368 -813.706 -1704.28 -0.779548 0.0587345 -0.567742 216 213 217
-18.2064 -801.29 -1702.29 -0.823075 0.166033 -0.522298 218 215 218
-12.8726 -796.274 -1706.36 -0.654178 0.299068 -0.677094 214 212 215
-9.98538 -788.622 -1703.39 -0.486843 0.378429 -0.764878 204 203 206
-3.08352 -787.658 -1707.71 -0.483776 0.45458 -0.727662 203 201 204
85.7056 -892.031 -1704.46 0.695342 -0.0676022 -0.713986 200 199 202
87.3819 -884.858 -1703.95 0.697291 -0.128633 -0.69257 202 200 203
85.0725 -871.529 -1708.59 0.714441 -0.113645 -0.677169 205 203 206
89.1516 -873.521 -1704.54 0.689568 -0.0923094 -0.71287 204 201 205
90.0504 -867.609 -1704.58 0.686906 -0.086221 -0.717842 204 202 205
88.0754 -861.026 -1707.56 0.714637 -0.130101 -0.678994 211 208 211
93.2732 -853.676 -1704.45 0.66832 -0.121193 -0.72591 201 200 203
94.7037 -843.109 -1704.01 0.719958 -0.0735763 -0.683878 210 208 212
-4.80476 -613.237 -1709.15 -0.895131 0.126951 -0.408802 214 212 215
-4.55938 -607.854 -1707.22 -0.872266 0.137841 -0.444766 215 212 216
-2.82008 -600.104 -1708.68 -0.84866 0.142198 -0.494418 214 211 215
-5.277 -589.801 -1703.39 -0.825892 -0.0444098 -0.537657 205 201 206
-6.63284 -578.02 -1703.42 -0.780484 -0.0998542 -0.613722 197 194 199
-7.11416 -570.239 -1703.5 -0.779694 -0.0527156 -0.625519 193 192 196
94.5 -674.464 -1708.12 0.810484 -0.230542 -0.529586 221 219 224
97.2627 -660.656 -1704.81 0.765865 0.124803 -0.569773 242 241 244
95.4715 -652.561 -1703.62 0.748276 0.254552 -0.577699 241 241 243
110.473 -540.518 -1708.79 0.654963 0.113757 -0.671477 227 225 231
114.757 -535.887 -1703.44 0.624582 -0.0176187 -0.617073 225 223 229
110.073 -523.965 -1708.82 0.559645 0.0270523 -0.804114 230 228 235
116.538 -525.382 -1705.1 0.470254 -0.020453 -0.779968 221 221 228
119.177 -520.4 -1703.41 0.580314 -0.00336619 -0.695742 221 220 228
107.073 -512.46 -1709.48 0.534327 0.107184 -0.834967 229 227 233
112.95 -508.848 -1705.5 0.521649 0.14469 -0.831672 217 216 222
108.53 -499.907 -1707.41 0.523529 0.0491653 -0.852741 211 209 216
108.994 -490.677 -1706.66 0.565862 -0.0403092 -0.828396 216 215 221
113.886 -491.613 -1703.28 0.57236 0.0187917 -0.82408 214 214 222
109.293 -475.1 -1707.01 0.662541 -9.70423e-05 -0.727814 212 212 218
112.518 -469.502 -1703.42 0.63584 0.0552046 -0.73677 236 233 239
111.455 -460.989 -1703.66 0.672271 0.188969 -0.745861 254 251 254
-172.653 -183.906 -1703.49 -0.652737 0.134768 -0.736584 233 238 253
-146.418 -187.458 -1705.96 -0.384232 0.263574 -0.869032 244 244 249
-166.667 -170.608 -1702.41 -0.598543 0.251933 -0.752051 235 239 254
-140.063 -183.3 -1706.34 -0.297829 0.279557 -0.902579 247 247 252
-132.88 -183.55 -1708.27 -0.284702 0.264378 -0.912521 247 247 252
-138.501 -175.734 -1704.17 -0.259721 0.253172 -0.926367 250 251 255
-130.613 -178.846 -1707.6 -0.288286 0.241528 -0.917401 247 247 252
-139.001 -171.949 -1702.85 -0.280929 0.225892 -0.925027 250 251 255
-131.899 -162.182 -1704.54 -0.270759 0.086117 -0.953391 246 248 252
-122.633 -169.838 -1708.93 -0.301198 0.152018 -0.934854 245 245 250
-122.757 -167.604 -1708.58 -0.292716 0.134487 -0.941374 245 245 251
-142.34 22.9637 -1709.1 -0.271658 0.0330418 -0.94926 234 235 246
-142.862 35.033 -1707.86 -0.346327 0.0584987 -0.929218 250 250 255
-144.353 38.9472 -1705.62 -0.328794 0.183077 -0.913938 250 249 254
-135.022 42.1604 -1708.08 -0.315851 0.209399 -0.914445 250 249 255
-134.56 48.9239 -1707.2 -0.419288 0.151886 -0.860219 228 229 234
-138.243 52.9351 -1705.45 -0.396913 0.165399 -0.856197 235 235 240
-141.644 58.0075 -1705.55 -0.374835 -0.153078 -0.851619 222 224 229
702.284 68.617 -1705.68 0.224161 -0.899329 0.366731 116 83 70
704.648 70.1459 -1703.83 0.2097 -0.9021 0.368078 122 86 71
713.355 72.1453 -1703.72 0.17428 -0.905687 0.377081 127 90 74
732.825 74.6268 -1708.56 0.195766 -0.883779 0.419423 123 88 73
736.267 76.3228 -1707.42 0.222011 -0.874332 0.429004 125 88 73
745.756 80.369 -1703.29 0.199655 -0.889192 0.408673 112 76 64
755.367 81.6159 -1704.11 0.131176 -0.903929 0.403919 54 36 31
760.186 80.7439 -1707.19 0.101369 -0.905921 0.409853 30 20 18
768.167 81.799 -1706.33 0.089588 -0.901091 0.423807 2 1 1
782.844 82.1053 -1708.41 0.0425934 -0.867459 0.487527 0 0 0
806.33 80.4082 -1709.69 -0.0372572 -0.696754 0.701881 0 0 0
-33.9118 84.6385 -1706.18 0.139884 0.372816 -0.906961 253 253 255
-24.8839 89.3603 -1702.62 0.0561282 0.360882 -0.924351 253 253 255
-14.6523 89.1824 -1704.17 -0.082411 0.237044 -0.954962 251 251 253
-15.7734 93.1727 -1702.86 -0.133785 0.270485 -0.945249 250 250 252
-4.09953 85.8668 -1707.23 -0.179797 -0.0106985 -0.953748 251 251 253
-3.76466 92.0608 -1707.09 -0.252744 0.0354618 -0.945167 251 251 253
-6.94313 101.093 -1704.53 -0.354594 0.115998 -0.92351 251 251 253
3.48625 97.4015 -1709.24 -0.282272 0.184312 -0.930523 252 253 255
-6.64643 110.518 -1703.06 -0.278663 0.0922742 -0.951589 254 253 254
7.62444 100.614 -1709.36 -0.275865 0.251044 -0.92076 252 253 255
16.7899 111.221 -1709.26 -0.341717 0.225673 -0.902151 251 253 254
-1.41882 117.604 -1703.28 -0.24138 0.164699 -0.956234 253 253 254
3.03596 121.649 -1704.06 -0.231655 0.0956354 -0.96445 251 252 253
84.2632 193.23 -1705.84 0.206728 0.16103 -0.94968 247 250 252
77.0693 199.721 -1705.62 0.133376 0.314337 -0.93023 251 253 255
88.6662 192.542 -1704.68 0.210055 0.0873 -0.959716 242 244 247
94.6709 192.521 -1703.07 0.152778 -0.0286188 -0.978282 238 240 243
92.8932 202.351 -1703.69 0.0257222 0.0688421 -0.977584 228 229 232
101.375 198.506 -1703.23 0.0910813 -0.121144 -0.985767 244 244 247
-44.2633 -1141.58 -1692.95 -0.506265 0.28825 -0.262714 70 53 51
-50.9968 -1131.78 -1692.72 0.283098 0.110172 -0.384157 112 98 96
-42.196 -1139.77 -1693.13 -0.608369 0.307864 -0.270965 70 52 50
-47.5337 -1123.42 -1691.77 0.45513 -0.0211727 -0.512108 150 140 139
-46.6302 -1120.99 -1693.26 0.622276 0.000901043 -0.602009 150 137 135
-39.9841 -1117.84 -1692.45 0.366604 0.0952068 -0.546798 132 114 108
-178.699 -1108.81 -1693.35 -0.718689 -0.460204 -0.51963 200 193 197
-185.44 -1102.97 -1690.42 -0.728308 -0.405872 -0.545638 199 192 196
-187.618 -1090.65 -1693.51 -0.792592 -0.118152 -0.595029 206 200 204
-189.353 -1084.79 -1690.9 -0.788299 0.0234252 -0.608762 203 198 201
-185.577 -1082.21 -1695.99 -0.817613 0.0483228 -0.569758 198 193 196
-181.595 -1068.57 -1694.17 -0.815409 0.286505 -0.487234 206 202 205
-191.3 -908.504 -1691.84 -0.947966 -0.0354999 -0.294013 187 187 189
-190.993 -900.655 -1694.42 -0.953052 -0.0670262 -0.277627 187 187 189
-39.5622 -1002.64 -1694.62 0.030657 -0.0473206 -0.90777 125 122 119
-40.0688 -982.309 -1695.44 -0.0578853 0.0369281 -0.976686 111 109 107
-41.4546 -967.865 -1695.59 0.141717 -0.00211189 -0.933124 142 140 137
-36.928 -960.502 -1695.33 -0.18062 0.0854194 -0.914062 145 143 139
-39.9972 -950.938 -1693.97 0.0791393 0.256177 -0.915424 140 139 136
-43.8002 -951.395 -1694.59 0.257162 0.259482 -0.908118 146 145 142
-43.707 -940.189 -1688.78 0.335486 0.412325 -0.857426 140 139 137
-55.4842 -931.221 -1695.6 0.736357 0.078547 -0.672897 191 191 189
-52.9543 -928.175 -1692.26 0.706287 0.0804388 -0.707494 184 183 181
-49.9322 -929.546 -1689.01 0.608245 0.175039 -0.781743 172 171 169
-94.1478 -716.074 -1695.96 0.566633 -0.0537203 -0.822139 203 200 203
-88.7593 -732.424 -1692.51 0.505665 -0.045937 -0.858244 200 197 199
-87.8008 -720.483 -1691.95 0.510532 0.00760763 -0.8566 197 194 195
-86.6921 -715.873 -1690.91 0.535158 0.0309475 -0.840559 192 189 191
-88.5182 -710.476 -1692.01 0.58221 -0.025223 -0.81032 194 192 194
-87.5137 -702.438 -1691.32 0.679466 -0.0563982 -0.729458 196 194 195
-85.6993 -696.287 -1689.57 0.737138 0.0210838 -0.662183 194 191 192
-90.6366 -678.788 -1694.29 0.521132 0.0902564 -0.80175 208 207 209
-202.598 -675.469 -1690.66 -0.920632 0.112806 -0.309596 201 199 204
-201.453 -665.298 -1692.01 -0.966082 -0.00967375 -0.177833 197 195 201
-202.073 -656.405 -1693.23 -0.972001 -0.113599 -0.131241 199 197 203
-203.164 -648.014 -1691.88 -0.946132 -0.12655 -0.0794889 200 199 204
-206.331 -633.048 -1691.03 -0.9503 -0.0213225 -0.138933 173 173 177
-204.889 -629.074 -1694.35 -0.935692 0.0405713 -0.287701 182 183 187
-183.49 -670.991 -1695.46 -0.54031 0.0711239 -0.789955 206 204 207
-181.164 -662.384 -1695.52 -0.544836 0.0323721 -0.817316 207 205 208
-204.412 -405.641 -1693.93 -0.899119 0.12528 -0.20244 208 207 216
-202.232 -394.904 -1694.06 -0.891295 0.203925 -0.162591 213 212 222
-200.434 -383.917 -1693.9 -0.907702 -0.0146159 -0.200269 208 208 218
-202.574 -372.701 -1693.36 -0.909658 -0.0923608 -0.261239 206 206 216
-202.585 -362.71 -1690.09 -0.87704 0.230912 -0.288026 206 206 216
-200.047 -355.108 -1689.29 -0.85528 0.380865 -0.304654 210 210 220
-17.0875 -1182.72 -1694.64 -0.709329 0.660645 0.254222 21 17 18
-10.5535 -1180.71 -1690 -0.691287 0.638575 0.309493 40 32 32
-20.4601 -1173.88 -1692.64 -0.63108 0.525117 0.165543 61 49 47
68.9023 -1107.83 -1695.28 0.524142 -0.339717 -0.770806 215 207 209
-30.3586 -1058.5 -1692.98 -0.433393 0.0837467 0.347697 158 153 153
-30.5367 -1046.87 -1692.84 -0.436607 0.0828642 0.367415 157 153 153
-28.0262 -1047.08 -1693.2 -0.62532 0.0874719 0.486036 157 152 152
-20.6854 -1048.59 -1691.1 -0.854051 0.111231 0.625059 156 150 150
-23.8438 -1041.08 -1692.88 -0.864707 0.0801223 0.632328 156 151 152
-32.8015 -1032.68 -1689.84 -0.655861 0.125898 0.168776 159 154 154
-21.6926 -1045.89 -1691.92 -0.850333 0.0973721 0.630571 156 151 151
-32.0161 -1031.1 -1690 -0.608808 0.133674 0.0525883 159 154 154
-34.7302 -1021.62 -1695.01 -0.507687 0.18953 -0.784811 140 135 132
-26.5859 -1019.73 -1690.61 -0.394234 0.139751 -0.416383 155 150 149
-33.8642 -1018.82 -1691.43 -0.335688 0.141576 -0.786317 141 136 133
-28.728 -1016.57 -1691.75 -0.469341 0.123698 -0.450711 160 155 153
-29.0545 -1012.55 -1693.59 -0.644907 0.0778462 -0.281632 166 161 160
-21.4369 -1014.86 -1690.06 -0.675755 0.0580402 0.358911 149 145 145
70.3944 -1038.43 -1695.49 0.716615 0.00264731 -0.684881 199 194 195
70.6625 -1013.38 -1695.56 0.769241 -0.0363756 -0.560026 199 196 196
79.2105 -1106.29 -1689.53 0.630068 -0.523882 -0.534202 231 221 222
79.9626 -1105.69 -1689.45 0.640745 -0.527167 -0.50818 231 220 221
104.894 -831.564 -1695.18 0.755346 -0.167957 -0.524038 224 220 225
106.43 -824.352 -1691.17 0.840437 0.0861625 -0.394151 228 222 228
104.489 -821.168 -1693.94 0.801622 0.106147 -0.445292 224 218 224
103.859 -814.576 -1691.88 0.836968 0.177127 -0.345 221 215 221
104.058 -798.753 -1694.2 0.560464 0.0251853 -0.732192 217 214 220
104.857 -794.395 -1693.95 0.627146 0.0228394 -0.696235 221 218 224
-21.9856 -781.498 -1691.29 -0.844418 0.144256 -0.497774 194 193 195
-19.1644 -774.721 -1693.73 -0.753702 0.122181 -0.633322 196 196 199
-20.0502 -764.671 -1690.03 -0.832222 0.0576739 -0.532353 188 188 192
-17.9253 -757.434 -1693.33 -0.827553 -0.0586212 -0.548427 203 203 206
-22.0583 -747.28 -1689.6 -0.857739 -0.116672 -0.496569 208 208 210
-22.2818 -740.371 -1692.41 -0.87634 -0.157101 -0.444016 203 203 205
-25.327 -725.97 -1689.31 -0.901171 -0.0626967 -0.425284 206 206 208
-22.9375 -729.959 -1694.23 -0.870549 -0.0924313 -0.478924 201 201 204
113.459 -544.459 -1694.4 0.929189 -0.256821 -0.117477 212 209 213
114.817 -541.271 -1694.45 0.905867 -0.247693 -0.197154 217 213 217
118.735 -525.21 -1693.04 0.963265 -0.101101 -0.178893 228 224 229
118.032 -517.983 -1689.25 1.01341 -0.00257529 -0.0582483 234 229 234
118.948 -511.263 -1695.26 0.856813 0.0279646 -0.334322 229 225 231
120.452 -497.097 -1693.01 0.739288 -0.0749855 -0.440117 221 219 225
120.122 -493.275 -1695.66 0.680683 0.0360051 -0.615322 231 229 236
120.959 -476.356 -1694.5 0.448066 0.0965058 -0.679881 219 218 226
121.181 -468.134 -1695.61 0.147375 0.123848 -0.867888 211 211 219
122.894 -464.306 -1690.13 0.612877 -0.000436742 -0.486023 230 227 234
122.356 -448.46 -1690.1 0.763148 0.0489561 -0.500454 242 238 244
-187.082 40.8296 -1689.01 -0.656979 -0.235511 -0.709537 213 217 234
-181.122 31.7088 -1695.23 -0.673404 -0.192218 -0.707321 213 219 237
-183.608 39.9412 -1691.65 -0.634771 -0.174081 -0.731115 220 224 239
-175.24 37.5381 -1695.39 -0.569622 -0.0721312 -0.794611 234 237 250
-178.862 46.8864 -1689.95 -0.489809 0.0470815 -0.83205 249 250 255
-169.971 42.0644 -1694.7 -0.489174 0.072919 -0.84302 249 250 255
-164.305 47.1356 -1694.76 -0.421674 0.197186 -0.873962 250 251 255
-168.771 56.4961 -1690.71 -0.486421 0.172161 -0.832704 235 237 243
-193.952 70.8864 -1696.37 -0.509142 -0.443748 -0.699419 188 191 209
-180.813 81.9382 -1691.66 -0.538897 -0.329454 -0.744761 228 230 237
-169.707 58.3519 -1689.92 -0.504493 0.154127 -0.817955 232 234 240
-166.147 67.7299 -1695.52 -0.594358 -0.245041 -0.74381 205 209 220
-171.467 73.6682 -1693.78 -0.550877 -0.392466 -0.717231 219 221 229
-111.656 220.769 -1694.24 0.0496435 0.269053 -0.949504 255 255 255
-106.292 226.272 -1692.54 0.0833988 0.325133 -0.934914 253 253 253
-110.06 230.295 -1692.01 0.0497092 0.29364 -0.946774 240 234 236
-98.9352 219.842 -1694.75 0.0346572 0.348792 -0.909229 255 255 255
-104.408 230.49 -1691.33 0.0787191 0.311716 -0.93698 242 236 237
-94.5007 228.172 -1690.57 0.0890253 0.428461 -0.892807 254 254 255
-107.815 237.973 -1690.79 -0.0101232 0.218552 -0.965336 194 166 173
-111.509 242.303 -1689.79 -0.0327369 0.202757 -0.972591 176 140 150
-103.902 234.901 -1690.63 0.0474263 0.262384 -0.949981 219 201 206
-102.526 242.136 -1690.48 -0.0787457 0.183507 -0.967454 164 121 131
-92.7167 243.553 -1691.1 -0.138508 0.200705 -0.943469 167 121 131
-77.9519 200.021 -1694.72 0.296332 -0.0108979 -0.948521 250 254 254
-70.7563 198.088 -1692.4 0.314965 -0.0484771 -0.945734 245 250 252
-75.3029 205.666 -1693.81 0.226204 0.0221384 -0.965593 249 252 254
-85.8201 207.329 -1696.18 0.0752854 0.114744 -0.993098 253 253 253
-89.5485 218.035 -1694.32 0.138818 0.255275 -0.932322 255 255 255
-78.4015 213.582 -1693.37 0.179292 0.162942 -0.962204 251 253 255
-72.0767 211.417 -1692.26 0.231359 0.10848 -0.954841 247 251 254
-72.964 217.713 -1690.99 0.209856 0.266133 -0.9328 248 251 255
-62.8972 199.592 -1689.54 0.32174 -0.0476188 -0.955574 232 238 246
-41.1288 195.515 -1691.19 -0.446169 -0.0653051 -0.873999 239 245 251
-42.5783 199.799 -1691.18 -0.479796 -0.0888919 -0.864803 238 245 250
-43.4378 209.433 -1692.35 -0.399884 -0.130314 -0.869485 239 245 251
-36.9007 211.487 -1695.02 -0.109896 -0.164312 -0.92103 242 247 253
-46.8683 219.299 -1690.77 -0.482349 0.0119852 -0.845676 240 246 252
-85.3606 227.684 -1690.25 0.133127 0.427357 -0.897651 255 255 255
-78.072 222.714 -1690.48 0.181608 0.325086 -0.924549 249 252 255
-83.4915 228.584 -1690.04 0.141793 0.422643 -0.897024 253 255 255
-88.5285 239.21 -1691.09 -0.0566596 0.282994 -0.917046 201 172 179
-89.9692 242.962 -1691.42 -0.124376 0.229722 -0.927287 177 136 146
-79.5114 240.753 -1696 -0.594576 0.226572 -0.74236 129 59 78
-75.5012 236.344 -1691.46 -0.0987157 0.369803 -0.805379 198 171 182
-51.6441 232.898 -1691.89 -0.12945 0.202959 -0.882913 233 234 240
-45.1612 223.916 -1692.6 -0.443596 0.074736 -0.845994 245 251 255
-44.2715 228.627 -1695.02 -0.292353 0.0295494 -0.905573 244 249 255
-61.6422 235.921 -1695.91 -0.154348 0.28367 -0.84031 181 146 158
-95.5604 249.719 -1690.29 -0.247492 0.202602 -0.935028 133 81 94
-87.3229 252.112 -1692.3 -0.335064 0.209767 -0.883418 133 80 94
-89.9788 254.375 -1690.65 -0.365246 0.239554 -0.886248 118 65 80
-78.984 256.357 -1695.57 -0.501 0.198971 -0.828364 117 58 72
-79.0191 264.8 -1691.88 -0.477549 0.245675 -0.846061 96 66 81
-31.5392 153.874 -1692.33 -0.29306 -0.0357013 -0.896899 243 245 251
-36.5011 162.267 -1689.38 -0.441832 0.0168222 -0.847135 242 245 252
-27.6892 163.068 -1693.81 -0.362101 0.00950224 -0.88625 246 248 253
-13.3123 164.307 -1696.15 -0.165026 0.186775 -0.964242 252 253 255
-29.1601 168.431 -1693.02 -0.359986 -0.0315241 -0.878547 246 248 253
-33.5413 173.576 -1691.98 -0.464793 -0.143705 -0.842038 244 248 253
-23.5384 175.957 -1693.97 -0.100202 -0.0265016 -0.955757 248 250 254
-12.7681 167.096 -1695.95 -0.201181 0.164863 -0.957482 252 253 255
-15.3762 176.449 -1694.64 -0.0836686 0.0626969 -0.977246 251 252 255
-30.2588 181.275 -1694.04 -0.250274 -0.10471 -0.913489 246 249 255
-34.2827 189.746 -1693.1 -0.264266 -0.0255301 -0.906395 244 249 254
-21.4024 184.584 -1694.27 0.00190041 0.0170255 -0.977966 249 251 255
-15.5035 182.486 -1694.49 -0.0381409 0.057772 -0.982435 250 252 255
-18.8193 190.25 -1693.4 0.033527 0.131828 -0.974993 249 251 255
3.10665 185.764 -1695.66 -0.0543299 0.158349 -0.9725 250 252 253
1.46449 188.171 -1695.39 -0.0637223 0.144632 -0.976572 251 252 254
5.97714 191.908 -1695.38 -0.11982 0.11428 -0.968194 251 252 253
673.29 122.417 -1690.68 -0.39484 0.0708913 0.873219 67 52 48
747.887 84.9682 -1692.91 0.187042 -0.908252 0.371938 96 66 55
766.021 89.1561 -1689.72 0.170847 -0.899197 0.402236 0 0 0
767.807 87.1328 -1695 0.144091 -0.896206 0.417424 0 0 0
776.935 93.2923 -1689.14 0.244382 -0.846626 0.470141 0 0 0
782.62 91.6448 -1694.7 0.244474 -0.803897 0.538986 0 0 0
791.716 100.703 -1691.58 0.344892 -0.72732 0.585171 0 0 0
794.509 102.87 -1691.35 0.356938 -0.725309 0.578995 0 0 0
800.968 105.706 -1691.86 0.312929 -0.713456 0.60886 0 0 0
813.579 110.166 -1694.71 0.199655 -0.641243 0.723784 0 0 0
-176.232 -1118.49 -1685.69 -0.711279 -0.524685 -0.461311 200 192 196
-163.689 -1135.23 -1683.46 -0.744352 -0.491205 -0.437471 198 191 195
-163.434 -1134.09 -1685.26 -0.741756 -0.505701 -0.438639 198 192 197
-170.276 -1124.69 -1686.77 -0.719313 -0.519237 -0.452217 200 192 196
-103.085 -1190.07 -1683.65 0.839389 0.530967 0.196914 50 35 34
-91.7552 -1193.56 -1686.36 0.619714 0.511867 0.236574 58 46 44
-106.515 -1182.53 -1683.15 0.89163 0.384039 0.195173 85 57 50
-106.825 -1173.84 -1683.86 0.895531 0.273904 0.226454 116 79 66
-85.3759 -1189.15 -1685.34 0.27913 0.379275 0.0871326 112 91 84
-83.0261 -1181.4 -1686.51 0.18796 0.306524 0.063959 131 107 98
-88.0996 -1172.83 -1688.74 0.618068 0.378889 0.186595 97 74 68
-139.442 -1158.39 -1683.34 -0.681844 0.689847 -0.207472 169 132 110
-129.635 -1158.49 -1687.52 -0.700284 0.65225 -0.286369 169 130 106
-138.468 -1153.49 -1688.45 -0.675092 0.63641 -0.249179 172 136 116
-127.699 -1152.22 -1683.02 -0.730571 0.608438 -0.295352 161 124 102
-120.151 -1145.69 -1683.19 -0.583995 0.444931 -0.36918 156 122 105
-100.297 -1164.34 -1686.82 0.600235 0.298588 0.0833458 127 89 76
-95.3397 -1165.66 -1685.14 0.41336 0.348129 0.015681 119 86 75
-116.367 -1145.03 -1688.72 -0.678828 0.382243 -0.499813 155 118 101
-136.269 -1140.19 -1689.04 -0.530948 0.240352 -0.326249 181 156 147
-130.341 -1132.11 -1684.28 -0.0550691 -0.154788 -0.228659 200 192 194
-125.013 -1129.34 -1686.9 -0.391427 -0.347208 -0.446115 200 191 193
-112.091 -1137.16 -1684.26 -0.664874 0.0191576 -0.525463 176 155 150
-114.831 -1134.1 -1688.88 -0.631699 -0.0792004 -0.527797 186 169 167
-62.3426 -836.958 -1688.37 0.762711 0.00541058 -0.639345 209 207 205
-57.5974 -830.531 -1683.85 0.744842 -0.0340874 -0.668468 208 205 203
-63.3868 -818.295 -1689.05 0.622967 0.286046 -0.695982 205 203 201
-64.3352 -808.836 -1684.13 0.633979 0.38714 -0.668365 192 189 187
-66.1952 -806.601 -1684.36 0.616044 0.379818 -0.686325 192 189 187
-71.0883 -798.35 -1684.32 0.624448 0.307269 -0.711725 198 194 194
-72.5356 -793.415 -1683.69 0.642798 0.214005 -0.724954 201 197 197
-199.987 -738.463 -1689.02 -0.973825 -0.0285616 0.0373994 189 186 191
-196.914 -775.173 -1687 -0.923031 0.0664594 -0.25886 192 189 193
-196.839 -771.644 -1686.64 -0.88334 0.0441574 -0.313445 192 190 194
-85.7749 -675.309 -1688.38 0.73368 -0.0521845 -0.657061 210 209 211
-82.91 -667.1 -1687.38 0.697092 -0.148954 -0.697983 210 210 212
-78.6561 -659.101 -1684.95 0.682975 -0.0889549 -0.71399 212 211 212
-79.7509 -657.512 -1686.24 0.656458 -0.0503989 -0.738529 213 212 213
-77.3997 -648.183 -1683.85 0.654308 0.0458618 -0.749 199 196 198
-80.9672 -640.543 -1686.17 0.588287 0.0345515 -0.8026 187 184 187
-82.1609 -631.929 -1688.17 0.543701 -0.115557 -0.828999 187 184 187
-82.5442 -630.793 -1688.79 0.539007 -0.141469 -0.829229 188 185 188
-73.0639 -626.49 -1682.16 0.599601 -0.117512 -0.787296 181 178 181
2.12723 -1177.74 -1683.28 -0.403738 0.854117 0.369562 60 47 48
4.3895 -1175.3 -1683.28 -0.411596 0.84167 0.387458 68 53 53
66.449 -1177.1 -1684.35 0.47708 0.687424 -0.457449 182 154 138
59.8236 -1171.94 -1686.3 0.605643 0.470604 -0.489788 183 152 138
-18.2941 -1165.84 -1687.89 -0.397119 0.291843 -0.138353 116 96 89
-16.1828 -1160.34 -1683.38 -0.227669 0.124136 -0.386054 156 130 120
1.31482 -1165.22 -1686.15 -0.749696 0.235627 0.346276 112 86 80
-2.51178 -1152.59 -1686.68 -0.680822 0.0885093 0.352702 127 97 88
1.04003 -1155.95 -1683.67 -0.715725 0.093154 0.375824 125 95 87
88.0863 -1099.88 -1687.05 0.69164 -0.537873 -0.303765 222 212 211
99.4312 -1087.44 -1685.27 0.69074 -0.370648 -0.489007 228 219 219
99.4888 -1084.42 -1687.21 0.694556 -0.304275 -0.553453 232 222 223
100.673 -1086.45 -1683.75 0.746676 -0.340157 -0.415547 228 218 218
101.321 -1071.98 -1684.93 0.789311 0.0218948 -0.478027 237 226 228
95.5666 -1055.72 -1688.52 0.50533 0.142911 -0.830889 239 228 231
95.922 -1048 -1685.62 0.536641 0.137874 -0.687727 232 223 224
81.2749 -1037.36 -1688.91 0.408623 0.107368 -0.884428 201 195 195
91.6546 -1043.97 -1687.37 0.363994 0.186694 -0.893772 226 218 219
88.5617 -1037.75 -1686.83 0.37759 0.154748 -0.894048 217 211 212
98.1924 -1036.3 -1683.14 0.574195 0.0394672 -0.802361 218 212 215
82.4574 -1025.7 -1687.98 0.531617 0.0104122 -0.831969 206 203 202
83.6735 -1019.23 -1687.5 0.498098 0.0715858 -0.856674 207 204 204
96.0686 -1028.78 -1683.49 0.53005 0.0256645 -0.804648 222 216 218
97.0303 -1023.04 -1682.41 0.544625 -0.00631084 -0.744392 222 217 218
82.8341 -1017.87 -1687.8 0.507662 0.069999 -0.853479 206 202 203
85.1911 -1009.39 -1685.76 0.522804 0.0653773 -0.846461 209 205 205
93.8547 -1014.77 -1682.85 0.501077 0.199541 -0.809614 231 225 225
-25.2303 -714.593 -1689.37 -0.866448 -0.00180633 -0.448565 204 204 206
-25.4255 -704.755 -1686.5 -0.944134 0.069966 -0.326895 203 203 205
-25.2361 -697.026 -1684.24 -0.959167 0.101618 -0.309986 205 204 207
-23.3971 -687.046 -1687.21 -0.947923 0.0948052 -0.30369 207 207 209
109.064 -783.039 -1686.46 0.802514 0.141628 -0.509541 222 218 224
107.941 -777.91 -1686.46 0.796512 0.18655 -0.532969 226 222 228
107.744 -771.845 -1684.9 0.751044 0.191471 -0.568837 225 221 227
106.956 -766.891 -1684.65 0.676154 0.146385 -0.648048 222 218 224
103.277 -749.853 -1687.27 0.745893 0.109544 -0.654898 227 223 230
101.572 -743.259 -1688.21 0.700085 0.134131 -0.690912 219 215 222
102.763 -733.385 -1686.71 0.669931 0.0239147 -0.736792 214 210 217
104.219 -727.03 -1684.58 0.760236 0.0818284 -0.624717 214 209 215
101.141 -722.897 -1689.09 0.782391 -0.0115735 -0.580505 213 209 216
101.627 -717.935 -1688.29 0.779153 0.0190832 -0.569186 220 216 222
123.654 -443.432 -1684.9 0.914417 0.119348 -0.379136 249 245 250
122.375 -439.498 -1688.7 0.817315 0.0989966 -0.507342 245 242 247
121.648 -420.738 -1687.38 0.809997 0.0299706 -0.456167 247 244 249
121.99 -418.94 -1685.42 0.840449 0.0660792 -0.381863 247 245 249
120.969 -412.466 -1689.03 0.675527 0.214856 -0.578963 251 250 252
120.416 -406.893 -1685.72 0.759288 0.274667 -0.520598 254 251 254
113.108 -386.653 -1688.43 0.913932 0.0169767 -0.353128 251 251 251
114.683 -382.086 -1684.7 0.89856 0.0756216 -0.378271 252 251 253
113.103 -378.726 -1686.96 0.934347 0.0472241 -0.289071 250 249 250
114.231 -377.027 -1683.16 0.906159 0.126173 -0.350266 252 251 253
112.234 -356.188 -1685.39 0.954575 -0.129013 -0.179436 232 230 234
-199.924 -345.137 -1687.86 -0.932704 -0.0820642 -0.260547 211 211 219
-201.264 -332.502 -1686.84 -0.926109 0.000392823 -0.22488 207 207 215
-201.133 -322.931 -1685.05 -0.934384 0.108792 -0.243725 209 210 217
-200.771 -313.052 -1684.75 -0.893758 0.00574227 -0.382439 210 210 217
-191.224 33.727 -1683.55 -0.64659 -0.213476 -0.722505 193 197 217
-185.261 29.5181 -1683.46 -0.620216 -0.19705 -0.732856 213 216 230
-192.076 42.9986 -1684.2 -0.637709 -0.24016 -0.733956 206 210 230
-180.932 55.1249 -1684.74 -0.48675 0.116908 -0.829779 243 245 251
-177.266 52.9826 -1687.46 -0.452542 0.181165 -0.852697 249 250 254
-174.577 59.3449 -1686.65 -0.472614 0.160694 -0.838946 234 236 242
-174.887 65.7916 -1686.4 -0.499629 -0.0649639 -0.8037 218 220 229
-185.624 74.6593 -1682.27 -0.451478 -0.26653 -0.802982 214 217 226
-183.873 81.278 -1688.06 -0.565848 -0.391731 -0.710945 218 221 230
-172.085 63.4581 -1688.23 -0.530122 0.00756699 -0.796642 219 222 230
-137.201 239.254 -1684.48 -0.15479 0.466766 -0.858379 246 244 245
-134.447 243.588 -1683.4 -0.176376 0.517416 -0.806407 222 214 218
-129.276 238.52 -1686.29 -0.164743 0.483022 -0.844955 243 240 241
-130.968 241.059 -1685.11 -0.165752 0.493411 -0.83276 237 232 234
-120.06 244.628 -1686.63 -0.159654 0.450517 -0.83681 200 182 188
-63.9918 217.56 -1688.26 0.301087 0.240942 -0.914674 244 249 255
-54.6803 195.816 -1687.08 0.157404 -0.0249897 -0.954277 228 235 244
-54.6436 205.149 -1687.67 0.083087 -0.0475373 -0.939155 231 238 246
-45.7552 195.557 -1689.05 -0.418021 -0.0789149 -0.88288 234 242 248
-54.3327 211.461 -1688.04 -0.0228351 -0.0687882 -0.916063 234 241 249
-58.9368 217.393 -1687.33 0.190434 0.183378 -0.907617 241 247 254
-49.8778 208.862 -1688.62 -0.296274 -0.132112 -0.891496 234 241 248
-68.6036 222.754 -1687.94 0.264858 0.36946 -0.8956 247 251 255
-76.21 233.265 -1688.32 0.266068 0.448747 -0.87223 252 255 255
-65.0845 234.125 -1688.64 0.127578 0.423542 -0.843183 233 228 235
-54.8232 226.544 -1686.7 -0.108152 0.328972 -0.84615 246 253 255
-57.314 228.918 -1686.35 0.00576587 0.385733 -0.85129 247 254 255
-62.7875 233.908 -1688.47 0.0827022 0.405398 -0.847427 235 233 239
-117.277 250.176 -1684.42 -0.226201 0.489016 -0.788392 142 106 119
-106.964 250.046 -1687.49 -0.174745 0.265251 -0.93032 136 90 104
-104.156 249.155 -1688.6 -0.180263 0.248525 -0.93423 126 76 91
-102.093 253.784 -1686.89 -0.267058 0.29605 -0.899164 120 74 88
-93.3232 255.344 -1689 -0.357097 0.272105 -0.885076 112 64 79
-89.3079 264.438 -1685.29 -0.408507 0.436552 -0.759824 90 70 85
-82.9843 267.876 -1686.77 -0.45127 0.304165 -0.829382 89 70 86
676.51 74.4077 -1686.14 -0.132757 -0.739225 0.646918 152 113 91
680.649 75.5005 -1684.1 -0.0811512 -0.699427 0.681413 161 121 99
685.249 73.6869 -1687.03 -0.0135935 -0.770536 0.618863 150 110 90
699.015 77.7179 -1685.44 0.139185 -0.778042 0.611719 171 130 107
700.868 79.8134 -1682.95 0.0969845 -0.754614 0.642158 186 143 119
717.363 80.793 -1685.12 0.141706 -0.882127 0.449683 173 129 107
720.808 82.2651 -1683.1 0.137376 -0.890195 0.43445 177 132 109
-36.2512 139.617 -1688.19 -0.182169 0.205065 -0.909679 242 245 250
55.6723 239.391 -1688.13 -0.0860504 0.498935 -0.846347 255 255 255
50.1758 245.532 -1683.6 -0.0492235 0.555655 -0.804436 233 222 227
60.2451 240.642 -1688.1 -0.0891244 0.500498 -0.8443 252 252 254
70.9863 241.324 -1688.26 -0.109853 0.518977 -0.836922 249 247 249
-22.7586 252.743 -1686.16 0.512963 0.217424 -0.818767 165 78 97
-16.0617 252.791 -1682.38 0.415201 0.221213 -0.879553 159 77 94
-10.6118 247.657 -1682.38 0.393995 0.154758 -0.877538 202 164 174
-24.6045 262.324 -1686.94 0.57344 0.0229649 -0.805614 146 79 99
-23.2282 271.12 -1686.43 0.573504 -0.0819861 -0.807932 134 91 112
-21.7889 271.695 -1685.67 0.554997 -0.0956708 -0.818074 136 92 113
87.1085 230.474 -1688.98 0.246299 0.538405 -0.80077 252 253 254
78.1279 239.583 -1687.62 0.0984016 0.516316 -0.821774 254 255 255
74.7635 241.085 -1687.8 -0.0279265 0.508113 -0.831764 253 254 255
83.86 243.699 -1684.63 0.138588 0.497634 -0.794488 252 253 254
95.8506 238.242 -1684.91 0.130309 0.555871 -0.803124 252 253 254
88.2607 243.555 -1683.94 0.145702 0.501625 -0.791316 251 252 253
99.6434 229.932 -1688.34 0.0893942 0.607491 -0.783721 253 253 255
112.552 230.059 -1686.72 0.132195 0.438374 -0.885064 253 253 255
114.348 227.025 -1687.76 0.13278 0.428091 -0.888755 253 253 255
126.195 232.124 -1686.13 0.0104302 0.324197 -0.945618 253 253 255
106.545 234.666 -1685.43 0.12621 0.484204 -0.859102 253 253 255
109.809 241.72 -1682.53 0.0874272 0.405698 -0.909789 254 254 255
123.159 233.186 -1685.5 0.0310749 0.346417 -0.934088 253 253 254
-201.489 -1082.11 -1678.93 -0.778841 0.073112 -0.604975 208 204 206
-199.897 -1074.36 -1677.97 -0.745033 0.205475 -0.621875 198 194 196
-187.466 -1109.98 -1680.98 -0.735826 -0.484646 -0.445805 199 193 195
-192.63 -1102.6 -1682.37 -0.723483 -0.439031 -0.524642 198 191 195
-197.403 -1094.31 -1682.04 -0.740216 -0.213007 -0.618196 206 200 204
-195.285 -1074.31 -1681.84 -0.730542 0.205245 -0.647452 193 190 192
-194.855 -1072.27 -1681.36 -0.723269 0.238517 -0.644111 191 188 190
-190.696 -1059.85 -1679.35 -0.679631 0.224286 -0.701521 197 194 196
-172.915 -1062.76 -1682.32 -0.708116 0.185115 -0.655593 205 201 203
-169.864 -1065.7 -1678.64 -0.687999 0.203153 -0.678982 206 202 203
-164.479 -1059.41 -1681.84 -0.681593 0.154235 -0.701834 210 207 207
-191.052 -1052 -1677.18 -0.707785 0.138384 -0.689027 201 198 200
-173.583 -1055.48 -1679.67 -0.741236 0.091945 -0.642108 204 201 203
-173.667 -1052.54 -1678.79 -0.759086 0.0626136 -0.629201 205 201 204
-191.077 -1032.59 -1678.47 -0.704497 0.181166 -0.679467 204 200 203
-172.696 -1045.32 -1677.93 -0.785306 0.0744449 -0.599629 204 200 202
-171.568 -1054.55 -1682.16 -0.750709 0.107732 -0.628899 204 200 202
-166.809 -1047.62 -1677.2 -0.771768 0.135311 -0.608544 205 202 203
-200.06 -831.506 -1676.95 -0.894524 -0.127884 -0.168361 197 195 198
-202.876 -818.176 -1676.06 -0.915101 -0.0499078 -0.0741307 194 192 195
-202.409 -814.829 -1679.42 -0.916499 0.0834238 -0.126245 196 195 198
-199.339 -838.522 -1679.72 -0.771049 -0.00976837 -0.398949 195 194 196
-199.382 -801.414 -1678.1 -0.921104 0.303186 -0.210548 199 197 199
-197.925 -793.281 -1676.94 -0.949354 0.0959095 -0.0858807 199 198 200
-77.2668 -671.696 -1679.65 0.673917 -0.192983 -0.712776 188 188 189
-76.7231 -666.701 -1680.58 0.692217 -0.207866 -0.69148 195 195 195
-73.6846 -658.918 -1679.32 0.713557 -0.106387 -0.690027 199 198 198
-75.8384 -651.553 -1682.68 0.707887 -0.0146088 -0.703082 206 204 205
-70.9412 -650.632 -1677.48 0.727957 -0.0854673 -0.67887 197 194 195
-70.6059 -638.821 -1678.59 0.611666 -0.074111 -0.784245 186 183 186
-73.2525 -633.777 -1681.14 0.573755 -0.0741887 -0.815563 182 179 181
-70.3634 -625.852 -1679.88 0.6303 -0.0931374 -0.765568 181 178 181
-69.6526 -618.888 -1680.48 0.714334 -0.116311 -0.686731 183 180 183
-70.0186 -616.875 -1681.36 0.731699 -0.129275 -0.669124 183 180 183
-68.404 -610.37 -1680.07 0.732732 -0.101341 -0.667473 184 181 184
-72.2092 -591.49 -1681.12 0.842392 0.132127 -0.51312 183 180 183
-70.6096 -583.754 -1676.08 0.907889 0.101079 -0.426942 181 178 180
-70.103 -581.294 -1676.1 0.882188 0.034164 -0.461416 181 178 180
-69.8084 -574.257 -1678.34 0.801272 -0.108534 -0.573437 180 177 179
68.6376 -1171.79 -1677.58 0.479181 0.697655 -0.482007 202 171 154
6.23112 -1166.2 -1678.27 -0.809285 0.130992 0.412126 117 91 84
4.45885 -1155.32 -1678.93 -0.766035 0.0979581 0.385537 123 94 85
-6.44099 -1141.78 -1679.01 -0.716237 0.111323 0.149706 120 95 87
1.43605 -1143.56 -1680.51 -0.738892 0.0760349 0.376612 125 96 88
5.80931 -1148.38 -1677.52 -0.795735 0.108649 0.404155 124 93 84
-13.2192 -1124.93 -1675.44 -0.719159 0.132714 -0.422061 109 93 88
-10.9022 -1114.2 -1677.74 -0.749465 -0.145204 0.146206 145 134 133
-6.24698 -1136.6 -1679.49 -0.774133 -0.114136 0.103516 115 98 94
-3.062 -1128.36 -1679 -0.746089 -0.212257 0.23634 133 118 115
-1.6251 -1132.86 -1681.21 -0.799691 -0.328558 0.383283 124 109 107
4.9569 -1132.35 -1676.95 -0.759437 -0.196607 0.527139 147 126 122
-0.633522 -1121.84 -1676.25 -0.718851 -0.377237 0.551837 158 145 144
58.824 -1166.95 -1681.9 0.655786 0.482113 -0.39233 204 171 151
51.5984 -1157.89 -1677.05 0.325759 0.348066 -0.426382 192 162 141
63.2287 -1166.75 -1677.17 0.594853 0.578713 -0.485275 212 179 158
50.6271 -1152.27 -1677.28 0.583634 0.102566 -0.408841 200 178 165
57.2674 -1139.17 -1675.8 0.842755 -0.322404 -0.351776 216 204 200
61.9515 -1132.92 -1676.3 0.832624 -0.491907 -0.286678 216 205 202
69.8945 -1121.8 -1679.73 0.644028 -0.37211 0.0384375 194 183 183
-28.8437 -950.248 -1679.85 -0.55931 -0.0973046 0.193497 125 122 123
-30.4858 -938.557 -1677.39 -0.38415 0.0156301 -0.00593103 123 121 121
-24.1114 -943.31 -1678.8 -0.586575 -0.107916 0.326 129 127 127
-15.3019 -948.704 -1675.87 -0.685049 -0.232477 0.676388 141 138 138
-32.8627 -936.627 -1675.43 -0.228926 0.0710818 -0.187924 121 119 119
-31.7128 -929.464 -1676.26 -0.225034 0.0357054 0.0396636 88 85 87
-20.5577 -933.602 -1677.11 -0.544794 -0.0767201 0.527374 124 121 122
-24.5417 -921.153 -1677.26 -0.5146 -0.0564253 0.559871 83 80 83
90.6155 -999.317 -1681.61 0.569864 0.0420324 -0.81624 211 205 207
90.8649 -995.741 -1681.17 0.599356 0.0306182 -0.793705 212 205 207
91.3357 -989.491 -1680.83 0.643268 0.0114115 -0.760653 211 204 206
89.6257 -985.531 -1682.45 0.630602 -0.00833245 -0.776099 210 204 205
93.1818 -978.01 -1679.88 0.649829 -0.0275294 -0.763839 205 200 202
89.5096 -969.443 -1682.6 0.61269 -0.0120019 -0.789271 201 197 199
94.1027 -971.646 -1679.2 0.641611 -0.0285792 -0.768484 201 197 199
96.3207 -963.092 -1677.72 0.695638 -0.0558738 -0.696443 206 202 204
96.4682 -955.505 -1677.89 0.717616 -0.0309179 -0.653971 205 201 203
108.311 -624.582 -1681.9 0.64274 0.380763 -0.62908 248 248 250
100.993 -605.451 -1681.66 0.852593 0.0858056 -0.494001 222 221 223
104.956 -598.441 -1677.88 0.811455 -0.0636883 -0.542642 227 224 228
104.492 -591.592 -1680.5 0.861915 -0.140821 -0.413033 219 216 219
105.644 -586.098 -1679.41 0.849182 -0.129001 -0.466044 218 215 218
107.971 -581.411 -1675.69 0.826123 -0.109611 -0.519344 221 218 222
-30.0369 -567.146 -1680.29 -0.736875 -0.215017 -0.635171 183 180 183
-31.8172 -561.821 -1679.87 -0.729939 -0.257504 -0.625515 176 173 176
-36.5402 -547.433 -1680.17 -0.516978 -0.235117 -0.660729 167 164 166
-201.48 -293.965 -1680.97 -0.918341 0.149984 -0.257691 216 215 223
-199.776 -283.607 -1676.99 -0.920781 0.202278 -0.266584 218 217 224
-198.278 -269.766 -1680.78 -0.963557 0.00368351 -0.188094 217 216 223
-198.271 -262.374 -1678.75 -0.938391 0.0995095 -0.240283 210 210 217
-196.005 -254.059 -1678.04 -0.920066 0.199227 -0.234256 208 209 217
-195.49 -244.883 -1678.34 -0.951295 0.0331421 -0.200437 209 210 219
-195.749 -232.99 -1679.53 -0.938529 -0.0698903 -0.285159 218 219 227
-194.32 -224.71 -1681.98 -0.935809 0.0176091 -0.261149 234 236 243
-194.143 -214.559 -1677.96 -0.949063 0.16865 -0.126423 246 249 254
-191.983 -202.293 -1681.18 -0.886691 0.195097 -0.369668 234 239 249
-190.171 -198.257 -1682.46 -0.87143 0.206215 -0.418537 234 239 250
-181.786 -21.3466 -1680.32 -0.653158 -0.0390425 -0.696578 211 212 230
-185.719 -13.7196 -1676.44 -0.668004 0.136167 -0.723214 217 219 235
-187.079 -4.88823 -1679.63 -0.773545 -0.345227 -0.446856 191 192 210
-185.692 -8.06027 -1679.53 -0.737286 -0.198268 -0.529647 197 198 215
-191.043 5.89995 -1678.65 -0.816908 -0.402152 -0.337503 188 190 209
-190.406 14.5081 -1679.55 -0.66552 -0.150353 -0.60205 214 217 234
-191.142 17.569 -1679.02 -0.613773 -0.123409 -0.658446 213 216 232
-194.327 22.0894 -1677.17 -0.610263 -0.152047 -0.67262 213 217 234
-207.971 68.8421 -1675.76 -0.460992 -0.283867 -0.836326 241 242 255
-207.72 71.9111 -1676.41 -0.424202 -0.224595 -0.862991 241 242 255
-205.471 79.4719 -1676.92 -0.303431 -0.0800476 -0.935006 235 237 248
-194.266 34.9556 -1680.36 -0.622429 -0.173968 -0.73734 195 198 217
-196.205 39.846 -1676.45 -0.676858 -0.126469 -0.636239 210 213 229
-193.178 46.3692 -1681.58 -0.62274 -0.221956 -0.745878 219 223 239
-191.284 52.2649 -1681.5 -0.583675 -0.16193 -0.769685 238 240 250
-195.701 60.9592 -1679.11 -0.398882 -0.207744 -0.877031 247 248 255
-198.665 67.6444 -1678.83 -0.327858 -0.216652 -0.915295 246 247 255
-185.735 66.1774 -1681.43 -0.338914 -0.0651767 -0.916407 236 238 245
-182.769 64.647 -1681.94 -0.366823 -0.0142988 -0.908765 233 235 242
-191.765 73.8031 -1680.83 -0.340001 -0.216033 -0.884284 230 232 241
-196.948 77.1359 -1679.7 -0.339544 -0.180661 -0.899759 230 232 242
100.556 -115.342 -1682.49 0.491474 0.0632613 -0.870106 213 218 234
106.83 -115.991 -1678.37 0.489091 0.178832 -0.845461 234 237 246
109.308 -108.322 -1675.83 0.514949 0.139902 -0.803174 233 235 246
98.673 -80.8566 -1680.54 0.295002 0.353403 -0.762351 247 250 253
108.445 -105.156 -1676.25 0.54313 0.0788392 -0.75983 229 232 244
101.418 -86.6061 -1681.9 0.122428 0.475652 -0.725188 246 251 253
101.243 -82.7486 -1680.18 0.270864 0.354364 -0.74969 246 250 252
93.8059 -74.113 -1681.18 0.46753 0.224542 -0.812504 246 248 252
95.2818 -67.6753 -1679.73 0.512318 0.128866 -0.838212 244 246 251
92.9336 -65.2488 -1680.82 0.543128 0.0841759 -0.832865 243 245 251
90.2109 -57.474 -1681.42 0.569835 0.0997912 -0.813414 240 241 251
99.8815 -73.7547 -1678.1 0.429347 0.208789 -0.832737 246 248 251
100.699 -70.7461 -1677.22 0.456723 0.176997 -0.839757 246 248 251
89.5846 -49.3218 -1680.22 0.593615 0.105391 -0.784243 237 239 251
