ply
format ascii 1.0
comment Created by Open3D
element vertex 1374
property double x
property double y
property double z
property uchar red
property uchar green
property uchar blue
end_header
-106.962 -943.763 -2254.5 46 53 47
-111.4 -943.586 -2254.5 45 52 46
-116.089 -942.489 -2256.5 46 53 47
-120.393 -942.779 -2255.5 48 55 49
-124.944 -942.15 -2256.5 45 52 46
-129.488 -941.524 -2257.5 45 52 46
-134.026 -940.901 -2258.5 50 56 50
-138.441 -940.741 -2258.5 51 55 50
-142.739 -941.046 -2257.5 48 52 47
-146.478 -943.655 -2251.5 48 52 47
-150.792 -943.964 -2250.5 50 54 49
-154.675 -946.117 -2245.5 50 54 50
-158.79 -947.352 -2242.5 50 54 50
-162.604 -949.97 -2236.5 49 53 50
-166.95 -950.29 -2235.5 47 51 48
-170.602 -953.833 -2227.5 46 50 47
-174.482 -956.457 -2221.5 45 49 46
-178.575 -958.164 -2217.5 42 45 42
-182.683 -959.874 -2213.5 41 44 41
-186.807 -961.586 -2209.5 38 40 40
-191.39 -961.003 -2210.5 27 27 27
-195.88 -960.882 -2210.5 30 31 31
-200.875 -958.006 -2216.5 36 38 38
-205.761 -955.594 -2221.5 35 37 37
-210.544 -953.645 -2225.5 38 40 40
-215.23 -952.158 -2228.5 42 49 45
-220.129 -949.297 -2234.5 43 51 47
-224.854 -947.358 -2238.5 45 53 49
-229.56 -945.422 -2242.5 44 51 47
-234.318 -943.03 -2247.5 44 51 47
-238.783 -942.478 -2248.5 46 54 50
-243.308 -941.471 -2250.5 47 55 51
-247.445 -943.22 -2246.5 46 54 50
-251.841 -943.136 -2246.5 46 54 50
-256.001 -944.891 -2242.5 48 56 52
-260.403 -944.813 -2242.5 48 56 52
-264.75 -945.196 -2241.5 47 55 51
-269.206 -944.665 -2242.5 45 53 49
-273.504 -945.513 -2240.5 43 50 46
-277.907 -945.446 -2240.5 44 51 47
-282.171 -946.758 -2237.5 46 53 49
-286.27 -949.908 -2230.5 47 53 50
-290.566 -951.226 -2227.5 48 53 50
-294.914 -952.088 -2225.5 47 52 49
-299.307 -952.494 -2224.5 45 51 48
-303.561 -954.737 -2219.5 43 50 46
-307.97 -955.148 -2218.5 42 49 45
-312.132 -959.232 -2209.5 42 50 46
-316.419 -961.942 -2203.5 42 50 46
-320.65 -966.03 -2194.5 42 49 45
-325.143 -965.994 -2194.5 42 49 45
-329.567 -967.337 -2191.5 43 50 46
-334.044 -967.765 -2190.5 43 48 45
-338.544 -967.738 -2190.5 44 48 45
-342.978 -969.548 -2186.5 46 50 47
-347.371 -973.195 -2178.5 46 53 49
-351.908 -972.718 -2179.5 48 55 51
-356.379 -974.995 -2174.5 47 54 50
-360.928 -974.066 -2176.5 47 54 50
-365.444 -974.973 -2174.5 50 57 53
-369.976 -974.966 -2174.5 50 57 53
-374.499 -977.713 -2168.5 48 55 51
-379.044 -977.713 -2168.5 47 54 50
-383.583 -976.798 -2170.5 47 54 50
-388.114 -975.886 -2172.5 56 58 58
-2.09288 -969.786 -2219.5 51 54 54
-6.49788 -970.001 -2218.5 50 54 53
-11.7799 -967.892 -2222.5 52 56 55
-16.6959 -966.717 -2224.5 53 58 57
-21.4279 -966.012 -2225.5 53 59 58
-25.8149 -966.24 -2224.5 50 56 55
-31.2019 -963.681 -2229.5 46 52 51
-36.2349 -962.056 -2232.5 44 50 49
-41.0899 -960.899 -2234.5 44 50 49
-46.0929 -959.281 -2237.5 44 50 49
-51.3949 -956.738 -2242.5 45 51 50
-56.6719 -954.198 -2247.5 51 55 54
-61.4649 -953.056 -2249.5 52 56 55
-66.2459 -951.918 -2251.5 52 56 55
-71.0149 -950.784 -2253.5 51 55 54
-75.4789 -950.58 -2253.5 48 54 51
-79.5059 -951.773 -2250.5 45 52 48
-84.1139 -951.112 -2251.5 46 53 49
-88.5739 -950.918 -2251.5 47 54 50
-92.8929 -951.191 -2250.5 45 52 48
-97.4859 -950.539 -2251.5 46 53 47
-101.938 -950.354 -2251.5 47 54 48
-106.914 -948.318 -2255.5 47 54 48
-111.223 -948.603 -2254.5 46 53 47
-115.789 -947.964 -2255.5 44 51 45
-120.347 -947.328 -2256.5 45 52 46
-124.776 -947.159 -2256.5 44 51 45
-129.082 -947.455 -2255.5 45 52 46
-133.627 -946.829 -2256.5 48 55 49
-138.049 -946.669 -2256.5 49 53 48
-142.355 -946.974 -2255.5 48 52 47
-146.325 -948.671 -2251.5 49 53 48
-150.752 -948.519 -2251.5 52 56 51
-154.528 -951.146 -2245.5 50 54 49
-158.645 -952.387 -2242.5 49 53 48
-162.566 -954.556 -2237.5 49 53 50
-166.912 -954.878 -2236.5 46 50 47
-170.565 -958.439 -2228.5 43 47 44
-174.542 -960.615 -2223.5 44 48 45
-178.158 -964.643 -2214.5 42 46 43
-182.276 -966.361 -2210.5 41 45 42
-186.591 -967.157 -2208.5 38 40 40
-191.267 -966.108 -2210.5 27 28 28
-196.107 -964.138 -2214.5 32 32 32
-200.843 -962.634 -2217.5 35 37 37
-205.73 -960.209 -2222.5 36 38 38
-210.754 -956.864 -2229.5 39 41 41
-215.279 -956.293 -2230.5 42 49 45
-220.101 -953.879 -2235.5 42 50 46
-224.901 -951.467 -2240.5 43 51 47
-229.534 -949.983 -2243.5 45 52 48
-234.293 -947.578 -2248.5 43 50 46
-238.692 -947.485 -2248.5 43 51 47
-243.154 -946.933 -2249.5 43 51 47
-247.359 -948.23 -2246.5 42 50 46
-251.697 -948.607 -2245.5 42 50 46
-255.921 -949.91 -2242.5 46 54 50
-260.269 -950.293 -2241.5 47 55 51
-264.621 -950.678 -2240.5 45 53 49
-269.134 -949.682 -2242.5 47 55 51
-273.385 -950.996 -2239.5 47 54 50
-277.842 -950.467 -2240.5 48 55 51
-282.2 -950.864 -2239.5 47 54 50
-286.342 -953.57 -2233.5 48 53 50
-290.676 -954.433 -2231.5 50 54 51
-295.018 -955.3 -2229.5 50 54 51
-299.33 -956.63 -2226.5 46 52 49
-303.512 -959.807 -2219.5 43 50 46
-307.924 -960.221 -2218.5 42 49 45
-311.964 -966.17 -2205.5 40 47 43
-316.291 -968.433 -2200.5 41 48 44
-320.558 -972.082 -2192.5 41 48 44
-325.009 -972.968 -2190.5 40 47 43
-329.444 -974.317 -2187.5 39 46 42
-334.057 -971.982 -2192.5 41 45 42
-338.425 -975.181 -2185.5 43 47 44
-342.938 -975.157 -2185.5 46 50 47
-347.351 -978.362 -2178.5 45 52 48
-351.878 -978.344 -2178.5 46 53 49
-356.365 -980.172 -2174.5 46 53 49
-360.924 -978.777 -2177.5 46 53 49
-365.436 -980.149 -2174.5 48 55 51
-369.96 -981.525 -2171.5 47 54 50
-374.495 -983.365 -2167.5 45 52 48
-379.044 -982.904 -2168.5 46 53 49
-383.589 -982.445 -2169.5 49 55 51
-388.121 -981.068 -2172.5 58 60 60
-1.48088 -975.867 -2217.5 52 55 55
-5.71688 -976.552 -2215.5 50 54 53
-11.3589 -973.494 -2221.5 51 55 54
-16.4529 -971.845 -2224.5 52 57 56
-21.3589 -970.668 -2226.5 54 60 59
-26.4219 -969.026 -2229.5 51 57 56
-31.4689 -967.389 -2232.5 48 55 53
-36.4989 -965.755 -2235.5 45 53 51
-41.0259 -965.527 -2235.5 45 49 48
-46.1899 -963.433 -2239.5 42 48 47
-51.4919 -960.876 -2244.5 42 48 47
-56.7679 -958.323 -2249.5 49 53 52
-61.0999 -958.577 -2248.5 52 56 55
-66.1879 -956.498 -2252.5 53 57 56
-70.8099 -955.824 -2253.5 51 55 54
-74.9829 -956.553 -2251.5 48 54 51
-79.5959 -955.885 -2252.5 47 54 50
-84.0599 -955.687 -2252.5 47 54 50
-88.8019 -954.559 -2254.5 46 53 49
-92.8409 -955.766 -2251.5 46 53 49
-97.4349 -955.111 -2252.5 48 55 49
-102.022 -954.459 -2253.5 49 56 50
-106.997 -952.412 -2257.5 48 55 49
-111.046 -953.63 -2254.5 47 54 48
-115.742 -952.522 -2256.5 46 53 47
-120.301 -951.883 -2257.5 45 52 46
-124.731 -951.712 -2257.5 49 53 48
-128.917 -952.476 -2255.5 49 55 49
-133.584 -951.38 -2257.5 47 54 48
-138.007 -951.219 -2257.5 47 53 47
-142.084 -952.456 -2254.5 48 53 48
-146.172 -953.696 -2251.5 47 51 46
-150.601 -953.544 -2251.5 50 54 49
-154.379 -956.185 -2245.5 50 54 49
-158.288 -958.362 -2240.5 50 54 49
-162.423 -959.612 -2237.5 47 51 48
-166.569 -960.865 -2234.5 45 49 46
-170.228 -964.445 -2226.5 45 49 46
-174.212 -966.632 -2221.5 44 48 45
-178.216 -968.822 -2216.5 42 46 43
-182.239 -971.014 -2211.5 40 44 41
-186.464 -972.279 -2208.5 37 39 39
-191.321 -970.295 -2212.5 26 27 27
-196.247 -967.85 -2217.5 32 32 32
-201.064 -965.874 -2221.5 36 38 38
-205.781 -964.365 -2224.5 37 39 39
-210.483 -962.859 -2227.5 37 39 39
-215.328 -960.428 -2232.5 40 47 43
-219.997 -958.93 -2235.5 42 50 46
-224.874 -956.041 -2241.5 42 50 46
-229.508 -954.549 -2244.5 46 53 49
-234.128 -953.06 -2247.5 44 51 47
-238.532 -952.966 -2247.5 43 51 47
-242.869 -953.339 -2246.5 44 52 48
-247.146 -954.179 -2244.5 43 51 47
-251.492 -954.558 -2243.5 43 51 47
-255.722 -955.867 -2240.5 45 53 49
-260.192 -955.324 -2241.5 47 55 51
-264.547 -955.711 -2240.5 46 54 50
-269.01 -955.174 -2241.5 48 56 52
-273.317 -956.03 -2239.5 48 55 51
-277.727 -955.963 -2239.5 47 54 50
-282.045 -956.825 -2237.5 46 53 49
-286.326 -958.154 -2234.5 48 53 50
-290.661 -959.022 -2232.5 50 54 51
-294.884 -961.284 -2227.5 50 54 51
-299.241 -962.157 -2225.5 46 52 48
-303.534 -963.961 -2221.5 43 50 46
-307.945 -964.376 -2220.5 42 49 45
-312.045 -969.43 -2209.5 41 48 44
-316.338 -972.168 -2203.5 41 48 44
-320.602 -975.836 -2195.5 43 50 46
-324.999 -977.654 -2191.5 43 49 45
-329.435 -979.01 -2188.5 41 47 44
-334.007 -977.59 -2191.5 44 49 46
-338.437 -979.416 -2187.5 45 49 46
-342.981 -978.464 -2189.5 46 50 47
-347.403 -981.223 -2183.5 45 52 48
-351.898 -982.131 -2181.5 47 52 49
-356.401 -983.042 -2179.5 48 53 50
-360.929 -983.029 -2179.5 48 55 51
-365.445 -983.947 -2177.5 48 55 51
-369.966 -985.33 -2174.5 46 53 49
-374.501 -986.253 -2172.5 46 53 49
-379.045 -988.105 -2168.5 48 55 51
-383.593 -987.644 -2169.5 50 56 53
-388.118 -985.333 -2174.5 61 63 63
3.37012 -981.284 -2217.5 55 57 57
-1.40688 -980.556 -2218.5 50 53 52
-5.64288 -981.244 -2216.5 50 54 53
-10.7609 -979.582 -2219.5 49 53 52
-15.8629 -977.923 -2222.5 49 53 52
-20.7769 -976.739 -2224.5 49 55 54
-25.5099 -976.029 -2225.5 50 56 55
-30.5689 -974.382 -2228.5 49 56 54
-35.6109 -972.739 -2231.5 47 55 53
-40.6369 -971.1 -2234.5 48 52 51
-45.8069 -968.995 -2238.5 44 49 48
-50.9559 -966.894 -2242.5 42 48 47
-56.0849 -964.796 -2246.5 46 50 49
-60.7329 -964.111 -2247.5 50 54 53
-65.6759 -962.491 -2250.5 52 56 55
-70.1559 -962.282 -2250.5 51 55 54
-74.7799 -961.607 -2251.5 49 55 52
-79.1059 -961.873 -2250.5 50 57 53
-83.5779 -961.674 -2250.5 49 56 52
-88.7479 -959.133 -2255.5 47 54 50
-92.9269 -959.878 -2253.5 49 56 52
-97.7919 -958.282 -2256.5 51 58 52
-102.239 -958.095 -2256.5 51 58 52
-106.684 -957.911 -2256.5 50 57 51
-110.996 -958.199 -2255.5 48 55 49
-115.949 -956.148 -2259.5 46 53 47
-120.254 -956.442 -2258.5 43 50 44
-124.685 -956.27 -2258.5 46 50 45
-128.871 -957.038 -2256.5 48 53 48
-133.183 -957.34 -2255.5 47 54 48
-137.73 -956.71 -2256.5 47 54 48
-141.926 -957.486 -2254.5 48 53 47
-146.017 -958.732 -2251.5 46 50 45
-150.008 -960.449 -2247.5 47 51 46
-154.122 -961.7 -2244.5 48 52 47
-158.141 -963.422 -2240.5 49 53 48
-162.383 -964.211 -2238.5 48 52 49
-166.733 -964.536 -2237.5 46 50 47
-170.687 -966.732 -2232.5 46 50 47
-174.564 -969.399 -2226.5 43 47 44
-178.273 -973.001 -2218.5 40 44 41
-182.016 -976.606 -2210.5 37 41 38
-186.518 -976.477 -2210.5 36 38 38
-191.197 -975.416 -2212.5 26 26 26
-196.039 -973.426 -2216.5 33 33 33
-201.031 -970.505 -2222.5 36 38 38
-205.832 -968.521 -2226.5 38 40 40
-210.452 -967.474 -2228.5 38 40 40
-215.219 -965.497 -2232.5 39 46 42
-219.968 -963.523 -2236.5 41 48 44
-224.624 -962.02 -2239.5 42 50 46
-229.409 -959.586 -2244.5 45 52 48
-233.754 -959.955 -2243.5 44 51 47
-238.372 -958.461 -2246.5 42 50 46
-242.649 -959.303 -2244.5 42 50 46
-246.806 -961.079 -2240.5 42 50 46
-251.224 -960.993 -2240.5 44 52 48
-255.7 -960.444 -2241.5 42 52 48
-260.114 -960.364 -2241.5 44 53 49
-264.471 -960.753 -2240.5 47 55 51
-268.938 -960.213 -2241.5 48 56 52
-273.348 -960.142 -2241.5 46 54 50
-277.709 -960.54 -2240.5 43 50 46
-282.12 -960.475 -2240.5 45 52 48
-286.353 -962.277 -2236.5 48 53 50
-290.645 -963.616 -2233.5 48 52 49
-294.949 -964.957 -2230.5 49 53 50
-299.264 -966.301 -2227.5 46 52 49
-303.414 -969.978 -2219.5 43 50 46
-307.698 -972.259 -2214.5 44 52 48
-311.971 -975.01 -2208.5 43 51 47
-316.181 -979.16 -2199.5 43 50 46
-320.537 -981.45 -2194.5 44 50 47
-325.014 -981.879 -2193.5 44 49 46
-329.403 -984.174 -2188.5 42 46 43
-333.895 -984.609 -2187.5 44 51 47
-338.41 -984.582 -2187.5 47 52 49
-342.876 -985.955 -2184.5 48 53 49
-347.354 -987.33 -2181.5 47 53 50
-351.893 -986.846 -2182.5 49 53 50
-356.407 -987.296 -2181.5 52 57 53
-360.91 -988.68 -2178.5 51 58 54
-365.443 -988.671 -2178.5 49 56 52
-369.961 -990.527 -2174.5 48 55 51
-374.497 -991.92 -2171.5 47 54 50
-379.046 -993.317 -2168.5 47 54 50
-383.597 -992.853 -2169.5 50 56 52
-388.154 -993.325 -2168.5 62 63 62
4.17612 -987.876 -2214.5 55 57 57
-1.50988 -984.778 -2220.5 49 51 51
-5.38988 -986.415 -2216.5 48 52 51
-10.3359 -985.217 -2218.5 49 53 52
-16.1369 -981.658 -2225.5 49 54 53
-20.8769 -980.941 -2226.5 47 53 52
-25.4399 -980.699 -2226.5 48 54 53
-30.8329 -978.098 -2231.5 48 54 53
-35.8729 -976.447 -2234.5 46 54 52
-40.4089 -976.216 -2234.5 46 51 50
-45.4219 -974.571 -2237.5 44 49 48
-50.5769 -972.459 -2241.5 44 49 48
-56.0229 -969.407 -2247.5 47 51 50
-60.5179 -969.19 -2247.5 50 54 53
-65.3139 -968.032 -2249.5 52 56 55
-70.2459 -966.407 -2252.5 51 55 54
-74.4279 -967.143 -2250.5 51 56 54
-78.9049 -966.939 -2250.5 51 57 54
-83.6639 -965.795 -2252.5 49 56 52
-88.2719 -965.126 -2253.5 48 55 50
-92.7339 -964.932 -2253.5 47 54 50
-97.6029 -963.327 -2256.5 48 55 49
-101.919 -963.611 -2255.5 50 57 51
-106.501 -962.955 -2256.5 51 58 52
-111.076 -962.302 -2257.5 51 58 51
-115.645 -961.652 -2258.5 50 56 49
-119.955 -961.947 -2257.5 48 54 48
-124.145 -962.716 -2255.5 47 51 46
-128.704 -962.076 -2256.5 44 50 44
-132.899 -962.85 -2254.5 45 52 46
-137.334 -962.686 -2254.5 45 53 47
-141.538 -963.466 -2252.5 45 52 46
-145.861 -963.778 -2251.5 47 51 46
-149.965 -965.033 -2248.5 46 50 45
-154.08 -966.291 -2245.5 47 51 47
-158.099 -968.022 -2241.5 48 52 47
-162.446 -968.345 -2240.5 48 52 50
-166.592 -969.611 -2237.5 48 51 48
-170.748 -970.88 -2234.5 47 50 47
-174.428 -974.499 -2226.5 43 47 44
-178.426 -976.712 -2221.5 40 44 41
-182.257 -979.866 -2214.5 37 41 37
-186.754 -979.736 -2214.5 32 34 34
-191.339 -979.14 -2215.5 25 26 27
-196.178 -977.139 -2219.5 32 32 33
-200.998 -975.141 -2223.5 37 38 38
-205.799 -973.146 -2227.5 37 39 38
-210.421 -972.094 -2229.5 39 42 40
-215.032 -971.045 -2231.5 40 45 43
-219.862 -968.592 -2236.5 42 48 45
-224.743 -965.673 -2242.5 45 52 48
-229.166 -965.572 -2242.5 43 51 47
-233.727 -964.536 -2244.5 43 51 47
-238.008 -965.378 -2242.5 43 51 47
-242.362 -965.755 -2241.5 41 49 45
-246.655 -966.603 -2239.5 42 50 46
-251.14 -966.048 -2240.5 45 53 49
-255.618 -965.496 -2241.5 44 53 49
-260.149 -964.478 -2243.5 45 53 49
-264.505 -964.869 -2242.5 47 55 51
-268.917 -964.795 -2242.5 48 55 51
-273.278 -965.192 -2241.5 47 55 51
-277.594 -966.06 -2239.5 44 51 47
-282.01 -965.994 -2239.5 46 54 50
-286.292 -967.337 -2236.5 49 56 52
-290.629 -968.214 -2234.5 48 54 50
-294.893 -970.031 -2230.5 46 52 48
-299.25 -970.914 -2228.5 46 51 47
-303.4 -974.61 -2220.5 45 50 47
-307.751 -975.966 -2217.5 44 52 48
-312.021 -978.731 -2211.5 44 51 47
-316.198 -983.372 -2201.5 43 50 46
-320.58 -985.205 -2197.5 44 48 45
-324.928 -987.978 -2191.5 44 48 45
-329.393 -988.88 -2189.5 43 47 44
-333.907 -988.849 -2189.5 47 51 48
-338.384 -989.758 -2187.5 48 52 49
-342.853 -991.138 -2184.5 48 52 49
-347.405 -990.18 -2186.5 49 53 50
-351.912 -990.629 -2185.5 50 54 51
-356.464 -989.209 -2188.5 52 56 53
-360.947 -991.069 -2184.5 51 58 54
-365.464 -991.527 -2183.5 50 57 53
-369.97 -993.861 -2178.5 47 54 50
-374.498 -996.195 -2173.5 47 54 50
-379.045 -996.665 -2172.5 49 56 52
-383.588 -995.735 -2174.5 53 59 55
-388.146 -997.145 -2171.5 63 63 61
3.89012 -991.638 -2217.5 54 56 56
-1.07288 -990.427 -2219.5 50 52 52
-5.13488 -991.597 -2216.5 48 50 52
-10.2609 -989.916 -2219.5 47 51 50
-15.7159 -987.289 -2224.5 49 53 52
-20.8039 -985.617 -2227.5 49 55 54
-25.3679 -985.374 -2227.5 52 56 55
-30.4299 -983.71 -2230.5 52 56 55
-35.3099 -982.524 -2232.5 50 56 55
-39.8539 -982.291 -2232.5 47 55 53
-44.8749 -980.638 -2235.5 45 51 50
-50.5119 -977.091 -2242.5 46 50 49
-55.3359 -975.92 -2244.5 49 53 52
-60.3029 -974.278 -2247.5 49 54 53
-65.1009 -973.115 -2249.5 49 55 54
-70.1869 -971.006 -2253.5 51 55 54
-74.3689 -971.746 -2251.5 51 55 54
-78.9919 -971.067 -2252.5 52 56 55
-83.7499 -969.917 -2254.5 50 57 51
-88.3569 -969.245 -2255.5 48 55 49
-92.9559 -968.576 -2256.5 47 54 50
-97.1399 -969.331 -2254.5 46 53 47
-102 -967.721 -2257.5 47 54 48
-106.449 -967.535 -2257.5 49 56 50
-110.766 -967.825 -2256.5 53 57 50
-115.084 -968.118 -2255.5 52 56 49
-119.906 -966.522 -2258.5 51 55 48
-123.973 -967.767 -2255.5 48 52 47
-128.535 -967.124 -2256.5 45 51 45
-132.852 -967.429 -2255.5 45 52 46
-137.172 -967.737 -2254.5 45 53 47
-141.264 -968.993 -2251.5 45 53 47
-145.479 -969.779 -2249.5 46 53 47
-149.701 -970.568 -2247.5 46 53 47
-153.82 -971.833 -2244.5 47 53 48
-157.845 -973.572 -2240.5 46 50 47
-162.509 -972.48 -2242.5 46 50 49
-166.551 -974.224 -2238.5 47 51 49
-171.007 -974.083 -2238.5 47 50 47
-174.388 -979.138 -2227.5 43 47 44
-178.482 -980.89 -2223.5 38 42 38
-182.219 -984.532 -2215.5 35 39 34
-186.717 -984.402 -2215.5 29 31 31
-191.124 -984.746 -2214.5 25 26 27
-195.968 -982.734 -2218.5 32 32 34
-200.794 -980.726 -2222.5 36 36 36
-205.435 -979.664 -2224.5 38 40 39
-210.308 -977.191 -2229.5 40 44 41
-215.001 -975.665 -2232.5 42 46 45
-219.68 -974.142 -2235.5 42 46 44
-224.344 -972.622 -2238.5 45 49 46
-228.922 -971.577 -2240.5 43 51 47
-233.282 -971.949 -2239.5 42 50 46
-237.711 -971.853 -2239.5 42 50 46
-241.944 -973.174 -2236.5 45 53 49
-246.504 -972.141 -2238.5 44 52 48
-250.993 -971.583 -2239.5 46 54 50
-255.477 -971.028 -2240.5 46 54 50
-259.956 -970.476 -2241.5 47 55 51
-264.319 -970.869 -2240.5 48 55 51
-268.897 -969.381 -2243.5 49 56 52
-273.208 -970.251 -2241.5 47 54 50
-277.672 -969.711 -2242.5 45 52 48
-281.991 -970.587 -2240.5 44 52 48
-286.363 -970.995 -2239.5 46 53 49
-290.738 -971.406 -2238.5 47 54 50
-294.838 -975.115 -2230.5 45 52 48
-299.084 -977.415 -2225.5 45 51 47
-303.314 -980.189 -2219.5 46 50 47
-307.604 -982.494 -2214.5 42 50 46
-311.82 -986.214 -2206.5 43 50 46
-316.157 -988.525 -2201.5 42 49 45
-320.596 -989.426 -2199.5 45 49 46
-324.993 -991.272 -2195.5 46 50 47
-329.406 -993.121 -2191.5 46 50 47
-333.857 -994.502 -2188.5 46 50 47
-338.376 -994.474 -2188.5 47 51 48
-342.829 -996.335 -2184.5 48 52 49
-347.37 -995.835 -2185.5 50 54 51
-351.919 -994.875 -2187.5 49 53 50
-356.449 -994.392 -2188.5 50 54 51
-360.943 -995.795 -2185.5 49 56 52
-365.438 -998.135 -2180.5 49 56 52
-369.961 -999.535 -2177.5 49 56 52
-374.497 -1000.94 -2174.5 50 57 53
-379.047 -1003.3 -2169.5 51 58 54
-383.608 -1003.77 -2168.5 53 59 55
-388.172 -1004.24 -2167.5 64 64 62
3.97112 -996.355 -2218.5 56 57 58
-1.35388 -994.178 -2222.5 52 55 55
-5.59088 -994.875 -2220.5 52 56 55
-10.3599 -994.143 -2221.5 52 56 53
-15.4679 -992.458 -2224.5 50 54 52
-20.3879 -991.255 -2226.5 50 56 55
-25.2959 -990.055 -2228.5 54 58 57
-30.0249 -989.337 -2229.5 54 58 57
-35.2399 -987.19 -2233.5 53 59 58
-39.7849 -986.956 -2233.5 51 59 57
-44.8069 -985.294 -2236.5 48 55 53
-49.8129 -983.636 -2239.5 48 52 51
-54.8029 -981.981 -2242.5 48 52 51
-59.6239 -980.807 -2244.5 47 52 51
-64.4319 -979.637 -2246.5 49 54 53
-69.2289 -978.47 -2248.5 51 55 54
-74.0139 -977.308 -2250.5 51 55 54
-78.6419 -976.624 -2251.5 52 56 55
-82.9779 -976.897 -2250.5 47 54 48
-88.0179 -974.792 -2254.5 45 52 47
-92.4849 -974.595 -2254.5 46 53 49
-97.0849 -973.926 -2255.5 47 54 48
-101.947 -972.307 -2258.5 46 53 47
-106.396 -972.12 -2258.5 48 55 49
-110.714 -972.412 -2257.5 51 55 50
-115.16 -972.231 -2257.5 50 54 48
-119.731 -971.577 -2258.5 47 51 44
-124.047 -971.878 -2257.5 46 50 45
-128.365 -972.181 -2256.5 49 54 49
-132.685 -972.488 -2255.5 46 53 47
-137.008 -972.797 -2254.5 45 52 46
-141.103 -974.06 -2251.5 46 53 47
-145.321 -974.85 -2249.5 45 52 46
-149.545 -975.643 -2247.5 44 51 45
-153.56 -977.389 -2243.5 46 52 47
-157.802 -978.187 -2241.5 48 52 47
-162.258 -978.039 -2241.5 47 51 48
-166.407 -979.318 -2238.5 47 51 48
-170.567 -980.599 -2235.5 47 50 47
-174.152 -984.731 -2226.5 44 48 45
-178.347 -986.017 -2223.5 37 41 37
-181.992 -990.153 -2214.5 32 36 31
-186.496 -990.021 -2214.5 26 28 28
-190.819 -990.841 -2212.5 24 25 26
-195.41 -990.242 -2213.5 30 30 32
-200.419 -987.274 -2219.5 35 35 35
-205.07 -986.207 -2221.5 38 39 38
-209.953 -983.72 -2226.5 39 43 40
-214.656 -982.186 -2229.5 42 46 45
-219.496 -979.707 -2234.5 42 46 44
-224.092 -978.653 -2236.5 45 49 46
-228.75 -977.128 -2239.5 44 51 47
-233.044 -977.976 -2237.5 41 49 45
-237.549 -977.406 -2238.5 39 47 43
-241.721 -979.207 -2234.5 44 52 48
-246.288 -978.169 -2236.5 44 52 48
-250.846 -977.134 -2238.5 45 53 49
-255.395 -976.102 -2240.5 47 55 51
-259.99 -974.6 -2243.5 47 55 51
-264.243 -975.942 -2240.5 47 54 50
-268.718 -975.393 -2241.5 49 56 52
-273.188 -974.847 -2242.5 47 54 50
-277.604 -974.777 -2242.5 46 53 49
-281.927 -975.658 -2240.5 42 49 45
-286.301 -976.068 -2239.5 45 51 48
-290.637 -976.954 -2237.5 48 53 50
-294.901 -978.79 -2233.5 46 53 49
-299.03 -982.522 -2225.5 47 52 48
-303.3 -984.836 -2220.5 46 50 47
-307.59 -987.153 -2215.5 41 49 45
-311.838 -990.42 -2208.5 41 48 44
-316.174 -992.742 -2203.5 42 49 45
-320.584 -994.122 -2200.5 46 50 47
-324.982 -995.975 -2196.5 46 50 47
-329.374 -998.305 -2191.5 47 51 48
-333.89 -998.275 -2191.5 48 52 49
-338.387 -998.725 -2190.5 47 51 48
-342.888 -999.175 -2189.5 48 52 49
-347.407 -999.145 -2189.5 51 55 52
-351.926 -999.125 -2189.5 50 54 51
-356.435 -999.585 -2188.5 50 54 51
-360.948 -1000.04 -2187.5 49 56 52
-365.441 -1002.4 -2182.5 48 55 51
-369.956 -1004.76 -2177.5 50 57 53
-374.49 -1007.59 -2171.5 50 57 53
-379.049 -1009.48 -2167.5 50 57 53
-383.614 -1009.48 -2167.5 53 59 55
-388.199 -1011.38 -2163.5 63 63 61
4.41712 -1002.03 -2217.5 57 58 59
-1.09388 -999.365 -2222.5 54 56 56
-5.51088 -999.585 -2221.5 51 55 54
-10.4569 -998.375 -2223.5 52 56 53
-15.5649 -996.675 -2226.5 51 55 53
-20.4839 -995.465 -2228.5 52 58 57
-24.8829 -995.705 -2227.5 53 58 57
-29.9519 -994.019 -2230.5 52 57 56
-35.0039 -992.341 -2233.5 53 59 58
-39.8769 -991.146 -2235.5 53 60 58
-44.5779 -990.434 -2236.5 50 56 55
-49.5869 -988.767 -2239.5 49 53 52
-54.2689 -988.063 -2240.5 48 52 51
-58.9429 -987.362 -2241.5 48 52 51
-64.0649 -985.226 -2245.5 49 53 52
-69.1659 -983.095 -2249.5 47 51 50
-73.8049 -982.405 -2250.5 48 52 51
-78.7269 -980.76 -2253.5 50 54 53
-83.6329 -979.12 -2256.5 49 56 51
-87.6779 -980.355 -2253.5 50 57 52
-92.4279 -979.199 -2255.5 48 55 51
-97.0289 -978.526 -2256.5 47 52 47
-101.623 -977.856 -2257.5 47 52 47
-105.813 -978.624 -2255.5 46 53 47
-110.53 -977.482 -2257.5 50 54 49
-115.108 -976.822 -2258.5 50 54 48
-119.428 -977.121 -2257.5 47 51 45
-123.873 -976.945 -2257.5 46 50 45
-128.073 -977.728 -2255.5 48 53 48
-132.518 -977.558 -2255.5 45 52 46
-136.609 -978.824 -2252.5 45 52 46
-140.826 -979.615 -2250.5 46 53 47
-145.049 -980.409 -2248.5 44 51 45
-149.5 -980.251 -2248.5 45 52 46
-153.84 -980.574 -2247.5 46 52 47
-158.077 -981.376 -2245.5 49 53 48
-162.528 -981.227 -2245.5 48 52 49
-166.263 -984.421 -2238.5 46 50 47
-171.125 -982.37 -2242.5 46 49 46
-174.306 -988.431 -2229.5 42 46 43
-178.211 -991.155 -2223.5 38 42 39
-181.859 -995.315 -2214.5 32 36 31
-186.183 -996.135 -2212.5 26 28 28
-190.335 -997.915 -2208.5 26 27 28
-195.199 -995.875 -2212.5 32 32 34
-199.959 -994.324 -2215.5 37 37 37
-204.787 -992.298 -2219.5 40 41 41
-209.758 -989.322 -2225.5 38 42 41
-214.544 -987.303 -2229.5 40 44 43
-219.465 -984.334 -2235.5 43 47 45
-223.987 -983.751 -2236.5 45 49 46
-228.504 -983.171 -2237.5 44 51 47
-232.806 -984.023 -2235.5 41 48 44
-237.386 -982.973 -2237.5 38 45 41
-241.759 -983.355 -2236.5 41 49 45
-246.516 -980.883 -2241.5 43 51 47
-250.821 -981.747 -2239.5 44 52 48
-255.43 -980.234 -2242.5 43 51 47
-259.739 -981.104 -2240.5 44 52 48
-264.111 -981.501 -2239.5 47 54 49
-268.697 -979.997 -2242.5 49 56 52
-272.965 -981.352 -2239.5 48 55 51
-277.585 -979.379 -2243.5 47 54 50
-281.815 -981.215 -2239.5 45 52 48
-286.504 -978.297 -2245.5 47 52 49
-290.494 -982.994 -2235.5 48 52 49
-294.845 -983.887 -2233.5 47 53 49
-299.053 -986.687 -2227.5 46 51 48
-303.249 -989.964 -2220.5 45 49 46
-307.475 -993.245 -2213.5 42 49 45
-311.73 -996.525 -2206.5 43 49 45
-316.073 -998.865 -2201.5 44 49 46
-320.437 -1001.2 -2196.5 45 49 46
-324.921 -1001.63 -2195.5 45 49 46
-329.387 -1002.55 -2193.5 47 51 48
-333.922 -1002.04 -2194.5 49 53 50
-338.397 -1002.97 -2192.5 48 52 49
-342.864 -1004.37 -2189.5 50 54 51
-347.387 -1004.35 -2189.5 53 57 54
-351.933 -1003.38 -2191.5 51 55 52
-356.38 -1006.69 -2184.5 52 56 53
-360.912 -1006.67 -2184.5 50 55 52
-365.433 -1007.62 -2182.5 50 55 52
-369.951 -1009.99 -2177.5 51 56 53
-374.484 -1014.26 -2168.5 49 56 52
-379.051 -1015.21 -2166.5 48 55 51
-383.624 -1015.69 -2165.5 51 57 53
5.77912 -1010.14 -2211.5 57 58 58
-0.470881 -1005.53 -2220.5 52 54 54
-5.43088 -1004.3 -2222.5 47 51 50
-10.3779 -1003.08 -2224.5 47 51 48
-15.6609 -1000.89 -2228.5 50 54 51
-20.7509 -999.195 -2231.5 51 56 54
-25.1459 -999.435 -2230.5 52 57 55
-30.3789 -997.265 -2234.5 55 59 58
-35.5909 -995.095 -2238.5 53 59 58
-40.1309 -994.855 -2238.5 52 58 57
-44.8289 -994.139 -2239.5 51 57 56
-49.5179 -993.428 -2240.5 51 55 54
-54.5129 -991.755 -2243.5 49 53 52
-58.8759 -992.014 -2242.5 48 52 51
-64.1509 -989.386 -2247.5 50 54 53
-68.9529 -988.207 -2249.5 48 52 51
-73.8899 -986.55 -2252.5 49 53 52
-78.2299 -986.822 -2251.5 51 55 54
-83.0009 -985.654 -2253.5 50 57 53
-87.4779 -985.451 -2253.5 50 57 53
-91.9529 -985.252 -2253.5 48 55 51
-96.4249 -985.056 -2253.5 49 53 48
-101.163 -983.901 -2255.5 48 53 48
-105.626 -983.711 -2255.5 47 54 48
-109.956 -984.005 -2254.5 50 54 49
-114.799 -982.379 -2257.5 48 52 47
-119.502 -981.238 -2259.5 46 50 45
-123.822 -981.542 -2258.5 46 50 45
-128.144 -981.848 -2257.5 47 51 46
-132.588 -981.677 -2257.5 46 53 47
-136.443 -983.91 -2252.5 44 51 45
-140.778 -984.225 -2251.5 43 50 44
-145.115 -984.544 -2250.5 43 50 44
-149.343 -985.344 -2248.5 44 51 45
-153.686 -985.668 -2247.5 46 52 46
-158.032 -985.995 -2246.5 48 53 48
-162.172 -987.284 -2243.5 48 52 49
-166.22 -989.056 -2239.5 46 50 47
-170.483 -989.871 -2237.5 46 49 46
-174.166 -993.565 -2229.5 44 48 45
-178.074 -996.305 -2223.5 42 46 42
-181.818 -1000 -2215.5 35 39 34
-186.143 -1000.82 -2213.5 28 30 30
-190.296 -1002.61 -2209.5 28 29 29
-194.987 -1001.52 -2211.5 32 32 33
-199.922 -999.005 -2216.5 39 39 39
-204.752 -996.975 -2220.5 40 42 41
-209.643 -994.46 -2225.5 38 42 41
-214.433 -992.43 -2229.5 41 45 44
-219.433 -988.967 -2236.5 45 49 47
-223.882 -988.859 -2236.5 46 50 47
-228.618 -986.84 -2240.5 45 52 48
-232.847 -988.175 -2237.5 44 51 47
-237.561 -986.163 -2241.5 42 49 45
-241.666 -988.461 -2236.5 43 51 47
-246.49 -985.498 -2242.5 43 51 47
-250.796 -986.367 -2240.5 41 49 45
-255.464 -984.366 -2244.5 40 48 44
-259.829 -984.763 -2243.5 42 49 44
-264.143 -985.64 -2241.5 46 53 47
-268.569 -985.564 -2241.5 48 55 51
-272.893 -986.447 -2239.5 49 56 52
-277.516 -984.463 -2243.5 47 54 50
-281.657 -987.266 -2237.5 47 54 50
-286.265 -985.289 -2241.5 47 52 49
-290.519 -987.14 -2237.5 49 53 50
-294.828 -988.517 -2234.5 50 54 51
-298.961 -992.287 -2226.5 47 51 48
-303.198 -995.105 -2220.5 44 48 45
-307.494 -997.445 -2215.5 44 50 46
-311.748 -1000.74 -2208.5 45 50 46
-316.09 -1003.09 -2203.5 45 49 46
-320.452 -1005.44 -2198.5 44 48 45
-324.86 -1007.31 -2194.5 45 49 46
-329.331 -1008.23 -2192.5 48 52 49
-333.872 -1007.72 -2193.5 50 54 51
-338.333 -1009.13 -2190.5 50 54 51
-342.857 -1009.1 -2190.5 51 55 52
-347.352 -1010.04 -2188.5 51 55 52
-351.867 -1010.5 -2187.5 50 54 51
-356.406 -1010 -2188.5 50 54 51
-360.885 -1012.86 -2182.5 52 56 53
-365.407 -1014.28 -2179.5 54 58 55
-369.927 -1017.62 -2172.5 53 57 54
-374.48 -1020 -2167.5 48 53 50
-379.054 -1022.39 -2162.5 48 54 51
-383.636 -1022.4 -2162.5 50 56 52
5.86512 -1014.9 -2212.5 56 57 57
-0.567881 -1009.77 -2222.5 53 55 55
-5.88388 -1007.57 -2226.5 50 54 53
-10.8259 -1006.34 -2228.5 46 50 48
-15.7549 -1005.11 -2230.5 50 54 51
-20.8449 -1003.4 -2233.5 52 56 53
-25.0689 -1004.13 -2231.5 52 56 54
-30.4709 -1001.46 -2236.5 56 60 58
-35.5179 -999.765 -2239.5 55 60 59
-40.0589 -999.525 -2239.5 52 58 57
-44.7569 -998.805 -2240.5 50 56 55
-49.7649 -997.125 -2243.5 51 55 54
-53.8189 -998.345 -2240.5 50 54 53
-58.9619 -996.185 -2244.5 48 52 51
-63.7809 -994.995 -2246.5 48 52 51
-68.8879 -992.845 -2250.5 49 53 52
-73.8259 -991.18 -2253.5 50 54 53
-78.3119 -990.97 -2253.5 49 53 52
-83.3689 -988.827 -2257.5 47 54 50
-87.5589 -989.591 -2255.5 49 56 52
-92.1709 -988.907 -2256.5 48 55 51
-96.3659 -989.677 -2254.5 49 54 50
-101.375 -987.549 -2258.5 48 53 48
-105.702 -987.842 -2257.5 47 54 49
-110.03 -988.137 -2256.5 50 54 49
-114.745 -986.986 -2258.5 49 53 48
-119.449 -985.839 -2260.5 46 50 45
-123.893 -985.661 -2260.5 45 49 44
-128.214 -985.969 -2259.5 44 49 44
-132.657 -985.797 -2259.5 45 51 46
-136.276 -989.007 -2252.5 46 53 47
-140.499 -989.806 -2250.5 44 51 45
-144.728 -990.608 -2248.5 43 50 44
-149.185 -990.448 -2248.5 45 52 46
-153.64 -990.291 -2248.5 46 53 47
-157.88 -991.102 -2246.5 47 54 48
-162.335 -990.951 -2246.5 49 53 50
-166.38 -992.731 -2242.5 46 50 47
-170.64 -993.551 -2240.5 45 49 46
-174.124 -998.225 -2230.5 42 46 43
-178.032 -1000.98 -2224.5 40 44 40
-181.683 -1005.18 -2215.5 33 37 32
-186.01 -1006 -2213.5 28 30 30
-190.167 -1007.8 -2209.5 29 31 31
-194.861 -1006.71 -2211.5 33 33 33
-199.715 -1004.66 -2215.5 37 38 38
-204.549 -1002.61 -2219.5 40 42 42
-209.285 -1001.05 -2222.5 40 43 42
-214.32 -997.565 -2229.5 43 46 45
-219.095 -995.535 -2233.5 46 49 48
-223.702 -994.46 -2235.5 47 51 49
-228.155 -994.355 -2235.5 45 52 48
-232.747 -993.291 -2237.5 44 51 47
-237.396 -991.749 -2240.5 45 52 48
-241.704 -992.615 -2238.5 45 52 48
-246.209 -992.042 -2239.5 44 51 47
-250.77 -990.991 -2241.5 42 49 45
-255.143 -991.385 -2240.5 41 49 45
-259.691 -990.341 -2242.5 42 50 45
-264.01 -991.223 -2240.5 43 50 44
-268.336 -992.107 -2238.5 46 53 49
-272.72 -992.514 -2237.5 48 55 51
-277.35 -990.52 -2241.5 47 54 50
-281.498 -993.337 -2235.5 47 54 50
-286.025 -992.311 -2237.5 47 53 49
-290.29 -994.172 -2233.5 47 51 48
-294.651 -995.075 -2231.5 48 52 49
-298.755 -999.345 -2222.5 47 51 48
-303.076 -1001.21 -2218.5 45 49 46
-307.412 -1003.08 -2214.5 43 48 45
-311.608 -1007.36 -2205.5 46 50 47
-315.989 -1009.24 -2201.5 47 51 48
-320.44 -1010.16 -2199.5 45 49 46
-324.899 -1011.08 -2197.5 46 50 47
-329.366 -1012.01 -2195.5 50 53 50
-333.842 -1012.94 -2193.5 51 55 52
-338.325 -1013.87 -2191.5 52 56 53
-342.817 -1014.8 -2189.5 52 56 53
-347.302 -1016.22 -2186.5 50 54 51
-351.812 -1017.16 -2184.5 49 53 50
-356.351 -1017.15 -2184.5 50 54 51
-360.874 -1018.1 -2182.5 51 55 52
-365.393 -1020.01 -2178.5 52 56 53
-369.925 -1022.4 -2173.5 52 56 53
-374.479 -1024.8 -2168.5 49 53 50
-379.055 -1028.16 -2161.5 46 52 48
-383.648 -1029.13 -2159.5 50 55 52
7.04912 -1022.59 -2207.5 55 56 56
-0.302881 -1015 -2222.5 53 55 55
-6.33588 -1010.83 -2230.5 51 56 54
-11.0959 -1010.08 -2231.5 48 51 49
-15.6749 -1009.82 -2231.5 48 52 49
-20.7659 -1008.1 -2234.5 51 55 52
-25.3309 -1007.85 -2234.5 52 56 53
-30.0599 -1007.12 -2235.5 51 55 52
-35.1119 -1005.42 -2238.5 51 55 54
-39.8219 -1004.69 -2239.5 51 56 55
-44.8459 -1002.99 -2242.5 51 57 56
-49.5359 -1002.27 -2243.5 52 56 55
-53.9049 -1002.53 -2242.5 51 55 54
-58.5849 -1001.82 -2243.5 48 52 51
-64.0179 -998.685 -2249.5 47 51 50
-68.3719 -998.945 -2248.5 47 51 50
-73.1699 -997.765 -2250.5 48 52 51
-77.9569 -996.575 -2252.5 48 52 51
-82.5899 -995.885 -2253.5 45 51 49
-87.0729 -995.675 -2253.5 46 53 49
-91.8329 -994.502 -2255.5 46 53 49
-96.5809 -993.332 -2257.5 49 54 51
-101.317 -992.165 -2259.5 50 54 51
-105.38 -993.43 -2256.5 48 55 51
-109.974 -992.755 -2257.5 49 53 49
-114.562 -992.084 -2258.5 48 52 47
-119.142 -991.416 -2259.5 47 51 46
-123.717 -990.752 -2260.5 45 49 44
-127.919 -991.546 -2258.5 46 50 45
-132.008 -992.829 -2255.5 48 52 47
-136.46 -992.659 -2255.5 48 54 49
-140.449 -994.432 -2251.5 47 54 48
-144.792 -994.753 -2250.5 46 53 47
-148.915 -996.045 -2247.5 45 52 46
-153.593 -994.915 -2249.5 45 52 46
-157.727 -996.215 -2246.5 46 53 47
-161.873 -997.525 -2243.5 47 52 48
-166.131 -998.345 -2241.5 46 50 47
-170.296 -999.645 -2238.5 45 49 46
-174.374 -1001.44 -2234.5 43 47 42
-177.989 -1005.66 -2225.5 41 46 41
-181.453 -1010.85 -2214.5 33 37 32
-185.786 -1011.68 -2212.5 25 27 27
-189.858 -1013.97 -2207.5 29 31 31
-194.821 -1011.42 -2212.5 35 35 35
-199.761 -1008.87 -2217.5 38 40 42
-204.595 -1006.82 -2221.5 39 41 42
-209.41 -1004.76 -2225.5 38 40 40
-214.128 -1003.19 -2228.5 41 43 43
-219.061 -1000.18 -2234.5 43 46 46
-223.447 -1000.55 -2233.5 45 49 48
-228.34 -997.555 -2239.5 46 52 49
-232.786 -997.445 -2239.5 47 53 50
-237.299 -996.865 -2240.5 46 53 49
-241.741 -996.775 -2240.5 46 53 49
-246.181 -996.675 -2240.5 46 53 49
-250.682 -996.105 -2241.5 45 52 48
-255.236 -995.055 -2243.5 45 52 48
-259.667 -994.965 -2243.5 43 50 45
-264.151 -994.403 -2244.5 44 51 45
-268.471 -995.295 -2242.5 46 53 49
-272.698 -997.155 -2238.5 48 54 50
-277.183 -996.595 -2239.5 49 54 51
-281.432 -998.465 -2235.5 50 57 53
-285.829 -998.875 -2234.5 48 54 50
-290.145 -1000.26 -2231.5 48 52 49
-294.474 -1001.65 -2228.5 49 53 50
-298.663 -1004.98 -2221.5 47 51 48
-302.881 -1008.31 -2214.5 44 48 45
-307.297 -1009.22 -2212.5 44 48 45
-311.594 -1012.07 -2206.5 46 50 47
-315.946 -1014.44 -2201.5 48 52 49
-320.482 -1013.92 -2202.5 48 52 49
-324.913 -1015.33 -2199.5 50 53 50
-329.356 -1016.74 -2196.5 51 54 51
-333.873 -1016.71 -2196.5 50 54 51
-338.298 -1019.1 -2191.5 50 54 51
-342.776 -1020.52 -2188.5 51 55 52
-347.353 -1019.05 -2191.5 52 56 53
-351.855 -1020 -2189.5 53 57 54
-356.366 -1020.95 -2187.5 53 57 54
-360.846 -1024.31 -2180.5 53 57 54
-365.402 -1023.82 -2181.5 53 57 54
-369.916 -1028.16 -2172.5 52 56 53
-374.477 -1030.09 -2168.5 48 52 49
-379.054 -1032.02 -2164.5 47 51 48
-383.638 -1032.02 -2164.5 53 56 53
-388.3 -1039.75 -2148.5 60 63 60
6.59012 -1025.9 -2211.5 56 56 56
0.145119 -1020.72 -2221.5 53 55 55
-5.53688 -1017.51 -2227.5 51 58 54
-10.4839 -1016.27 -2229.5 49 54 51
-15.7669 -1014.05 -2233.5 49 52 49
-20.8569 -1012.32 -2236.5 48 52 49
-25.7609 -1011.09 -2238.5 48 52 49
-30.4849 -1010.35 -2239.5 44 48 45
-35.2009 -1009.62 -2240.5 44 48 47
-39.5829 -1009.87 -2239.5 49 53 52
-44.6109 -1008.16 -2242.5 51 55 54
-49.6219 -1006.46 -2245.5 51 55 54
-54.1469 -1006.23 -2245.5 52 56 55
-59.2869 -1004.04 -2249.5 51 55 54
-64.2529 -1002.35 -2252.5 49 53 52
-68.9039 -1001.65 -2253.5 47 51 50
-73.2519 -1001.92 -2252.5 46 50 49
-77.7469 -1001.7 -2252.5 47 51 52
-82.5259 -1000.52 -2254.5 45 50 50
-86.7279 -1001.29 -2252.5 45 51 50
-91.7709 -999.135 -2256.5 46 53 49
-96.6569 -997.475 -2259.5 48 52 49
-100.988 -997.765 -2258.5 48 52 49
-105.586 -997.085 -2259.5 46 53 49
-109.656 -998.355 -2256.5 48 53 50
-114.505 -996.705 -2259.5 48 52 49
-118.835 -997.005 -2258.5 47 51 46
-123.291 -996.825 -2258.5 48 52 47
-127.622 -997.135 -2257.5 48 52 47
-132.075 -996.965 -2257.5 48 52 47
-135.939 -999.235 -2252.5 50 54 49
-140.052 -1000.52 -2249.5 49 53 48
-144.855 -998.895 -2252.5 47 54 48
-148.755 -1001.17 -2247.5 45 52 48
-153.436 -1000.04 -2249.5 45 52 48
-157.573 -1001.34 -2246.5 45 52 46
-161.931 -1001.68 -2245.5 47 51 46
-165.983 -1003.47 -2241.5 45 49 45
-170.251 -1004.3 -2239.5 43 47 44
-174.134 -1007.08 -2233.5 44 50 45
-177.753 -1011.32 -2224.5 42 48 42
-181.597 -1014.59 -2217.5 34 38 33
-185.56 -1017.37 -2211.5 24 27 26
-190.084 -1017.24 -2211.5 28 30 30
-194.868 -1015.65 -2214.5 37 37 37
-199.722 -1013.58 -2218.5 41 43 45
-204.474 -1012 -2221.5 40 42 43
-209.131 -1010.9 -2223.5 37 39 39
-213.935 -1008.84 -2227.5 40 42 42
-218.568 -1007.76 -2229.5 41 44 44
-223.339 -1005.7 -2233.5 43 47 46
-227.875 -1005.11 -2234.5 47 51 48
-232.615 -1003.06 -2238.5 48 53 50
-236.998 -1003.45 -2237.5 48 54 50
-241.58 -1002.38 -2239.5 47 54 50
-246.09 -1001.8 -2240.5 45 52 48
-250.593 -1001.22 -2241.5 45 52 48
-254.914 -1002.11 -2239.5 45 52 48
-259.527 -1000.57 -2242.5 44 51 46
-263.907 -1000.97 -2241.5 44 51 45
-268.448 -999.925 -2243.5 45 52 48
-272.676 -1001.79 -2239.5 48 54 50
-277.065 -1002.2 -2238.5 49 53 50
-281.365 -1003.59 -2235.5 48 55 51
-285.721 -1004.5 -2233.5 49 55 51
-289.958 -1006.86 -2228.5 51 55 52
-294.456 -1006.32 -2229.5 50 54 51
-298.57 -1010.63 -2220.5 47 50 47
-302.901 -1012.52 -2216.5 44 47 44
-307.248 -1014.41 -2212.5 44 48 44
-311.611 -1016.31 -2208.5 45 49 45
-315.991 -1018.2 -2204.5 49 53 48
-320.442 -1019.13 -2202.5 50 54 49
-324.926 -1019.58 -2201.5 51 55 50
-329.437 -1019.55 -2201.5 52 55 50
-333.864 -1021.46 -2197.5 49 53 50
-338.345 -1022.4 -2195.5 49 53 50
-342.801 -1024.31 -2191.5 52 56 53
-347.346 -1023.8 -2192.5 55 59 56
-351.862 -1024.27 -2191.5 55 59 56
-356.362 -1025.71 -2188.5 55 59 56
-360.866 -1027.64 -2184.5 54 58 55
-365.381 -1030.05 -2179.5 54 58 55
-369.914 -1032.96 -2173.5 52 56 53
-374.478 -1034.41 -2170.5 49 53 50
-379.054 -1036.35 -2166.5 49 53 50
-383.637 -1036.36 -2166.5 53 56 53
-388.264 -1040.73 -2157.5 60 63 60
8.69512 -1036.1 -2201.5 58 59 59
1.50012 -1028.92 -2215.5 52 54 54
-4.91488 -1023.72 -2225.5 49 56 52
-10.2229 -1021.49 -2229.5 48 54 50
-15.3359 -1019.75 -2232.5 47 50 47
-20.4319 -1018.02 -2235.5 45 49 46
-25.5109 -1016.28 -2238.5 46 50 47
-30.2379 -1015.54 -2239.5 45 49 46
-34.9579 -1014.81 -2240.5 45 49 48
-39.5069 -1014.56 -2240.5 48 52 51
-44.5359 -1012.85 -2243.5 50 54 53
-49.3889 -1011.63 -2245.5 50 54 53
-53.7609 -1011.89 -2244.5 50 54 53
-59.0609 -1009.2 -2249.5 50 54 53
-64.1839 -1007.01 -2253.5 49 53 52
-68.8359 -1006.3 -2254.5 47 51 50
-73.3319 -1006.08 -2254.5 46 50 49
-77.6799 -1006.36 -2253.5 48 50 52
-82.4609 -1005.16 -2255.5 46 51 51
-86.8049 -1005.45 -2254.5 45 51 50
-91.5689 -1004.26 -2256.5 46 53 49
-96.5959 -1002.1 -2260.5 45 50 47
-100.793 -1002.88 -2258.5 45 49 46
-105.66 -1001.21 -2261.5 46 50 47
-109.206 -1004.46 -2254.5 48 53 50
-114.063 -1002.8 -2257.5 49 53 50
-118.274 -1003.59 -2255.5 49 53 49
-122.739 -1003.41 -2255.5 47 51 47
-127.324 -1002.74 -2256.5 46 50 45
-131.423 -1004.04 -2253.5 47 51 46
-135.768 -1004.36 -2252.5 49 53 48
-140.231 -1004.19 -2252.5 48 52 47
-144.578 -1004.51 -2251.5 45 52 46
-148.705 -1005.82 -2248.5 45 52 48
-153.061 -1006.15 -2247.5 46 53 49
-156.779 -1009.42 -2240.5 45 52 46
-161.152 -1009.75 -2239.5 46 51 45
-165.322 -1011.07 -2236.5 45 49 44
-169.805 -1010.92 -2236.5 42 46 43
-173.697 -1013.71 -2230.5 41 47 42
-177.709 -1016.02 -2225.5 40 46 40
-181.459 -1019.79 -2217.5 36 40 35
-185.517 -1022.1 -2212.5 26 28 27
-189.863 -1022.95 -2210.5 27 29 29
-194.827 -1020.37 -2215.5 37 38 38
-199.682 -1018.29 -2219.5 42 44 46
-204.519 -1016.21 -2223.5 41 43 44
-209.094 -1015.6 -2224.5 36 38 38
-213.663 -1014.99 -2225.5 37 39 39
-218.456 -1012.93 -2229.5 42 44 44
-223.157 -1011.35 -2232.5 45 49 48
-227.626 -1011.24 -2232.5 47 51 48
-232.374 -1009.18 -2236.5 47 51 48
-236.967 -1008.11 -2238.5 49 53 50
-241.683 -1006.05 -2242.5 46 53 49
-246.061 -1006.45 -2241.5 45 52 48
-250.566 -1005.87 -2242.5 47 54 50
-254.946 -1006.27 -2241.5 45 52 48
-259.559 -1004.72 -2244.5 45 52 47
-263.882 -1005.62 -2242.5 44 51 45
-268.372 -1005.05 -2243.5 45 52 48
-272.704 -1005.95 -2241.5 46 52 48
-277.14 -1005.88 -2241.5 48 52 48
-281.297 -1008.74 -2235.5 46 53 49
-285.745 -1008.67 -2235.5 49 54 51
-290.108 -1009.59 -2233.5 51 55 52
-294.438 -1010.99 -2230.5 50 54 51
-298.553 -1015.33 -2221.5 46 50 47
-302.92 -1016.74 -2218.5 46 49 46
-307.266 -1018.64 -2214.5 44 48 43
-311.596 -1021.03 -2209.5 43 47 42
-316.007 -1022.45 -2206.5 47 51 46
-320.538 -1021.92 -2207.5 51 55 50
-324.964 -1023.34 -2204.5 52 55 50
-329.426 -1024.28 -2202.5 52 55 50
-333.812 -1027.18 -2196.5 50 54 51
-338.317 -1027.64 -2195.5 51 55 52
-342.81 -1028.59 -2193.5 53 57 54
-347.325 -1029.05 -2192.5 54 58 55
-351.844 -1029.52 -2191.5 54 58 55
-356.377 -1029.5 -2191.5 54 58 55
-360.862 -1032.42 -2185.5 55 58 55
-365.379 -1034.85 -2180.5 52 56 53
-369.913 -1037.77 -2174.5 51 55 52
-374.477 -1039.23 -2171.5 48 52 49
-379.056 -1042.15 -2165.5 47 51 48
-383.646 -1042.64 -2164.5 51 55 52
-388.276 -1046.55 -2156.5 58 61 58
8.60512 -1040.42 -2203.5 58 58 58
2.13312 -1035.19 -2213.5 50 52 52
-4.11188 -1030.46 -2222.5 50 55 52
-9.25388 -1028.7 -2225.5 50 55 52
-14.9019 -1025.47 -2231.5 49 52 49
-20.1759 -1023.23 -2235.5 47 51 48
-25.4289 -1021 -2239.5 47 51 48
-30.1579 -1020.25 -2240.5 46 50 47
-34.5479 -1020.5 -2239.5 47 51 49
-39.2659 -1019.76 -2240.5 47 51 49
-44.4589 -1017.54 -2244.5 48 52 51
-49.4729 -1015.82 -2247.5 49 53 52
-54.1569 -1015.09 -2248.5 49 53 52
-59.2979 -1012.89 -2252.5 49 53 52
-64.2649 -1011.18 -2255.5 51 54 53
-68.9159 -1010.46 -2256.5 48 51 50
-73.1159 -1011.23 -2254.5 45 49 48
-77.7589 -1010.52 -2255.5 45 47 49
-82.5379 -1009.32 -2257.5 45 48 49
-87.0229 -1009.11 -2257.5 46 51 50
-91.7839 -1007.92 -2259.5 45 52 48
-96.1219 -1008.21 -2258.5 47 52 49
-100.596 -1008.01 -2258.5 46 50 47
-104.935 -1008.31 -2257.5 47 51 48
-109.276 -1008.61 -2256.5 48 52 49
-114.005 -1007.44 -2258.5 48 52 49
-118.09 -1008.73 -2255.5 46 50 47
-122.807 -1007.56 -2257.5 46 50 46
-127.025 -1008.37 -2255.5 46 50 45
-131.249 -1009.18 -2253.5 47 51 46
-135.597 -1009.5 -2252.5 49 53 48
-140.178 -1008.83 -2253.5 48 52 47
-144.526 -1009.16 -2252.5 45 52 46
-148.654 -1010.47 -2249.5 46 53 48
-152.793 -1011.79 -2246.5 47 54 50
-156.943 -1013.11 -2243.5 47 54 47
-160.894 -1015.41 -2238.5 45 50 44
-165.07 -1016.73 -2235.5 44 48 43
-169.257 -1018.06 -2232.5 43 47 44
-173.455 -1019.39 -2229.5 39 45 40
-177.28 -1022.69 -2222.5 37 44 38
-181.133 -1025.99 -2215.5 34 38 33
-185.198 -1028.31 -2210.5 26 28 27
-189.909 -1027.2 -2212.5 28 30 30
-194.61 -1026.08 -2214.5 38 40 40
-199.471 -1023.99 -2218.5 41 43 45
-204.314 -1021.9 -2222.5 40 42 44
-208.813 -1021.78 -2222.5 38 40 40
-213.39 -1021.17 -2223.5 40 42 42
-218.038 -1020.07 -2225.5 42 45 44
-222.601 -1019.47 -2226.5 47 51 50
-227.231 -1018.38 -2228.5 49 53 50
-232.061 -1015.82 -2233.5 49 53 50
-236.8 -1013.75 -2237.5 51 55 52
-241.455 -1012.18 -2240.5 49 55 52
-245.905 -1012.09 -2240.5 48 55 51
-250.538 -1010.52 -2243.5 47 54 50
-254.86 -1011.41 -2241.5 45 52 48
-259.304 -1011.33 -2241.5 43 50 45
-263.692 -1011.74 -2240.5 44 51 45
-268.189 -1011.17 -2241.5 45 52 48
-272.477 -1012.56 -2238.5 45 51 46
-277.07 -1011.02 -2241.5 47 51 46
-281.276 -1013.4 -2236.5 44 51 47
-285.725 -1013.34 -2236.5 47 52 49
-290.13 -1013.76 -2235.5 50 54 51
-294.459 -1015.18 -2232.5 50 54 51
-298.611 -1019.04 -2224.5 47 50 47
-302.903 -1021.44 -2219.5 46 49 46
-307.25 -1023.35 -2215.5 44 48 43
-311.581 -1025.76 -2210.5 43 47 42
-316.051 -1026.2 -2209.5 46 50 45
-320.607 -1025.18 -2211.5 50 54 50
-324.952 -1028.08 -2205.5 52 56 51
-329.415 -1029.03 -2203.5 54 57 53
-333.906 -1029.49 -2202.5 52 55 52
-338.365 -1030.93 -2199.5 53 57 54
-342.835 -1032.37 -2196.5 54 58 55
-347.347 -1032.84 -2195.5 54 58 55
-351.863 -1033.31 -2194.5 53 57 54
-356.372 -1034.28 -2192.5 57 61 58
-360.866 -1036.71 -2187.5 54 58 55
-365.376 -1039.65 -2181.5 49 53 50
-369.918 -1041.6 -2177.5 47 52 49
-374.478 -1043.56 -2173.5 45 49 46
-379.055 -1046.5 -2167.5 46 50 47
-383.656 -1048.95 -2162.5 53 57 53
-388.278 -1051.41 -2157.5 62 65 60
15.2221 -1050.5 -2194.5 68 68 68
8.14912 -1043.74 -2207.5 56 56 56
2.22512 -1039.98 -2214.5 49 50 50
-3.84288 -1035.72 -2222.5 52 55 52
-9.16588 -1033.46 -2226.5 53 56 53
-14.2919 -1031.7 -2229.5 51 54 52
-19.5749 -1029.45 -2233.5 49 53 50
-24.8359 -1027.21 -2237.5 49 53 50
-29.7409 -1025.96 -2239.5 47 51 48
-34.3019 -1025.71 -2239.5 47 51 49
-39.3499 -1023.97 -2242.5 47 51 49
-44.3819 -1022.24 -2245.5 48 52 51
-49.0789 -1021.5 -2246.5 50 53 51
-53.6119 -1021.27 -2246.5 49 53 51
-58.6059 -1019.55 -2249.5 49 53 51
-63.4309 -1018.33 -2251.5 50 53 52
-67.9439 -1018.1 -2251.5 47 51 50
-72.8979 -1016.39 -2254.5 43 48 47
-77.6899 -1015.18 -2256.5 42 45 46
-82.4709 -1013.98 -2258.5 43 47 47
-86.8149 -1014.26 -2257.5 44 48 47
-91.4399 -1013.56 -2258.5 44 50 47
-96.1949 -1012.37 -2260.5 46 50 48
-100.263 -1013.65 -2257.5 47 50 47
-104.741 -1013.46 -2257.5 48 52 49
-108.823 -1014.75 -2254.5 48 52 49
-113.431 -1014.06 -2255.5 46 50 47
-117.652 -1014.87 -2253.5 48 52 48
-122.377 -1013.69 -2255.5 47 52 47
-126.602 -1014.5 -2253.5 46 51 46
-131.073 -1014.32 -2253.5 46 50 45
-135.542 -1014.15 -2253.5 45 49 44
-139.894 -1014.47 -2252.5 46 50 45
-144.36 -1014.31 -2252.5 45 52 46
-148.269 -1016.61 -2247.5 47 54 48
-152.524 -1017.44 -2245.5 48 55 50
-156.358 -1020.25 -2239.5 46 53 46
-160.321 -1022.57 -2234.5 45 50 44
-164.509 -1023.9 -2231.5 46 50 45
-168.807 -1024.74 -2229.5 45 49 45
-172.917 -1026.57 -2225.5 40 45 41
-177.041 -1028.4 -2221.5 37 42 37
-181.087 -1030.73 -2216.5 36 40 36
-185.153 -1033.06 -2211.5 23 26 24
-189.776 -1032.43 -2212.5 27 30 29
-194.655 -1030.32 -2216.5 37 40 39
-199.515 -1028.22 -2220.5 39 41 42
-204.357 -1026.12 -2224.5 40 42 43
-208.694 -1026.99 -2222.5 39 41 41
-213.353 -1025.88 -2224.5 41 43 43
-218.001 -1024.78 -2226.5 40 43 42
-222.491 -1024.66 -2226.5 46 49 48
-227.341 -1022.09 -2231.5 51 55 52
-232.168 -1019.51 -2236.5 50 54 51
-236.836 -1017.93 -2239.5 50 54 51
-241.556 -1015.86 -2243.5 48 55 51
-246.066 -1015.27 -2244.5 46 53 48
-250.571 -1014.69 -2245.5 44 51 46
-254.832 -1016.08 -2242.5 44 51 47
-259.277 -1015.99 -2242.5 44 51 46
-263.721 -1015.91 -2242.5 45 52 47
-268.27 -1014.84 -2244.5 45 52 48
-272.403 -1017.73 -2238.5 44 51 47
-276.901 -1017.16 -2239.5 45 51 47
-281.347 -1017.09 -2239.5 45 52 48
-285.793 -1017.02 -2239.5 45 51 47
-290.069 -1018.93 -2235.5 48 52 49
-294.481 -1019.36 -2234.5 50 57 53
-298.555 -1024.24 -2224.5 45 51 47
-302.886 -1026.15 -2220.5 43 47 44
-307.2 -1028.57 -2215.5 42 46 43
-311.566 -1030.49 -2211.5 44 47 43
-316.008 -1031.43 -2209.5 48 51 46
-320.594 -1029.91 -2212.5 51 55 52
-324.99 -1031.84 -2208.5 52 56 53
-329.381 -1034.27 -2203.5 53 56 53
-333.875 -1034.73 -2202.5 53 56 53
-338.355 -1035.69 -2200.5 54 57 54
-342.86 -1036.16 -2199.5 55 59 56
-347.368 -1036.62 -2198.5 53 57 54
-351.857 -1038.08 -2195.5 53 57 54
-356.357 -1039.55 -2192.5 57 62 59
-360.862 -1041.5 -2188.5 52 59 55
-365.373 -1044.45 -2182.5 47 54 50
-369.905 -1047.89 -2175.5 45 51 48
-374.475 -1048.87 -2173.5 44 48 45
-379.056 -1051.34 -2168.5 45 49 46
-383.655 -1053.31 -2164.5 52 56 53
-388.281 -1056.27 -2158.5 63 66 61
17.1781 -1060.36 -2185.5 67 66 67
8.97912 -1050.56 -2204.5 54 54 54
2.68212 -1045.78 -2213.5 51 51 51
-3.03488 -1042.5 -2219.5 52 54 52
-8.19188 -1040.73 -2222.5 51 54 51
-13.5059 -1038.46 -2226.5 48 52 51
-18.9709 -1035.7 -2231.5 48 52 49
-24.0699 -1033.94 -2234.5 49 53 50
-28.9849 -1032.68 -2236.5 48 52 49
-33.8879 -1031.43 -2238.5 47 51 49
-39.2689 -1028.69 -2243.5 48 52 51
-44.1409 -1027.44 -2245.5 48 52 51
-49.0009 -1026.21 -2247.5 49 52 49
-53.8489 -1024.97 -2249.5 49 52 49
-58.8399 -1023.24 -2252.5 48 51 48
-63.3569 -1023.01 -2252.5 48 52 50
-68.1719 -1021.79 -2254.5 48 52 51
-72.6789 -1021.57 -2254.5 44 50 49
-77.1819 -1021.35 -2254.5 43 48 47
-81.8269 -1020.64 -2255.5 44 49 48
-86.8899 -1018.43 -2259.5 45 49 48
-91.2339 -1018.72 -2258.5 44 48 47
-95.5809 -1019.01 -2257.5 46 50 48
-99.7939 -1019.81 -2255.5 47 50 47
-104.279 -1019.61 -2255.5 47 51 48
-108.5 -1020.41 -2253.5 47 51 48
-113.498 -1018.23 -2257.5 45 49 46
-117.719 -1019.03 -2255.5 46 50 45
-122.318 -1018.35 -2256.5 46 52 46
-126.788 -1018.17 -2256.5 44 51 45
-131.017 -1018.99 -2254.5 46 50 45
-135.369 -1019.31 -2253.5 45 49 44
-139.954 -1018.64 -2254.5 45 49 44
-143.853 -1020.96 -2249.5 44 51 43
-147.993 -1022.28 -2246.5 46 53 46
-152.363 -1022.62 -2245.5 47 54 48
-156.414 -1024.45 -2241.5 46 53 47
-160.375 -1026.77 -2236.5 46 51 46
-164.561 -1028.11 -2233.5 46 50 45
-168.658 -1029.95 -2229.5 45 49 44
-172.672 -1032.28 -2224.5 42 46 41
-176.898 -1033.63 -2221.5 39 43 38
-180.947 -1035.97 -2216.5 36 40 37
-185.199 -1037.32 -2213.5 22 26 25
-189.821 -1036.69 -2214.5 27 31 30
-194.7 -1034.57 -2218.5 40 44 43
-199.218 -1034.44 -2218.5 41 43 43
-204.15 -1031.83 -2223.5 40 42 42
-208.654 -1031.71 -2223.5 37 39 39
-213.157 -1031.59 -2223.5 37 39 39
-217.734 -1030.98 -2224.5 40 42 42
-222.306 -1030.37 -2225.5 44 46 46
-227.306 -1026.79 -2232.5 48 52 49
-231.924 -1025.69 -2234.5 48 52 49
-237.008 -1021.12 -2243.5 48 52 49
-241.327 -1022.01 -2241.5 46 53 49
-246.164 -1018.94 -2247.5 47 54 49
-250.48 -1019.84 -2245.5 46 53 47
-254.923 -1019.75 -2245.5 44 51 47
-259.193 -1021.15 -2242.5 43 50 46
-263.585 -1021.57 -2241.5 44 51 47
-267.98 -1021.98 -2240.5 45 52 48
-272.328 -1022.9 -2238.5 43 50 46
-276.829 -1022.33 -2239.5 44 51 47
-281.325 -1021.76 -2240.5 45 52 48
-285.772 -1021.7 -2240.5 46 52 48
-290.133 -1022.62 -2238.5 49 53 50
-294.502 -1023.55 -2236.5 48 53 50
-298.651 -1027.46 -2228.5 42 47 44
-302.976 -1029.39 -2224.5 41 45 42
-307.285 -1031.81 -2219.5 42 46 43
-311.614 -1034.24 -2214.5 44 47 43
-316.052 -1035.19 -2212.5 49 52 47
-320.58 -1034.65 -2213.5 51 55 52
-325.079 -1034.61 -2213.5 51 54 51
-329.461 -1037.05 -2208.5 51 54 51
-333.928 -1038.01 -2206.5 53 56 53
-338.365 -1039.96 -2202.5 54 58 55
-342.852 -1040.92 -2200.5 56 60 57
-347.361 -1041.4 -2199.5 54 58 55
-351.85 -1042.86 -2196.5 54 58 55
