ply
format ascii 1.0
comment Created by Open3D
element vertex 734
property double x
property double y
property double z
property double nx
property double ny
property double nz
property uchar red
property uchar green
property uchar blue
end_header
-383.213 -969.448 -2120.45 0.464024 -0.0195855 -0.86341 50 52 52
-371.671 -972.336 -2117.3 0.253592 0.0201732 -0.962795 49 51 51
-373.332 -965.954 -2118.12 0.255154 -0.0861576 -0.958655 48 51 50
-361.651 -1012.43 -2120.23 0.343788 0.0577972 -0.934747 44 48 46
-361.561 -1003.48 -2118.5 0.392012 0.127317 -0.90925 45 50 48
-359.161 -1007.74 -2118.61 0.385636 0.0949429 -0.911567 44 49 47
-352.568 -1005.1 -2115.77 0.448929 0.101207 -0.873647 44 49 46
-347.547 -1005.89 -2118.58 0.496249 0.0429752 -0.846494 45 49 46
-358.716 -999.075 -2116.55 0.406503 0.139062 -0.900804 45 49 48
-366.513 -995.105 -2118.71 0.395518 0.160832 -0.904101 47 50 49
-346.616 -999.028 -2120.26 0.500667 0.0127184 -0.845652 45 50 46
-328.962 -1012.52 -2119.8 0.558341 -0.16925 -0.799787 45 49 43
-322.04 -1013.22 -2116.38 0.441399 -0.104661 -0.869555 45 49 44
-321.471 -1005.17 -2117.35 0.524345 -0.0991301 -0.839854 45 49 44
-325.678 -1002.16 -2120.73 0.536013 -0.133364 -0.831659 45 49 44
-324.011 -991.087 -2120.12 0.610774 -0.00884306 -0.786841 46 50 45
-366.244 -984.709 -2116.72 0.33169 0.135581 -0.933685 48 50 50
-342.189 -986.299 -2116.73 0.530416 -0.00151978 -0.825263 46 50 46
-342.799 -979.305 -2117.2 0.621247 0.0591411 -0.757597 48 52 47
-362.389 -967.428 -2115.67 0.334583 -0.0259205 -0.938519 44 47 47
-346.014 -974.188 -2120.93 0.463627 0.00479865 -0.860954 46 50 46
-344.24 -966.183 -2117.4 0.53493 0.0223544 -0.817445 46 50 46
-319.928 -986.604 -2115.91 0.623238 0.0569391 -0.779782 46 50 45
-322.89 -983.609 -2117.73 0.653305 0.0670516 -0.753965 47 51 46
-40.9481 -660.745 -2117.12 -0.984215 -0.0419338 -0.177666 52 57 57
-40.5105 -652.82 -2119.81 -0.972099 0.030321 -0.216989 51 56 56
-39.0055 -642.895 -2120.19 -0.94435 0.120744 -0.308699 53 58 57
-38.3678 -633.295 -2118.96 -0.95258 0.0634009 -0.28039 54 60 59
-39.2121 -623.508 -2119.82 -0.940727 -0.114016 -0.280084 53 58 58
-40.0314 -617.425 -2121.51 -0.933495 -0.0383509 -0.307048 53 58 58
-41.7364 -608.934 -2117.89 -0.880341 0.00535793 -0.470559 53 58 58
-40.9848 -595.64 -2119.29 -0.891948 -0.0692735 -0.431018 52 57 58
-331.06 -320.043 -2118.58 0.707189 -0.402846 -0.585756 60 65 63
-324.905 -310.681 -2115.33 0.800303 -0.237351 -0.546547 60 64 62
-324.524 -307.862 -2115.27 0.827614 -0.219406 -0.513742 60 63 61
-322.314 -291.593 -2120.93 0.911648 -0.307 -0.242508 54 58 55
-318.565 -286.354 -2118.17 0.815828 -0.336081 -0.41025 53 57 54
-314.074 -277.988 -2116.62 0.772007 -0.284423 -0.532538 48 53 51
-320.705 -209.835 -2118.92 0.795013 0.400466 -0.296139 40 43 50
-321.749 -206.594 -2118.48 0.841089 0.275092 -0.283279 38 41 48
-321.216 -201.332 -2116.6 0.865498 0.133636 -0.335677 36 38 45
-317.455 -178.934 -2121.07 0.939722 0.0159601 -0.2979 37 36 44
-311.071 -260.481 -2119.96 0.759365 -0.361261 -0.475426 106 99 93
-310.09 -258.885 -2120.74 0.709901 -0.426478 -0.503403 122 114 106
-609.124 35.2339 -2116.64 -0.142041 0.615015 -0.763201 224 194 176
-606.884 36.2064 -2116.21 -0.142315 0.574322 -0.80762 229 199 180
-596.505 35.1227 -2118.59 -0.0139753 0.604593 -0.748926 234 203 186
-593.193 37.0614 -2116.06 0.00774832 0.496758 -0.801231 239 209 194
-586.513 34.3069 -2118.42 0.0761541 0.587943 -0.765299 230 200 184
-577.414 37.8331 -2116.65 -0.0184622 0.319175 -0.889462 241 213 197
-565.577 30.121 -2119.99 -0.113577 0.57951 -0.788509 227 192 176
-568.46 36.875 -2116.56 -0.00907464 0.33934 -0.904022 241 211 195
-582.987 39.0811 -2115.98 -0.0790299 0.313579 -0.874897 243 216 201
-580.814 50.6078 -2117.01 -0.404515 -0.0964569 -0.904836 255 238 225
-566.065 42.161 -2115.19 -0.014879 0.0967712 -0.954969 250 226 214
-566.022 50.5741 -2117.26 0.00769493 -0.222447 -0.957142 255 241 230
-610.215 56.943 -2116.2 -0.193307 -0.384834 -0.899204 255 239 226
-603.978 59.2249 -2115.62 -0.00528649 -0.398644 -0.91574 255 241 228
-613.988 63.0949 -2119.06 -0.293778 -0.442261 -0.852628 255 240 226
-600.743 67.0408 -2118.9 0.0794531 -0.404697 -0.909355 255 242 228
-597.548 71.9687 -2120.37 0.0354624 -0.244259 -0.891049 252 237 223
-583.644 53.4583 -2116.36 -0.452252 -0.0868945 -0.891992 255 239 227
-585.497 58.1653 -2115.84 -0.422224 -0.173718 -0.878654 255 242 229
-581.401 61.3026 -2120.16 -0.399457 -0.203045 -0.885788 255 243 231
-569.666 52.8004 -2119.32 -0.0324072 -0.25827 -0.948528 255 241 229
-589.107 69.6914 -2118.51 -0.112484 -0.185475 -0.885372 252 237 224
-587.757 73.6554 -2120.64 -0.202645 0.0699636 -0.87369 247 227 215
-562.83 36.9574 -2117.18 -0.173931 0.386121 -0.856363 241 210 196
-563.213 40.7842 -2115.71 -0.119232 0.199939 -0.914461 248 222 209
-554.578 44.2812 -2118.64 -0.381334 0.242121 -0.844942 252 228 217
-553.729 50.6005 -2118.18 -0.222679 0.0513958 -0.909405 255 238 228
-564.318 53.3018 -2117.94 0.0707241 -0.273815 -0.957228 255 243 232
-555.557 55.5808 -2118.32 -0.0844276 -0.116195 -0.941089 255 242 233
-556.036 60.9717 -2119.18 -0.0552897 -0.159262 -0.954564 255 244 235
-549.68 54.6093 -2119.27 -0.233902 0.0928576 -0.917162 255 240 231
-549.035 60.941 -2119.65 -0.218971 0.023845 -0.937485 254 243 234
-557.393 67.0329 -2121.4 -0.111199 -0.0874354 -0.945573 255 243 234
-544.901 64.3861 -2120.49 -0.282995 0.0910432 -0.927429 254 243 235
-112.65 -24.1795 -2115.97 -0.293568 -0.628733 -0.716458 52 55 67
-102.638 -27.0292 -2117.52 -0.301184 -0.631306 -0.705575 53 54 66
-97.5422 -25.3283 -2121.03 -0.313161 -0.579834 -0.731556 53 54 66
-87.7861 -39.5737 -2116.74 -0.494309 -0.307522 -0.815005 50 51 61
-83.8818 -40.587 -2117.62 -0.489359 -0.304045 -0.804104 49 50 60
-81.1079 -42.215 -2115.85 -0.439267 -0.26733 -0.810407 48 50 59
-84.7686 -34.6578 -2120.23 -0.543273 -0.321193 -0.78151 50 51 61
-78.086 -32.474 -2117.79 -0.408367 -0.313814 -0.77055 50 51 61
-73.673 -25.9114 -2116.61 -0.36 -0.387547 -0.766069 53 53 64
-65.2226 -64.9012 -2120.54 -0.905782 0.327402 -0.204509 29 31 37
-66.1458 -54.5902 -2116.06 -0.822467 0.053793 -0.521375 34 36 43
-61.7735 -49.4552 -2121.35 -0.903548 0.0776329 -0.389583 32 34 41
-61.9783 -44.4321 -2120.87 -0.915394 0.0100026 -0.392192 34 36 43
-61.9222 -39.4007 -2121.14 -0.925225 -0.0332702 -0.375317 36 38 46
-67.9323 -28.5564 -2116.36 -0.675447 -0.199346 -0.640554 47 49 59
-115.109 -18.9136 -2118.05 -0.322411 -0.541262 -0.763005 53 55 68
-110.51 -18.6078 -2121.15 -0.404198 -0.511858 -0.751481 53 55 68
-295.197 -813.496 -2118.99 0.724757 -0.0467581 0.434057 44 49 47
-293.616 -816.47 -2123.35 0.776141 -0.0544834 0.426364 43 47 46
-292.534 -809.879 -2127.26 0.799702 -0.0526224 0.495015 42 46 45
-294.994 -799.568 -2121.15 0.720403 -0.0373262 0.534962 43 48 47
-294.296 -796.337 -2122.98 0.744675 -0.0417215 0.521533 43 48 46
-295.717 -792.884 -2119.41 0.698194 -0.0324585 0.545557 43 48 47
-292.614 -787.834 -2126.92 0.801134 -0.0528375 0.490491 42 46 45
-296.803 -790.112 -2116.69 0.665089 -0.0260932 0.561108 44 49 48
-296.75 -772.134 -2115.83 0.61807 -0.0358591 0.552213 44 49 48
-296.579 -770.282 -2116.02 0.610849 -0.0381369 0.552847 44 49 48
-292.478 -778.333 -2126.6 0.788761 -0.052714 0.493923 42 47 45
-294.767 -765.182 -2119.6 0.649241 -0.0494654 0.532878 43 48 47
-293.002 -764.078 -2123.59 0.713645 -0.0571481 0.5096 42 47 46
-294.138 -743.877 -2117.49 0.341254 -0.110769 0.585178 42 47 47
-293.315 -720.014 -2115.66 0.319717 -0.11792 0.598017 42 47 47
-773.52 80.4876 -2117.12 -0.18959 0.321939 -0.884479 233 208 196
-768.714 76.2557 -2118.08 -0.216938 0.266698 -0.914036 240 218 208
-762.013 82.5002 -2119.74 -0.0825253 0.343022 -0.885246 231 205 192
-741.022 82.4537 -2120.15 0.0732527 0.326963 -0.886486 231 204 190
-738.855 80.1751 -2119.36 0.0976474 0.301562 -0.899358 234 207 194
-731.351 79.2764 -2118.01 0.0638585 0.327238 -0.892199 233 204 191
-716.14 80.4069 -2118.12 -0.0168314 0.296984 -0.888886 237 211 202
-719.458 82.3095 -2119.17 0.0115313 0.336186 -0.860773 231 203 192
-307.97 -1108.47 -2112.44 0.21206 0.677711 -0.587105 45 48 44
-308.112 -1107.97 -2111.76 0.186183 0.715259 -0.567393 45 48 44
-295.086 -1110.62 -2111.73 0.223549 0.654103 -0.586445 47 50 45
-286.584 -1112.72 -2112.96 0.0825542 0.579802 -0.547472 49 51 45
-274.121 -1104.81 -2111.11 0.305272 0.0789053 -0.116944 52 51 46
-269.113 -1103.74 -2113.87 0.535317 -0.254558 0.218115 51 50 44
-283.472 -1094.16 -2108.64 0.276871 0.101756 -0.184704 52 52 48
-283.46 -1085.26 -2111.29 0.454828 0.0549052 -0.299339 49 50 46
-281.922 -1072.04 -2110.45 0.376405 0.438388 -0.536752 49 50 46
-280.355 -1066.89 -2114.66 0.262679 0.570408 -0.642344 47 48 44
-264.588 -1094.44 -2110.11 0.785296 -0.333109 0.548935 53 49 46
-262.582 -1083.29 -2109.11 0.831136 -0.104702 0.540642 51 50 49
-258.599 -1080.48 -2114.78 0.827942 -0.131016 0.54124 50 50 48
-260.819 -1074.26 -2111.75 0.818248 -0.0658053 0.575106 50 51 48
-367.386 -1052.31 -2114.86 0.562068 -0.0545632 -0.825776 47 49 49
-358.375 -1058.44 -2109.7 0.503799 0.0795657 -0.84899 46 48 48
-360.87 -1058.98 -2111.23 0.512896 0.0842793 -0.837502 47 48 48
-336.767 -852.814 -2110.48 0.846619 0.0396437 -0.521029 45 53 49
-337.384 -845.19 -2110.69 0.846786 -0.036158 -0.527116 46 54 50
-366.224 -830.999 -2110.24 0.789711 -0.021505 -0.576738 48 54 53
-353.397 -833.288 -2110.31 0.699009 -0.0292721 -0.70121 47 53 52
-356.76 -825.352 -2114.99 0.763382 0.0443791 -0.643151 46 54 50
-354.368 -821.231 -2111.96 0.736022 -0.0395355 -0.658863 47 54 52
-335.772 -837.561 -2110.4 0.858288 -0.13128 -0.502069 45 53 49
-336.074 -830.855 -2113.09 0.834037 -0.095146 -0.53767 44 52 48
-334.842 -827.628 -2111.99 0.845347 -0.0761422 -0.522509 44 52 48
-361.553 -810.684 -2111.89 0.790172 -0.038555 -0.586057 47 53 51
-356.961 -810.967 -2113.51 0.76785 0.0155892 -0.622503 47 54 51
-355.66 -809.471 -2111.16 0.755618 -0.0597515 -0.632518 47 53 51
-352.859 -806.585 -2108.27 0.726884 -0.151084 -0.646565 47 53 52
-345.891 -795.013 -2114.38 0.801138 0.0837089 -0.576636 46 54 50
-339.23 -804.662 -2109.01 0.800493 0.169491 -0.526845 46 54 50
-339.237 -804.176 -2108.63 0.804713 0.16337 -0.524609 46 54 50
-341.795 -784.389 -2112.57 0.751154 -0.0957993 -0.633534 44 52 48
-348.767 -767.672 -2112.83 0.767298 0.136768 -0.614211 46 53 49
-341.57 -787.272 -2111.99 0.752884 -0.103088 -0.601793 44 52 48
-341.218 -776.687 -2110 0.734357 0.116557 -0.643087 45 53 49
-80.778 -849.462 -2109.63 0.817602 -0.00695857 -0.563381 47 52 51
-82.4627 -829.807 -2112.62 0.815486 0.111442 -0.56725 46 51 50
-79.8667 -832.309 -2108.92 0.827258 0.0466761 -0.556243 47 52 51
-84.6641 -817.372 -2111.7 0.769712 0.143353 -0.627389 45 50 49
-37.2397 -861.127 -2111.79 -0.917578 -0.0570673 -0.358559 47 52 50
-39.2908 -853.197 -2110.7 -0.905187 -0.155166 -0.390283 48 53 50
-40.1562 -844.376 -2112.56 -0.90166 -0.0922754 -0.415131 50 55 52
-38.1594 -832.69 -2114.93 -0.91615 0.0982193 -0.401052 49 54 52
-40.0432 -822.245 -2110.8 -0.86021 -0.0945025 -0.399828 50 54 53
-41.2949 -819.019 -2109.83 -0.813269 -0.1056 -0.414109 50 55 53
-88.2073 -809.638 -2114.68 0.792933 0.0338789 -0.602984 44 49 48
-85.8713 -800.991 -2111.19 0.82927 -0.0124978 -0.546461 45 50 49
-44.9221 -567.794 -2112.27 -0.896708 0.100692 -0.43605 54 59 60
-44.5417 -555.864 -2110.93 -0.894568 0.0627636 -0.447057 55 60 60
-43.5552 -561.721 -2113.72 -0.908729 0.1007 -0.422303 54 60 60
-46.2065 -543.097 -2109.49 -0.819469 -0.0918252 -0.560664 54 59 58
-44.7861 -530.745 -2112.32 -0.753906 -0.0548588 -0.640206 52 59 56
-46.7021 -521.436 -2110.95 -0.657117 -0.157847 -0.724304 52 58 56
-44.3696 -523.264 -2113.07 -0.705505 -0.119508 -0.677072 52 58 55
-286.716 -249.917 -2113.24 0.454131 -0.70909 -0.6311 209 183 158
-296.36 -222.908 -2109.18 0.489601 0.739375 -0.393699 52 48 51
-281.106 -243.706 -2110.47 0.662584 -0.138181 -0.685619 182 156 131
-285.886 -234.622 -2111.23 0.702877 0.315154 -0.661752 126 109 91
-288.289 -230.891 -2110.58 0.650874 0.447287 -0.569546 99 86 75
-307.632 -217.579 -2111.25 0.629795 0.585698 -0.416527 44 43 49
-311.353 -213.785 -2110.34 0.672312 0.43443 -0.547732 42 43 52
-316.071 -203.382 -2109.81 0.748371 0.187108 -0.619595 38 40 48
-316.829 -191.805 -2114.2 0.938167 -0.0735477 -0.263363 36 35 43
-313.356 -180.788 -2111.18 0.859995 -0.15762 -0.453027 41 40 49
-312.976 -174.554 -2113.52 0.813188 -0.158893 -0.519981 39 39 47
-317.309 -15.9915 -2112.67 0.742733 0.0889061 -0.649617 40 36 42
-307.557 -72.8927 -2114.77 0.879148 0.207515 -0.313774 30 29 36
-314.03 -57.487 -2115.54 0.902686 0.318641 -0.208382 30 28 35
-315.19 -50.8082 -2115.46 0.910699 0.186646 -0.312732 30 29 35
-312.427 -36.9119 -2108.84 0.860569 0.0466074 -0.5059 34 32 39
-237.434 228.654 -2111.85 0.942335 0.106543 -0.212849 143 114 110
-239.405 241.122 -2111.22 0.956077 0.163297 -0.0247489 70 58 62
-240.315 244.745 -2114.61 0.990201 0.122672 0.0648516 54 44 50
-246.508 269.199 -2111.2 0.89527 0.308214 -0.179632 56 48 53
-241.846 254.515 -2110.58 0.947699 0.21822 -0.0412082 51 43 50
-250.093 277.631 -2111.48 0.839812 -0.0258219 -0.372018 48 41 45
-250.694 283.046 -2111.22 0.7897 -0.25101 -0.459217 44 38 42
-243.639 297.301 -2113.05 0.740955 -0.473261 -0.179545 41 35 40
-236.768 298.703 -2108.93 0.433286 -0.671229 -0.5946 65 50 53
-236.177 299.543 -2109.65 0.442689 -0.680416 -0.562942 67 51 55
-229.652 307.118 -2113.78 0.478874 -0.732579 -0.437368 82 64 68
-220.168 313.062 -2111.65 0.492763 -0.612562 -0.540305 107 87 87
-133.417 -24.6501 -2109.46 -0.0636341 -0.51495 -0.854138 61 58 72
-119.941 -25.5018 -2111.86 -0.194349 -0.546451 -0.81015 54 55 67
-211.172 -1.64073 -2109.96 -0.11571 -0.608705 -0.775963 61 63 74
-199.224 -6.73968 -2109.42 -0.25789 -0.614543 -0.735158 45 46 58
-197.155 -2.95908 -2114.01 -0.2557 -0.675418 -0.697508 45 43 54
-175.424 -14.94 -2110.52 -0.174001 -0.451191 -0.868816 56 56 68
-169.049 -13.8097 -2112.48 -0.18114 -0.510462 -0.840314 56 54 66
-183.538 -7.59078 -2113.49 -0.149316 -0.519935 -0.815944 42 41 52
-180.033 -6.41101 -2114.96 -0.117329 -0.589798 -0.790597 38 36 48
-216.87 2.67332 -2112.87 -0.126489 -0.649526 -0.740873 84 85 93
-167.318 -19.0284 -2110.07 -0.18392 -0.460123 -0.866041 59 58 70
-167.544 -11.3883 -2114.08 -0.176703 -0.530279 -0.828736 53 52 63
-158.575 -15.3704 -2113.86 -0.148459 -0.517273 -0.83412 58 56 67
-149.369 -21.8172 -2110.56 0.0514699 -0.495364 -0.863605 58 55 68
-153.04 -17.0476 -2113.5 -0.0700529 -0.529817 -0.834644 57 55 67
-140.681 -18.1852 -2113.06 -0.0171 -0.578394 -0.81283 57 55 67
-142.968 -17.1826 -2113.69 -0.00940821 -0.587018 -0.806763 56 54 66
-126.121 -18.9816 -2113.5 -0.128457 -0.556099 -0.818817 56 55 68
-346.765 -987.39 -2107.79 0.602788 0.00834935 -0.79514 45 49 46
-345.668 -982.357 -2107.94 0.608973 0.00312999 -0.792298 45 49 46
-342.907 -972.736 -2105.86 0.633722 0.0377297 -0.765852 44 48 45
-331.002 -977.324 -2107.57 0.665377 0.0201052 -0.742108 47 51 48
-325.681 -985.384 -2105.82 0.631326 0.0387257 -0.766316 47 50 47
-328.015 -982.519 -2106.57 0.652774 0.0215299 -0.751978 47 51 48
-322.103 -979.821 -2105.03 0.595697 0.0316073 -0.792024 47 51 47
-341.727 -966.571 -2104.97 0.633988 0.100168 -0.759618 45 49 45
-323.247 -976.843 -2105.01 0.607311 0.0359183 -0.782547 47 51 47
-322.369 -975.259 -2104.86 0.594093 0.0478301 -0.790829 47 51 47
-320.725 -970.148 -2104.45 0.564213 0.0880768 -0.808817 47 51 47
-280.432 -1056.47 -2106.95 0.423428 0.747841 -0.00373259 54 55 51
-279.769 -1051.27 -2108.22 0.471082 0.661125 0.0893393 54 54 51
-311.91 -1022.81 -2108.63 0.430758 -0.0281468 -0.882964 44 48 44
-280.199 -1035.92 -2105.24 0.233934 0.215017 -0.181585 50 53 50
-267.445 -1037.24 -2103.6 0.78332 0.126688 0.284698 46 50 47
-269.571 -1030.81 -2105.72 0.727635 0.111906 0.211897 46 49 46
-276.651 -1021.86 -2103.83 0.593548 -0.188543 0.150347 47 51 48
-277.729 -1016.48 -2105.12 0.653613 -0.138382 0.22264 47 50 48
-265.254 -1059.41 -2105.98 0.816567 0.0196994 0.528876 48 49 46
-266.9 -1056.06 -2103.09 0.854532 0.0248304 0.512739 47 48 45
-266.432 -1048.38 -2103.55 0.886863 0.0755997 0.469632 47 48 46
-266.872 -1036.76 -2107.2 0.772001 0.1424 0.290191 46 49 46
-309.731 -1009.36 -2104.8 0.475452 0.0483849 -0.880565 45 51 45
-309.993 -1004.82 -2105.76 0.516673 0.0518144 -0.853712 45 50 45
-345.165 -667.913 -2102.89 0.848343 -0.12977 -0.470664 48 54 54
-345.569 -650.994 -2107.54 0.891542 0.0516041 -0.402952 49 55 56
-346.962 -646.236 -2106.95 0.899311 0.171671 -0.370868 49 55 56
-348.289 -639.102 -2103.9 0.843075 0.327273 -0.405191 49 55 55
-354.817 -629.385 -2108.32 0.818566 0.138266 -0.297392 52 57 58
-353.112 -622.652 -2103.53 0.817234 0.0694477 -0.266959 53 57 57
-356.574 -606.984 -2103.9 0.920103 0.133325 -0.254324 53 57 58
-357.22 -603.891 -2105.72 0.898231 0.130737 -0.311358 53 57 58
-354.279 -593.424 -2103.77 0.747839 0.000287456 -0.565644 52 57 57
-105.565 -1090.36 -2107.35 0.781467 0.135345 -0.607515 56 54 54
-105.254 -1085.01 -2106.07 0.782692 0.0949187 -0.612412 56 53 52
-104.952 -1082.76 -2105.32 0.78068 0.0771868 -0.615496 55 53 52
-101.812 -1066.1 -2106.2 0.712923 -0.421301 -0.539453 43 43 42
-66.7446 -1112.65 -2104.65 -0.444986 0.591384 -0.625786 49 49 42
-60.1247 -1104.74 -2105.05 -0.677294 0.465113 -0.563383 46 49 44
-57.763 -1092.74 -2102.7 -0.727081 0.287589 -0.612565 49 49 44
-54.9644 -1092.99 -2107.55 -0.760881 0.276437 -0.57466 48 49 43
-54.2444 -1085.87 -2107.97 -0.785383 0.161985 -0.589359 48 48 43
-58.074 -1070.22 -2103.16 -0.734812 -0.132384 -0.642734 47 48 45
-55.4041 -1069.85 -2106.84 -0.719748 -0.137549 -0.664426 48 49 45
-99.8262 -1062.65 -2107.73 0.681084 -0.52426 -0.49471 39 40 39
-92.3498 -1057.13 -2104.69 0.697231 -0.482408 -0.505748 41 44 42
-47.3481 -685.336 -2105.76 -0.749011 -0.152419 -0.636181 51 56 56
-47.2236 -677.562 -2105.83 -0.783531 -0.00922756 -0.609098 49 56 55
-46.0325 -672.067 -2106.81 -0.801656 0.0484597 -0.58485 50 56 55
-200.059 -638.178 -2103.36 0.648814 -0.193322 0.548236 40 46 46
-199.565 -632.225 -2104.29 0.672991 -0.211476 0.615768 40 46 45
-199.845 -631.075 -2107.95 0.608781 -0.178777 0.466472 39 44 45
-198.728 -621.03 -2108.65 0.597618 -0.164597 0.637782 39 45 45
-128.868 -665.319 -2107.94 0.130334 0.0141873 -0.969999 46 49 53
-125.2 -659.978 -2108.62 -0.00251731 -0.0512083 -0.986079 45 49 52
-129.192 -645.869 -2108.61 0.131657 0.191071 -0.96299 45 49 53
-147.248 -633.255 -2108.59 0.542922 0.200307 -0.810129 47 50 57
-144.924 -628.587 -2106.18 0.445041 0.183366 -0.857997 48 51 57
-143.241 -638.824 -2108.24 0.426484 0.237839 -0.862075 47 50 57
-132.216 -640.654 -2107.13 0.16763 0.278532 -0.945182 45 49 53
-135.331 -634.278 -2104.87 0.239485 0.263817 -0.928186 47 50 55
-351.363 -406.091 -2104.94 0.860852 -0.397954 -0.00376843 51 55 54
-344.521 -393.464 -2108.34 0.834315 -0.411518 -0.0197691 46 50 50
-341.193 -384.028 -2103.39 0.806747 -0.459292 -0.155799 48 51 52
-339.476 -370.444 -2108.92 0.73058 -0.0876229 -0.625847 53 56 55
-334.275 -365.422 -2107.11 0.691998 -0.211455 -0.649752 55 57 56
-333.084 -360.454 -2106.86 0.635862 -0.18599 -0.711321 55 59 57
-332.865 -353.888 -2107.22 0.694136 -0.0688048 -0.675074 54 58 55
-330.596 -339.505 -2105.08 0.732385 -0.238184 -0.628428 57 62 59
-332.103 -336.006 -2108.7 0.746967 -0.236504 -0.607951 56 61 58
-324.295 -329.676 -2104.14 0.677812 -0.371795 -0.634379 59 63 61
-325.054 -323.837 -2109.01 0.695956 -0.388274 -0.600999 58 62 60
-320.273 -316.704 -2106.43 0.751256 -0.279118 -0.588221 58 61 59
-319.889 -306.938 -2109.14 0.785909 -0.186424 -0.58393 58 62 59
-234.098 227.238 -2104.79 0.894981 0.0190453 -0.307115 168 139 135
-233.21 233.457 -2103.9 0.85066 0.132551 -0.411519 141 118 116
-237.82 244.401 -2102.84 0.854054 0.21612 -0.31406 113 95 95
-242.655 255.804 -2103.91 0.877666 0.325299 -0.302824 66 55 62
-246.239 270.21 -2108.17 0.93769 0.167099 -0.158029 59 51 56
-241.848 254.326 -2109.75 0.93994 0.228107 -0.0631285 53 45 52
-248.404 275.796 -2108.32 0.896837 -0.0574772 -0.273882 51 44 47
-244.973 290.551 -2105.64 0.744477 -0.451844 -0.405945 48 41 43
-238.273 295.394 -2105.66 0.45203 -0.642215 -0.573217 71 57 59
-234.054 297.545 -2106.33 0.378179 -0.671971 -0.640298 92 73 74
-227.796 303.714 -2108.19 0.384001 -0.663021 -0.640862 111 87 87
-223.528 302.676 -2105.23 0.371643 -0.608616 -0.70622 147 121 116
-220.506 310.076 -2108.03 0.434843 -0.583321 -0.672625 121 98 95
-73.8278 -460.778 -2103.89 -0.334531 -0.174342 -0.912125 59 63 62
-74.2367 -452.85 -2103.13 -0.392422 0.0638153 -0.902008 58 63 62
-146.446 140.108 -2107.46 -0.730136 0.679725 0.017407 163 155 147
-140.085 149.178 -2108.4 -0.856811 0.487074 0.00522716 187 171 161
-137.649 160.367 -2108.39 -0.964876 0.226207 -0.124077 216 189 176
-136.478 168.571 -2107.25 -0.960631 0.204039 -0.143743 223 196 183
-137.824 179.813 -2103.94 -0.929029 -0.153427 -0.272574 228 201 189
-137.008 184.168 -2107.25 -0.904053 -0.0481745 -0.395132 231 200 188
-136.587 188.891 -2107.7 -0.890072 0.0141621 -0.433935 234 201 190
-132.241 201.487 -2104.85 -0.905132 0.30046 -0.134331 237 210 199
-130.274 211.813 -2105.69 -0.9601 0.0938051 0.0207132 236 217 207
-130.142 219.942 -2108.52 -0.986687 0.0103057 0.0099552 219 197 187
-130.559 226.661 -2107.08 -0.990311 -0.0756516 -0.0668412 212 188 177
-296.625 -873 -2105.11 0.495092 0.274131 -0.481846 45 51 48
-295.876 -877.876 -2108.33 0.451204 0.258881 -0.51571 45 52 48
-98.8776 -1166.17 -2107.12 0.469311 0.702919 0.0855622 192 159 131
-101.212 -1166.45 -2110.45 0.43108 0.652352 0.0647801 189 157 129
-104.521 -1164.91 -2102.96 0.458157 0.769752 0.0932567 193 158 131
-72.0872 -1176.47 -2104.56 0.4624 0.765764 0.0802849 185 153 127
-83.5174 -1169.75 -2104.77 0.486087 0.775353 0.0922256 190 157 130
-83.3122 -1170.36 -2113.08 0.384207 0.724683 0.0329492 174 145 121
-93.6254 -1167.08 -2108.83 0.424999 0.695175 0.063329 185 153 127
-74.4387 -1174.64 -2104.05 0.47478 0.772867 0.0862931 187 154 129
-78.9817 -1171.75 -2107.53 0.446752 0.766008 0.0679231 183 151 126
-67.3214 -1192.16 -2103.57 0.411389 0.756805 0.145954 186 152 128
-66.9399 -1190.56 -2112.15 0.333642 0.753178 0.0945984 175 144 121
-68.0754 -1196.57 -2112.79 0.281674 0.816383 0.162205 187 152 128
-66.7725 -1189.05 -2109.1 0.374512 0.742151 0.0948848 176 146 122
-143.609 -1114.54 -2114.1 0.0488704 0.493455 0.344649 151 127 101
-135.283 -1115.07 -2106.32 -0.259185 0.497077 -0.0295732 115 96 75
-128.821 -1116.09 -2103.84 -0.348873 0.459053 -0.34511 87 74 59
-120.513 -1118.61 -2108.17 -0.121711 0.478435 -0.314135 93 82 67
-131.237 -1117.62 -2111.33 -0.0115058 0.518031 0.200961 142 119 94
-343.745 -866.763 -2102.06 0.713753 0.0216145 -0.689392 46 52 50
-335.192 -890.223 -2098.45 0.712395 0.0990924 -0.668866 45 52 48
-338.222 -883.635 -2099.9 0.728178 0.0901085 -0.661826 46 52 49
-322.771 -881.752 -2101.92 0.678835 0.162437 -0.715603 46 54 50
-337.513 -877.104 -2098.7 0.726396 0.112577 -0.663322 45 52 49
-338.433 -868.718 -2098.57 0.741546 0.120093 -0.637512 45 52 49
-324.752 -876.264 -2102.19 0.702681 0.178693 -0.678883 45 52 48
-326.373 -870.358 -2102.04 0.735265 0.216356 -0.628727 44 52 48
-315.877 -960.92 -2102.09 0.531766 0.170769 -0.779136 47 52 47
-313.165 -953.975 -2101.02 0.536116 0.184385 -0.745991 46 51 46
-303.342 -963.405 -2097.6 0.49111 0.144536 -0.728263 46 52 46
-316.298 -951.307 -2101.64 0.552142 0.1712 -0.786863 46 51 46
-314.774 -946.614 -2102.19 0.515352 0.177132 -0.824639 46 51 46
-303.786 -940.413 -2102.14 0.565201 0.209722 -0.695813 44 51 45
-270.135 -957.581 -2102.3 0.87486 -0.179443 0.451566 44 49 45
-269.055 -947.915 -2101.85 0.842705 -0.106673 0.442183 44 50 47
-316.186 -934.621 -2102.13 0.4716 0.169178 -0.860311 44 50 45
-312.248 -933.996 -2098.14 0.415932 0.131845 -0.853056 45 51 46
-307.854 -930.428 -2101.38 0.42038 0.0688564 -0.879382 44 51 45
-313.041 -927.316 -2101.12 0.424549 0.109006 -0.883873 45 51 45
-315.96 -920.443 -2102.52 0.392538 0.0828019 -0.771077 44 51 45
-306.061 -919.314 -2101.28 0.361141 0.0808911 -0.879565 45 52 46
-272.117 -939.683 -2096.47 0.839354 0.0842757 0.492979 45 52 49
-273.199 -929.776 -2099.47 0.77704 0.187014 0.582228 45 51 50
-273.571 -925.263 -2100.05 0.737218 0.0920629 0.634135 44 50 49
-312.471 -913.684 -2101.56 0.398377 0.07592 -0.852126 45 52 47
-313.85 -906.72 -2101.63 0.462802 0.0697805 -0.832615 45 52 48
-303.426 -911.469 -2101.28 0.427536 0.0795125 -0.844265 45 52 47
-300.354 -904.427 -2101.71 0.492041 0.0858489 -0.799323 44 52 48
-309.317 -899.034 -2099.78 0.498416 0.0954736 -0.830368 45 52 48
-309.574 -893.526 -2098.32 0.501971 0.144664 -0.829835 45 52 48
-299.425 -900.58 -2101.33 0.481305 0.0996843 -0.777498 45 52 48
-301.328 -895.286 -2100.11 0.442233 0.147708 -0.760263 45 52 48
-272.198 -915.347 -2100.19 0.688802 -0.194923 0.672287 45 50 49
-357.802 -506.508 -2101.74 0.672495 -0.000202566 -0.659671 55 59 60
-355.927 -495.502 -2101.45 0.72206 -0.0974531 -0.654812 56 60 60
-352.904 -496.682 -2098.5 0.674306 -0.106024 -0.713837 56 61 61
-352.73 -488.548 -2099.53 0.701789 -0.112907 -0.675287 55 60 60
-349.646 -483.992 -2097.01 0.658533 0.00259847 -0.743586 54 60 59
-352.925 -470.223 -2098.88 0.736626 0.118997 -0.622691 52 58 57
-263.787 -556.552 -2099.82 0.139783 0.0317364 0.0289601 51 57 56
-249.069 -554.41 -2099.74 0.0989361 0.0323658 -0.0633626 49 56 54
-222.139 -568.774 -2098.18 0.539358 -0.133792 0.821396 45 51 50
-236.321 -547.961 -2100.42 0.381466 -0.290101 0.772113 46 52 51
-228.368 -538.295 -2102.62 0.515403 -0.00954951 0.448838 45 51 50
-221.218 -532.616 -2102.17 0.568774 0.0106634 0.455268 45 51 50
-201.656 -1189.46 -2102.62 0.226712 0.949113 0.196284 156 125 100
-44.2732 -824 -2100.28 -0.830653 -0.0150584 -0.496844 49 54 52
-74.6403 -814.984 -2100.47 0.58326 0.0669559 -0.795615 46 52 51
-74.4327 -805.828 -2099.29 0.549326 0.141174 -0.812482 47 53 52
-76.6318 -800.369 -2098.74 0.606594 0.201648 -0.768228 47 53 52
-78.8583 -792.726 -2098.54 0.684368 0.119136 -0.705124 46 53 52
-78.6018 -785.338 -2097.32 0.696258 0.072508 -0.690988 47 54 52
-79.9963 -784.555 -2100.06 0.736282 0.0466361 -0.635794 47 54 52
-81.023 -766.894 -2102.07 0.751593 0.0692415 -0.623689 47 53 52
-67.7705 -807.144 -2096.45 0.383108 0.0447259 -0.905105 50 56 54
-46.2172 -807.061 -2096.28 -0.573353 -0.0974905 -0.736528 50 55 53
-48.6373 -794.48 -2099.27 -0.708407 -0.0876562 -0.623392 49 55 52
-44.0777 -801.602 -2102.23 -0.85445 -0.0866793 -0.415525 49 55 52
-47.4989 -790.473 -2102.15 -0.834256 -0.0754352 -0.517955 49 55 52
-52.3552 -774.792 -2097.1 -0.677205 -0.0107302 -0.743811 48 55 50
-52.8589 -767.88 -2096.75 -0.619549 0.00081451 -0.791726 48 55 50
-82.724 -758.654 -2102.31 0.768757 0.104779 -0.624792 46 51 50
-81.1869 -755.739 -2099.51 0.742935 0.0953709 -0.654632 47 52 51
-82.3584 -748.738 -2100.31 0.753045 0.104076 -0.642767 46 51 50
-83.908 -738.265 -2100.9 0.781693 0.0945563 -0.625144 45 49 48
-84.1733 -735.45 -2100.89 0.783034 0.0791753 -0.626325 45 48 47
-289.208 -992.001 -2094.07 0.161803 -0.00538714 -0.833157 45 51 46
-284.695 -992.565 -2092.97 -0.255978 -0.14349 -0.561816 47 52 49
-294.163 -989.287 -2091.97 0.510644 0.038624 -0.728893 45 50 45
-301.423 -978.597 -2094.99 0.418828 0.0153561 -0.7552 47 51 46
-300.338 -973.873 -2093.71 0.388933 0.0200608 -0.732714 47 51 46
-279.886 -984.865 -2091.22 0.432182 -0.033041 0.484195 48 54 50
-276.651 -978.98 -2096.51 0.824892 -0.0339885 0.575964 47 52 48
-275.971 -966.126 -2092.65 0.808308 -0.170752 0.528846 47 52 49
-351.349 -824.949 -2094.63 0.675863 0.0115316 -0.731166 47 53 52
-351.11 -821.646 -2094.1 0.674407 -0.00739654 -0.731865 48 54 53
-336.623 -831.624 -2095.08 0.806355 -0.0581458 -0.576378 48 56 52
-331.932 -829.145 -2094.45 0.799842 -0.0316281 -0.582218 49 56 52
-334.65 -825.969 -2094.11 0.819096 0.0296676 -0.553406 49 56 52
-335.149 -817.898 -2094.98 0.819836 0.181579 -0.522164 49 55 52
-349.461 -816.157 -2092.36 0.663459 -0.0444917 -0.741627 48 54 53
-345.928 -810.096 -2091.04 0.600859 -0.210962 -0.762614 47 54 53
-334.649 -816.104 -2095.78 0.824414 0.208688 -0.508008 49 55 51
-330.921 -793.414 -2091.37 0.844472 -0.260034 -0.222926 51 55 51
-326.109 -786.393 -2094.36 0.697123 -0.155296 -0.541839 50 55 51
-324.353 -780.987 -2093.12 0.632267 0.044393 -0.433946 50 55 51
-317.691 -779.997 -2091.25 0.470709 0.0759199 0.24471 50 55 53
-329.434 -778.119 -2091.55 0.67937 0.176595 -0.641057 48 55 52
-324.393 -779.809 -2093.01 0.623428 0.0887965 -0.441543 50 55 52
-301.718 -864.153 -2092.39 0.532293 0.230504 -0.64195 46 52 48
-301.36 -860.308 -2090.96 0.510492 0.13867 -0.497187 48 53 50
-298.191 -852.35 -2096.35 0.634212 0.208052 -0.39512 48 53 50
-93.7752 -1211.36 -2094.1 0.498952 0.788078 0.301198 170 137 113
-101.303 -1206.55 -2091.28 0.510584 0.833007 0.159422 186 152 123
-91.7447 -1212.28 -2094.29 0.493643 0.779988 0.345948 180 144 121
-74.1296 -1211.05 -2092.95 0.363268 0.756124 0.204754 178 144 123
-138.935 -1163.36 -2095.7 -0.27644 0.128232 -0.771936 64 62 61
-133.646 -1154.57 -2092 -0.378254 0.114534 -0.923816 73 61 48
-118.451 -1163.33 -2095.64 0.474271 0.776577 0.093582 193 158 131
-126.451 -1148.44 -2094.42 -0.561062 0.276682 -0.769017 57 54 40
-122.105 -1141.37 -2094.31 -0.597012 0.383563 -0.686768 52 52 39
-116.354 -1161.38 -2092.32 -0.0770723 0.580204 -0.293074 130 111 92
-117.849 -1126.98 -2096.22 -0.539468 0.398703 -0.636858 51 51 44
-69.9962 -794.082 -2092.48 0.476951 0.194484 -0.830787 49 56 54
-73.42 -790.12 -2092.92 0.584005 0.157158 -0.785648 47 55 53
-74.3959 -781.26 -2092.79 0.576833 0.039711 -0.797217 47 55 53
-74.2112 -773.948 -2093.15 0.548638 -0.029642 -0.807903 47 55 53
-70.5923 -771.267 -2091.48 0.276185 -0.075372 -0.90171 48 55 53
-61.2363 -813.06 -2093.93 0.235512 -0.114675 -0.962967 51 57 55
-60.4852 -805.964 -2093.74 0.15796 -0.022173 -0.961816 51 57 54
-51.241 -816.051 -2093.31 -0.307337 -0.0706526 -0.844487 50 56 53
-55.7375 -810.041 -2093.07 0.0139727 -0.086912 -0.96242 51 57 54
-67.6902 -803.326 -2095.65 0.385421 0.121963 -0.890752 50 56 55
-60.5634 -798.79 -2092.1 0.0646379 0.127287 -0.94403 51 57 54
-60.1051 -794.886 -2091.18 -0.118565 0.117232 -0.948857 51 57 54
-54.1376 -801.466 -2093.83 -0.181186 -0.00997738 -0.90569 50 56 53
-52.2967 -797.313 -2094.47 -0.398326 -0.01685 -0.844886 49 55 52
-58.5154 -781.845 -2091.97 -0.420694 -0.0234547 -0.887894 50 57 53
-55.1259 -783.411 -2094.37 -0.575207 -0.0517091 -0.797715 49 56 52
-62.0234 -777.177 -2090.76 -0.266588 -0.0785499 -0.937681 49 56 52
-63.9082 -767.176 -2091.76 -0.139829 -0.0357187 -0.931271 49 56 53
-56.9319 -778.431 -2093.33 -0.508738 -0.0467465 -0.848985 49 56 52
-76.7368 -764.536 -2095.49 0.634175 0.0142782 -0.743699 48 54 53
-76.3366 -759.682 -2094.71 0.611836 0.0496879 -0.759816 48 54 53
-77.6352 -752.436 -2095.13 0.683044 0.0847142 -0.721376 47 53 52
-74.6428 -752.867 -2092.76 0.594211 0.0856101 -0.793103 48 54 53
-74.9321 -746.573 -2092.03 0.627271 0.0745135 -0.774651 47 53 52
-60.9746 -587.138 -2094.82 -0.34787 0.103382 -0.930155 53 58 58
-61.224 -585.059 -2094.74 -0.342814 0.0794807 -0.922456 54 59 60
-63.367 -579.159 -2093.91 -0.304846 0.00336818 -0.946064 55 60 61
-69.6916 -574.903 -2091.93 -0.274021 0.00314315 -0.959778 55 60 62
-217.404 -559.164 -2095.39 0.424294 -0.335414 0.848258 45 51 51
-198.992 -561.992 -2095.07 0.499795 -0.316279 0.80021 33 38 41
-212.91 -555.425 -2095.72 0.501427 -0.285866 0.801239 43 49 50
-214.465 -547.045 -2093.46 0.491671 -0.234406 0.848517 44 50 50
-198.828 -554.227 -2093.3 0.505096 -0.0946221 0.841044 31 35 38
-198.621 -545.064 -2096.36 0.372867 0.116426 0.557013 28 31 35
-212.698 -533.912 -2090.73 0.54118 0.101681 0.417388 43 49 48
-209.065 -534.888 -2095.24 0.610943 0.174319 0.533426 42 48 47
-203.431 -537.283 -2091.31 0.300596 0.183554 0.196654 37 42 43
-215.1 -523.295 -2092.52 -0.445207 0.149313 -0.363883 43 49 48
-152.444 -558.559 -2095.91 0.252905 0.206224 -0.93873 47 51 56
-155.276 -555.81 -2096.35 0.265051 0.150612 -0.947181 48 51 56
-146.912 -555.033 -2093.83 0.279236 0.132955 -0.943413 49 52 57
-147.263 -547.17 -2093.82 0.325734 -0.0229709 -0.942079 47 50 55
-140.625 -562.68 -2093.66 0.282853 0.244581 -0.926862 51 54 59
-140.23 -562.436 -2093.47 0.282892 0.242745 -0.927591 51 54 59
-130.741 -563.439 -2090.85 0.268608 0.223007 -0.935943 51 54 59
-139.793 -555.403 -2091.85 0.267516 0.154255 -0.948056 51 54 59
-134.538 -554.386 -2090.68 0.240588 0.124735 -0.956043 51 55 58
-133.657 -546.735 -2091.4 0.152252 -0.0119328 -0.979355 48 52 56
-130.178 -548.501 -2090.77 0.125247 -0.0490311 -0.986727 49 53 56
-862.051 48.9165 -2093.61 0.0168941 0.692595 -0.710913 242 207 191
-850.946 51.1232 -2091.94 -0.078112 0.580202 -0.757965 242 209 193
-848.941 44.7605 -2096.53 -0.00302496 0.752267 -0.65428 237 203 188
-858.132 52.818 -2090.14 -0.0249053 0.573115 -0.791485 245 211 194
-842.866 55.484 -2092.43 -0.267967 0.268557 -0.867667 248 218 202
-847.435 60.4054 -2090.65 -0.218879 0.221658 -0.902005 249 217 201
-844.945 67.0803 -2091.9 -0.313832 -0.000242103 -0.925187 249 220 203
-839.141 66.5461 -2094.93 -0.384911 -0.0791964 -0.916966 250 222 205
-842.093 73.2089 -2093.99 -0.335662 -0.0343288 -0.900638 247 218 202
-836.48 57.1246 -2095.12 -0.36595 0.153782 -0.887252 251 222 206
-94.6042 -464.722 -2093.65 -0.356997 -0.114616 -0.922918 59 63 62
-99.0524 -461.636 -2092.32 -0.320846 -0.100291 -0.940586 59 63 62
-100.564 -452.659 -2092.12 -0.355639 -0.036302 -0.931482 59 62 61
-99.1882 -446.007 -2092.69 -0.378811 0.000658161 -0.925008 58 61 60
-89.1939 -466.148 -2095.56 -0.392921 -0.143514 -0.900478 59 63 62
-90.5052 -462.251 -2095.46 -0.406756 -0.139647 -0.897167 59 63 62
-93.1958 -450.015 -2095.06 -0.385865 -0.0219115 -0.913738 60 63 62
-95.2494 -444.046 -2094.17 -0.368614 0.0105222 -0.925591 58 61 61
-97.4761 -435.646 -2093.65 -0.387434 -0.0449236 -0.910888 57 61 60
-103.099 -427.732 -2092.05 -0.517439 -0.128448 -0.832067 57 61 60
-105.051 -421.545 -2092.01 -0.541683 -0.150663 -0.822649 57 61 60
-98.0173 -423.255 -2094.45 -0.37401 -0.118864 -0.902018 57 62 61
-93.363 -433.677 -2094.92 -0.307067 -0.0489271 -0.937308 58 62 61
-93.4083 -427.585 -2094.97 -0.280342 -0.0919171 -0.938631 57 62 61
-92.1731 -425.855 -2095.12 -0.243311 -0.0910368 -0.948001 58 63 61
-102.788 -69.291 -2090.85 -0.593885 -0.216062 -0.775886 50 52 64
-98.297 -71.2218 -2093.92 -0.554692 -0.253227 -0.790463 48 51 61
-96.7963 -64.0365 -2096.74 -0.595998 -0.256185 -0.756175 48 51 61
-109.062 -50.5688 -2093.21 -0.331178 -0.491486 -0.776667 53 55 66
-104.963 -56.2681 -2091.81 -0.501993 -0.330214 -0.770675 53 54 66
-92.3628 -70.5323 -2095.07 -0.556775 -0.300606 -0.763581 46 48 58
-89.3339 -62.6295 -2094.9 -0.569656 -0.344652 -0.712961 45 47 56
-87.2248 -62.9541 -2092.49 -0.585749 -0.351535 -0.688168 45 47 55
-88.0977 -56.9476 -2096.01 -0.446097 -0.479603 -0.691456 45 47 56
-109.316 -47.4462 -2096.06 -0.320035 -0.565708 -0.727324 53 54 66
-135.941 231.024 -2090.88 -0.696297 -0.15251 -0.544224 228 198 185
-139.444 242.734 -2090.61 -0.846171 -0.238382 -0.383034 235 205 192
-141.185 248.199 -2091.02 -0.872502 -0.303123 -0.269767 218 188 176
-145.616 267.892 -2092.31 -0.631195 -0.103059 -0.258131 113 95 90
-142.456 254.501 -2094.03 -0.888718 -0.284058 -0.173899 200 169 159
-216.613 288.92 -2090.97 0.302924 -0.54031 -0.771294 208 178 167
-211.543 297.261 -2092.55 0.497899 -0.470085 -0.722142 228 197 183
-209.647 301.077 -2092.94 0.523021 -0.440723 -0.720218 206 176 164
-200.873 309.342 -2093.88 0.435021 -0.388703 -0.768483 187 160 152
-200.56 311.475 -2096.11 0.466868 -0.368432 -0.759761 184 157 149
-186.793 310.294 -2092.46 0.197723 -0.543451 -0.782021 162 141 136
-185.626 311.982 -2093.76 0.184217 -0.584342 -0.76531 144 124 119
-169.199 312.002 -2091.01 -0.241229 -0.606146 -0.686067 90 75 75
-857.113 85.3708 -2090.9 -0.0975139 0.333408 -0.803493 234 202 185
-841.444 79.8286 -2095.56 -0.23686 0.119803 -0.857369 241 211 194
-843.283 76.6416 -2093.69 -0.293792 0.0270084 -0.886734 245 215 199
-834.296 80.8826 -2099.54 -0.231041 0.140447 -0.842392 240 210 194
-827.244 77.2893 -2101.68 -0.287038 0.0207714 -0.87662 244 215 201
-273.098 -266.596 -2088.26 0.53031 -0.343629 -0.774701 124 118 106
-282.525 -222.962 -2090.28 0.42455 0.682387 -0.569338 50 46 54
-275.339 -224.885 -2088.63 0.451501 0.647074 -0.592202 49 45 52
-267.725 -265.582 -2085.44 0.514818 -0.355123 -0.779034 115 108 95
-259.39 -262.608 -2084.18 0.239457 -0.559452 -0.752318 166 155 133
-254.853 -259.613 -2087.89 -0.0353709 -0.740373 -0.649327 209 192 168
-261.576 -259.312 -2088.79 0.259558 -0.587936 -0.69471 190 171 148
-240.581 -259.467 -2089.82 0.185671 -0.772571 -0.639932 219 201 175
-236.651 -246.884 -2088.6 0.370191 0.17271 -0.832995 179 157 139
-228.097 -254.381 -2086.74 0.221058 -0.403175 -0.823952 214 192 170
-231.176 -252.493 -2087.39 0.292185 -0.261947 -0.826803 205 184 163
-219.088 -251.243 -2087.61 0.0461805 -0.31303 -0.887798 206 186 166
-258.252 -240.257 -2090.68 0.4739 0.498116 -0.700866 105 88 82
-247.865 -241.993 -2087.23 0.402924 0.483012 -0.690517 108 91 86
-264.998 -232.144 -2088.11 0.539189 0.519241 -0.648212 77 66 66
-241.942 -245.135 -2089.63 0.367306 0.275864 -0.755374 158 137 122
-236.548 -241.252 -2083.18 0.0995893 0.619172 -0.7512 95 83 79
-223.062 -243.523 -2085.6 0.0216812 0.285897 -0.901613 128 116 110
-292.84 -215.252 -2088.63 0.541788 0.387529 -0.650924 43 42 50
-295.311 -201.118 -2088.96 0.570792 -0.122435 -0.793508 43 42 51
-286.986 -216.258 -2084.86 0.435957 0.490726 -0.727532 43 41 48
-291.881 -210.538 -2086.32 0.490225 0.0554092 -0.793773 42 41 49
-146.744 -232.882 -2086.47 -0.409357 0.2732 -0.819849 36 35 42
-142.75 -230.693 -2088.04 -0.384856 0.26881 -0.855924 35 35 42
-140.085 -224.357 -2089.38 -0.462818 0.0775431 -0.826591 40 39 47
-169.532 -188.144 -2085.67 -0.300451 -0.0855892 -0.944769 41 40 49
-171.522 -179.96 -2085.39 -0.248823 -0.0137988 -0.965761 36 35 43
-170.008 -173.437 -2084.7 -0.177942 0.11658 -0.974443 33 32 40
-149.972 -215.318 -2084.14 -0.585583 -0.332235 -0.662748 45 44 52
-162.972 -204.747 -2084.66 -0.267766 -0.412031 -0.854983 42 41 50
-163.916 -201.564 -2085.77 -0.30683 -0.312233 -0.880741 41 40 49
-156.621 -203.606 -2087.7 -0.379591 -0.368521 -0.818751 41 40 48
-142.853 -220.027 -2089.03 -0.539998 -0.207139 -0.764996 45 45 52
-161.469 -193.767 -2088.08 -0.347398 -0.121507 -0.912927 40 39 48
-162.417 -188.951 -2088.03 -0.310227 -0.0364783 -0.94228 40 39 47
-180.092 302.185 -2084.62 0.0248054 -0.303283 -0.925652 185 167 161
-175.105 309.03 -2087.82 -0.0473976 -0.530202 -0.77885 123 104 102
-174.295 310.971 -2089.39 -0.0769788 -0.612456 -0.717921 103 87 86
-149.347 276.663 -2086.49 -0.581044 -0.0390682 -0.685087 109 93 90
-144.412 283.805 -2089.72 -0.574841 0.0171211 -0.721594 124 100 94
-155.377 297.949 -2086.12 -0.0865505 -0.35421 -0.903016 121 95 89
-147.805 288.554 -2086.06 -0.420832 0.0812756 -0.845865 163 134 123
-149.911 298.364 -2087.06 -0.154219 -0.300098 -0.836945 85 65 61
-142.921 295.548 -2089.44 -0.439394 -0.0718818 -0.737707 73 54 52
-160.748 300.941 -2087.29 -0.192679 -0.415915 -0.86412 140 112 106
-164.698 305.651 -2088.67 -0.256162 -0.479221 -0.793169 121 98 94
-149.172 299.953 -2088.02 -0.209515 -0.383302 -0.768076 77 59 57
-334.842 -888.684 -2081.41 0.603371 0.0776859 -0.788136 48 52 49
-333.329 -879.594 -2079.66 0.53873 0.0436795 -0.834086 47 53 50
-338.287 -876.662 -2082.8 0.578236 0.102145 -0.806361 47 53 50
-341.726 -868.58 -2082.93 0.587496 0.109847 -0.800839 46 53 50
-316.069 -962.906 -2081.61 0.253746 0.0775999 -0.966741 47 51 48
-307.053 -964.854 -2080.43 0.125181 0.0644636 -1.02026 45 50 47
-304.855 -953.505 -2080.3 0.0753835 0.0500759 -1.02246 45 51 48
-297.855 -960.888 -2083.08 0.149033 0.0245136 -0.96501 45 52 48
-298.185 -959.038 -2081.64 0.110989 -0.00837003 -1.02475 45 52 48
-309.505 -948.552 -2080.03 0.0775907 0.112364 -1.00193 44 51 47
-310.692 -943.58 -2078.94 0.102357 0.156668 -0.986899 44 51 47
-304.104 -946.942 -2081.47 0.0429176 0.108136 -0.99954 45 52 48
-300.241 -945.162 -2083.71 0.012615 0.117143 -0.98818 45 52 48
-280.735 -962.609 -2083.5 0.503541 -0.179061 0.836355 46 53 49
-281.017 -955.57 -2082.58 0.530502 -0.0825819 0.895998 46 52 49
-289.029 -949.529 -2078.17 0.130437 0.0149066 0.245445 46 53 49
-283.181 -948.29 -2080.99 0.404533 -0.0240234 0.860642 46 53 49
-283.589 -943.574 -2080.54 0.402132 -0.046554 0.944905 46 53 49
-307.641 -939.937 -2080.34 0.0800095 0.169642 -0.939504 43 50 47
-308.198 -927.844 -2084.32 0.153695 0.117729 -0.605465 44 51 46
-308.213 -923.353 -2080.87 0.16742 0.0835913 -0.38754 44 51 47
-280.961 -938.878 -2081.73 0.540655 -0.00864875 0.870944 46 54 50
-280.528 -931.357 -2083.87 0.585275 0.0514898 0.767209 47 55 51
-285.169 -928.06 -2079.19 0.449041 -0.0303039 0.880725 48 56 52
-283.571 -920.506 -2082.99 0.694949 0.00102616 0.646992 46 53 49
-308.932 -911.342 -2078.52 0.223701 0.0257921 -0.00809752 45 52 48
-309.364 -901.502 -2079.63 0.244948 0.01807 0.200772 45 52 48
-309.089 -891.358 -2080.77 0.222929 -0.020719 0.0469666 45 52 49
-286.04 -908.962 -2079.89 0.696226 -0.0229183 0.699934 47 53 51
-285.588 -900.734 -2079.11 0.593706 -0.115418 0.798466 47 53 52
-281.207 -893.877 -2080.91 0.576527 -0.14321 0.800125 46 52 51
-231.556 -551.05 -2078.74 0.0357853 0.150693 -0.171749 47 53 52
-235.216 -548.932 -2079.87 -0.105449 0.271509 -0.579519 48 54 53
-256.026 -544.001 -2078.47 0.00704302 0.14946 -0.512054 53 59 58
-234.672 -542.572 -2079.09 -0.054276 0.131808 -0.451636 48 54 53
-229.263 -539.039 -2079.02 0.0431296 -0.0256238 -0.0452324 47 53 52
-219.136 -533.885 -2079.66 0.15071 0.064307 0.0592206 45 51 51
-236.145 -528.615 -2078.21 -0.339509 -0.0403657 -0.990573 50 56 55
-231.732 -520.59 -2080.58 -0.334227 0.00474756 -0.836789 47 53 52
-221.518 -529.735 -2082.58 0.249947 0.0222198 0.312306 45 51 50
-223.657 -522.295 -2083.86 -0.067045 0.0807804 -0.12199 45 51 50
-235.877 -511.148 -2078.76 -0.278862 0.0521406 -0.97752 48 54 52
-224.096 -519.297 -2083.48 -0.446943 0.147574 -0.806477 45 51 50
-228.419 -511.766 -2080.62 -0.310245 0.0939146 -0.987291 46 52 50
-334.506 -467.944 -2084.04 0.492597 0.0261407 -0.86989 56 60 58
-334.683 -463.605 -2083.76 0.471712 0.0321937 -0.879016 55 59 58
-324.465 -469.849 -2077.85 0.438304 -0.163933 -0.868217 58 63 60
-320.091 -459.998 -2078.24 0.393565 -0.158285 -0.897506 57 63 59
-330.918 -452.513 -2082.54 0.495455 -0.0995998 -0.854697 57 62 60
-323.168 -454.01 -2079.61 0.395123 -0.0703992 -0.911403 57 63 59
-323.097 -447.735 -2079.62 0.40307 -0.074759 -0.906279 58 64 60
-330.582 -444.233 -2083.65 0.525267 -0.180481 -0.829875 59 64 62
-321.221 -438.901 -2079.33 0.355707 -0.096808 -0.914089 58 65 61
-319.491 -433.658 -2079.24 0.245867 -0.0992099 -0.938748 60 66 61
-319.268 -430.612 -2079.49 0.229026 -0.0655296 -0.944708 61 67 62
-323.372 -425.522 -2081.97 0.41354 0.0331627 -0.89333 60 67 63
-330.97 -417.329 -2083.91 0.430005 0.140215 -0.884457 58 64 62
-323.98 -415.081 -2081.24 0.374735 0.0474977 -0.916532 60 67 64
-327.028 -411.049 -2082.16 0.392939 -0.0466192 -0.90167 59 67 64
-322.244 -406.728 -2081.49 0.343083 -0.139217 -0.91778 61 68 64
-318.126 -402.362 -2081.08 0.353146 -0.174028 -0.91521 62 68 63
-319.071 -400.7 -2081.86 0.355437 -0.186653 -0.912615 62 68 63
-316.789 -382.125 -2082.91 0.402392 -0.0891408 -0.910915 60 66 62
-225.255 163.198 -2077.58 0.932127 0.12648 -0.0212904 218 217 210
-225.014 164.306 -2081.09 0.930937 0.139076 -0.0288594 207 207 199
-223.906 177.129 -2083.56 0.927311 0.13067 0.0552489 223 202 192
-225.335 181.617 -2080.76 0.912529 0.156058 -0.151528 221 213 206
-228.901 190.251 -2079.58 0.875702 0.345888 -0.323602 223 215 207
-233.517 199.444 -2082.8 0.864938 0.288456 -0.350493 229 216 209
-231.065 215.865 -2080.21 0.846373 -0.182888 -0.290302 241 212 202
-230.082 223.98 -2079.71 0.954015 -0.161389 0.0567451 252 222 213
-229.947 225.466 -2082.62 0.92552 -0.153051 -0.148478 241 211 200
-231.835 240.824 -2080.08 0.933909 0.183496 0.053531 255 222 213
-236.415 252.726 -2077.93 0.93966 0.188857 -0.166528 240 208 202
-237.202 256.027 -2079.18 0.919289 0.132797 -0.257359 224 194 188
-221.269 260.059 -2080.77 -0.00919321 0.0943363 -0.95236 233 199 188
-235.702 266.064 -2078.49 0.732265 -0.168067 -0.438185 193 165 158
-224.127 264 -2079.94 -0.196131 0.126207 -0.912693 237 205 194
-226.227 270.587 -2078.9 -0.00794028 -0.160224 -0.668151 203 176 167
-221.827 271.502 -2081.47 -0.0805492 -0.231072 -0.838765 186 161 153
-156.726 -98 -2079.89 -0.181486 0.201597 -0.958695 43 42 51
-148.776 -103.084 -2082.76 -0.0916614 0.233571 -0.970311 39 38 47
-142.484 -103.242 -2083.12 -0.0818202 0.234263 -0.970313 39 38 48
-125.509 -102.08 -2083.97 0.0160141 0.325961 -0.947065 36 35 45
-118.905 -103.785 -2083.07 0.0938138 0.336457 -0.946974 35 34 42
-160.426 -89.1474 -2078.18 -0.214914 0.0432706 -0.965226 46 45 56
-146.96 -92.0373 -2080.93 -0.119818 0.0917388 -0.975605 43 42 53
-145.53 -90.7409 -2081.12 -0.102598 0.0648353 -0.979154 43 42 53
-158.673 -81.7528 -2080.22 -0.204921 -0.091367 -0.964227 45 44 56
-163.855 -75.04 -2080.56 -0.187636 -0.215527 -0.949875 45 44 56
-158.33 -72.7739 -2082.15 -0.151951 -0.147794 -0.972538 48 47 59
-148.226 -79.9877 -2082.24 -0.0826227 -0.120225 -0.983965 43 42 54
-150.593 -78.7067 -2082.42 -0.108334 -0.133311 -0.980918 43 42 54
-141.859 -94.2198 -2081.45 -0.0682103 0.153646 -0.979788 42 41 52
-132.753 -94.3449 -2081.6 -0.0124118 0.209786 -0.97436 41 40 51
-133.568 -86.8883 -2080.52 0.0412026 0.0811031 -0.994216 44 43 55
-120.861 -93.8525 -2080.02 0.0758717 0.223943 -0.95899 40 40 51
-128.454 -91.2128 -2080.37 0.054946 0.19655 -0.979597 43 42 53
-142.938 -80.5842 -2081.87 -0.0123177 -0.0775575 -0.993763 44 43 55
-133.097 -84.9138 -2080.42 0.059129 0.0508167 -0.996487 45 44 56
-136.106 -74.0405 -2081.67 0.0841431 -0.0810692 -0.997496 49 49 61
-129.54 -80.2036 -2079.9 0.0939635 -0.0176125 -0.993577 47 46 58
-128.651 -77.9147 -2079.98 0.0816198 -0.0639401 -0.98834 48 48 60
-120.671 -75.1775 -2080.19 -0.118578 -0.17772 -0.936411 49 49 61
-117.011 -103.257 -2082.65 0.0605136 0.313277 -0.945536 35 35 43
-107.704 -103.462 -2083.07 -0.175917 0.24855 -0.91216 36 36 46
-115.589 -91.9767 -2079.45 -0.00859581 0.122684 -0.944058 41 42 53
-117.579 -87.7389 -2078.94 -0.00164847 0.0375143 -0.951323 44 44 56
-87.1053 -1166.61 -2089.78 0.525035 0.799506 0.0828567 196 160 131
-91.8216 -1164.41 -2089.31 0.566157 0.807492 0.104482 201 164 134
-68.1239 -1203.74 -2087.76 0.439729 0.810595 0.156667 202 165 143
-67.6598 -1202.54 -2078.88 0.52301 0.784051 0.135363 198 163 144
-66.7276 -1192.65 -2089.27 0.484461 0.748931 0.165226 194 159 133
-67.8128 -1183.76 -2087.98 0.543688 0.748684 0.153161 196 161 134
-310.346 -716.251 -2074.07 0.147249 -0.0750555 -0.366414 51 57 56
-316.226 -707.252 -2073.28 0.223621 -0.145971 -0.875373 52 58 57
-302.892 -707.416 -2075.93 0.29052 0.108293 -0.553417 54 59 58
-310.38 -701.625 -2072.16 0.221602 -0.0814506 -1.00991 53 59 58
-310.474 -693.726 -2072.14 0.224155 0.0383684 -1.04401 53 59 58
-295.738 -698.014 -2072.87 0.083461 0.0222593 0.352708 52 58 57
-282.055 -707.102 -2073.09 0.47201 0.114001 0.865384 49 55 54
-277.833 -710.427 -2076.87 0.612835 0.0610482 0.762184 49 55 54
-283.146 -694.58 -2072.69 0.462912 -0.0139877 0.928615 49 55 54
-277.749 -693.636 -2076.69 0.623524 -0.074188 0.764079 50 56 55
-296.739 -693.131 -2076.5 0.124128 0.00864341 -0.011552 52 58 57
-298.467 -684.014 -2071.57 0.128476 0.0122057 -0.174232 52 58 57
-299.683 -674.078 -2076.07 0.19635 0.0606127 -0.602406 52 57 56
-281.852 -692.15 -2073.07 0.468645 -0.072349 0.897877 50 56 55
-274.223 -683.927 -2077.59 0.677603 -0.15768 0.714336 50 56 55
-275.113 -679.405 -2075.54 0.633112 -0.135337 0.75375 51 57 56
-277.974 -672.325 -2072.33 0.624407 -0.0291761 0.780672 50 57 56
-318.687 -666.88 -2071.7 0.463707 -0.0523989 -0.883981 53 58 57
-323.411 -658.657 -2074.17 0.531655 0.00492767 -0.842536 52 57 56
-328.576 -649.628 -2076.85 0.587807 0.0349757 -0.797735 51 57 56
-327.633 -644.653 -2075.71 0.609979 -0.0289131 -0.793785 52 58 57
-323.055 -648.363 -2072.1 0.604702 0.0335988 -0.804016 51 57 56
-316.138 -498.657 -2072.05 -0.23425 -0.351838 -0.900648 56 63 59
-301.668 -505.14 -2071.73 0.130766 -0.416302 -0.872296 57 63 60
-301.128 -494.543 -2074.72 0.11539 -0.236651 -0.929429 57 64 60
-277.195 -501.298 -2072.04 -0.125702 -0.267663 -0.951906 56 63 59
