ply
format ascii 1.0
comment Created by Open3D
element vertex 1465
property double x
property double y
property double z
property uchar red
property uchar green
property uchar blue
end_header
-145.599 -324.711 -1284 158 155 164
-143.633 -326.177 -1290 163 161 170
-141.534 -327.392 -1295 165 163 172
-138.987 -327.596 -1296 168 166 175
-136.016 -326.79 -1293 170 168 177
-132.955 -325.732 -1289 164 162 172
-129.912 -324.676 -1285 150 148 157
-126.886 -323.621 -1281 137 135 144
-123.975 -322.819 -1278 123 120 128
-121.172 -322.272 -1276 110 107 115
-118.471 -321.978 -1275 97 94 102
-116.048 -322.442 -1277 92 89 97
-113.529 -322.655 -1278 84 81 90
-111.007 -322.868 -1279 81 78 87
-108.312 -322.578 -1278 75 73 83
-105.622 -322.288 -1277 65 63 73
-102.857 -321.747 -1275 51 49 59
-100.257 -321.712 -1275 44 42 51
-97.7354 -321.93 -1276 40 38 46
-95.2849 -322.401 -1278 37 35 43
-92.7544 -322.621 -1279 34 32 40
-90.2207 -322.842 -1280 29 27 35
-87.6836 -323.063 -1281 27 25 33
-85.0104 -322.781 -1280 27 26 34
-82.5351 -323.256 -1282 25 23 30
-80.0524 -323.732 -1284 21 19 26
-77.5019 -323.957 -1285 18 16 23
-75.0062 -324.435 -1287 19 18 23
-72.5031 -324.914 -1289 20 19 24
-69.8839 -324.889 -1289 19 19 23
-67.3176 -325.117 -1290 17 16 21
-64.7979 -325.599 -1292 16 15 20
-62.2225 -325.829 -1293 18 17 22
-59.7357 -326.564 -1296 17 16 21
-57.0611 -326.291 -1295 16 16 21
-54.475 -326.524 -1296 19 18 26
-51.8453 -326.506 -1296 20 19 27
-49.216 -326.488 -1296 20 19 27
-46.5872 -326.472 -1296 21 20 28
-43.9926 -326.708 -1297 20 19 27
-41.3625 -326.693 -1297 18 17 25
-38.7925 -327.183 -1299 13 12 21
-36.2982 -328.43 -1304 13 12 20
-33.758 -329.425 -1308 11 12 22
-31.2496 -330.925 -1314 11 12 21
-28.6082 -331.166 -1315 11 13 20
-25.9829 -331.661 -1317 13 12 24
-23.3319 -331.904 -1318 13 12 23
-20.677 -332.148 -1319 13 12 22
-18.0047 -332.142 -1319 14 13 21
-15.3324 -332.136 -1319 14 13 21
-12.6795 -332.635 -1321 11 10 18
-10.011 -332.883 -1322 11 10 17
-7.34409 -333.383 -1324 15 14 21
-4.67976 -334.64 -1329 15 14 22
-2.00119 -336.905 -1338 13 12 20
0.713451 -338.919 -1346 11 10 18
3.47313 -342.193 -1359 10 9 17
6.27633 -344.965 -1370 10 9 18
9.07146 -345.723 -1373 11 10 22
11.8873 -346.734 -1377 11 10 20
14.7087 -347.494 -1380 10 9 19
17.5426 -348.255 -1383 13 12 22
20.3592 -348.513 -1384 15 14 25
23.197 -349.025 -1386 15 14 26
26.0617 -349.788 -1389 14 13 23
28.9179 -350.302 -1391 13 12 22
31.7825 -350.816 -1393 13 12 20
34.6804 -351.583 -1396 13 12 20
37.7788 -354.114 -1406 16 15 23
40.976 -357.15 -1418 32 31 38
-345.412 -349.787 -1348 31 30 38
-338.433 -345.512 -1332 28 27 34
-333.542 -343.315 -1324 27 26 33
-329.687 -342.158 -1320 24 23 30
-326.1 -341.262 -1317 22 21 28
-323.265 -341.144 -1317 22 21 28
-320.19 -340.769 -1316 21 23 29
-317.363 -340.654 -1316 21 22 28
-314.3 -340.281 -1315 22 21 28
-311.244 -339.909 -1314 20 19 26
-308.43 -339.797 -1314 20 19 26
-305.153 -339.17 -1312 22 21 29
-301.427 -338.026 -1308 24 23 32
-298.177 -337.402 -1306 24 24 32
-295.391 -337.295 -1306 22 21 29
-292.159 -336.673 -1304 21 20 28
-289.161 -336.31 -1303 20 19 27
-286.828 -336.723 -1305 19 18 26
-284.055 -336.62 -1305 20 20 28
-280.637 -335.745 -1302 19 21 28
-277.448 -335.129 -1300 19 21 28
-274.269 -334.515 -1298 18 20 27
-270.684 -333.387 -1294 20 22 29
-267.324 -332.517 -1291 20 22 29
-264.185 -331.907 -1289 21 23 30
-260.651 -330.784 -1285 20 22 31
-257.738 -330.434 -1284 19 21 29
-254.633 -329.827 -1282 18 20 27
-251.342 -328.965 -1279 21 23 30
-248.066 -328.105 -1276 23 24 32
-244.613 -326.988 -1272 23 22 30
-241.368 -326.131 -1269 23 23 30
-237.95 -325.017 -1265 25 25 33
-235.11 -324.676 -1264 21 23 29
-232.275 -324.336 -1263 18 20 26
-229.81 -324.511 -1264 16 18 24
-227.343 -324.686 -1265 18 18 26
-224.874 -324.862 -1266 20 20 28
-222.578 -325.296 -1268 22 21 29
-219.929 -325.218 -1268 20 19 27
-217.453 -325.396 -1269 25 24 32
-214.806 -325.32 -1269 27 26 34
-212.16 -325.244 -1269 26 25 32
-209.351 -324.913 -1268 28 27 34
-206.711 -324.839 -1268 23 22 29
-204.073 -324.766 -1268 22 21 28
-201.437 -324.695 -1268 24 23 30
-198.803 -324.624 -1268 25 24 31
-196.015 -324.298 -1267 25 24 31
-193.386 -324.229 -1267 27 26 33
-190.758 -324.161 -1267 28 26 33
-187.687 -323.327 -1264 24 22 29
-185.069 -323.261 -1264 23 21 28
-182.597 -323.452 -1265 26 23 30
-180.122 -323.644 -1266 27 24 31
-177.505 -323.581 -1266 27 24 32
-175.027 -323.774 -1267 28 26 34
-172.547 -323.968 -1268 31 30 37
-169.93 -323.908 -1268 34 32 39
-167.446 -324.104 -1269 40 37 45
-164.83 -324.045 -1269 34 33 40
-162.343 -324.243 -1270 43 41 49
-159.727 -324.187 -1270 49 47 55
-156.989 -323.876 -1269 42 40 48
-154.257 -323.566 -1268 42 40 48
-151.889 -324.022 -1270 43 41 49
-149.513 -324.48 -1272 39 36 44
-147.593 -325.958 -1278 35 32 40
-146.104 -328.456 -1288 35 33 41
-144.24 -330.191 -1295 34 32 40
-141.911 -330.905 -1298 28 27 35
-139.25 -330.856 -1298 24 23 31
-136.379 -330.298 -1296 28 27 35
-133.311 -329.231 -1292 29 28 38
-130.16 -327.911 -1287 28 27 35
-127.129 -326.847 -1283 29 28 36
-124.115 -325.784 -1279 29 26 34
-121.404 -325.486 -1278 28 25 33
-118.606 -324.935 -1276 28 26 34
-115.998 -324.894 -1276 28 26 34
-113.302 -324.599 -1275 29 27 35
-110.872 -325.069 -1277 25 23 31
-108.265 -325.031 -1277 22 21 31
-105.576 -324.739 -1276 21 20 30
-102.973 -324.702 -1276 21 20 29
-100.45 -324.921 -1277 22 21 30
-97.846 -324.887 -1277 23 22 30
-95.318 -325.107 -1278 23 22 29
-92.7867 -325.329 -1279 25 24 31
-90.252 -325.551 -1280 23 22 29
-87.7141 -325.774 -1281 24 23 31
-85.0399 -325.49 -1280 31 30 37
-82.4994 -325.715 -1281 28 27 33
-80.0178 -326.195 -1283 23 22 28
-77.4685 -326.422 -1284 18 17 24
-75.0906 -327.412 -1288 17 17 21
-72.5282 -327.641 -1289 17 17 21
-69.9624 -327.87 -1290 19 19 23
-67.3409 -327.846 -1290 18 18 22
-64.8706 -328.585 -1293 17 17 21
-62.2441 -328.563 -1293 16 16 20
-59.7565 -329.304 -1296 16 16 20
-57.0808 -329.03 -1295 16 16 20
-54.4939 -329.264 -1296 18 18 26
-51.8633 -329.246 -1296 19 19 27
-49.2331 -329.228 -1296 19 18 26
-46.6034 -329.212 -1296 20 20 28
-43.974 -329.196 -1296 20 20 28
-41.3769 -329.435 -1297 17 16 24
-38.7761 -329.675 -1298 11 11 19
-36.2829 -330.932 -1303 12 12 20
-33.7439 -331.936 -1307 11 13 21
-31.2366 -333.448 -1313 10 12 19
-28.6181 -333.946 -1315 10 12 19
-25.9721 -334.19 -1316 12 11 22
-23.34 -334.689 -1318 13 12 23
-20.6685 -334.682 -1318 13 12 21
-17.9973 -334.675 -1318 11 12 20
-15.3377 -334.923 -1319 11 11 19
-12.6743 -335.172 -1320 10 11 18
-10.0069 -335.422 -1321 9 10 16
-7.34104 -335.927 -1323 10 12 18
-4.67788 -337.194 -1328 12 11 19
-1.99883 -339.225 -1336 14 13 21
0.714229 -342.018 -1347 14 13 21
3.47426 -345.065 -1359 12 11 19
6.28311 -348.114 -1371 13 12 20
9.08778 -349.132 -1375 11 10 22
11.8915 -349.644 -1377 10 9 20
14.7033 -350.156 -1379 11 10 20
17.5359 -350.924 -1382 13 12 22
20.3516 -351.184 -1383 14 13 24
23.2049 -351.953 -1386 14 13 25
26.052 -352.47 -1388 13 12 22
28.928 -353.241 -1391 12 11 20
31.748 -353.252 -1391 11 10 18
34.6924 -354.533 -1396 11 10 18
37.792 -357.086 -1406 15 14 21
41.1058 -361.163 -1422 25 24 31
-344.513 -351.66 -1344 31 30 38
-338.302 -348.134 -1331 26 25 33
-332.907 -345.396 -1321 26 25 32
-329.557 -344.752 -1319 23 22 29
-326.218 -344.11 -1317 23 22 29
-322.891 -343.469 -1315 25 24 31
-320.306 -343.612 -1316 23 25 31
-317.237 -343.235 -1315 21 22 28
-314.175 -342.859 -1314 22 21 28
-311.357 -342.745 -1314 22 21 28
-308.072 -342.111 -1312 21 20 27
-304.798 -341.478 -1310 23 23 31
-301.536 -340.846 -1308 24 24 33
-298.057 -339.956 -1305 23 24 34
-294.819 -339.327 -1303 23 22 30
-292.041 -339.221 -1303 22 21 29
-289.265 -339.115 -1303 21 20 28
-286.712 -339.271 -1304 21 20 28
-283.939 -339.168 -1304 20 20 28
-280.954 -338.806 -1303 19 21 28
-277.761 -338.185 -1301 19 21 28
-274.58 -337.565 -1299 18 20 27
-271.2 -336.687 -1296 18 20 27
-267.835 -335.81 -1293 16 18 25
-264.485 -334.935 -1290 17 19 26
-260.947 -333.802 -1286 17 20 29
-257.83 -333.189 -1284 17 20 28
-254.923 -332.837 -1283 18 20 27
-251.629 -331.968 -1280 20 22 29
-248.155 -330.841 -1276 22 24 31
-244.508 -329.456 -1271 20 22 29
-241.264 -328.591 -1268 21 23 30
-237.848 -327.469 -1264 24 26 33
-235.194 -327.384 -1264 20 22 28
-232.358 -327.041 -1263 17 19 25
-230.074 -327.476 -1265 14 16 22
-227.424 -327.393 -1265 16 18 25
-224.954 -327.571 -1266 20 20 28
-222.482 -327.75 -1267 23 22 30
-220.008 -327.929 -1268 21 20 28
-217.359 -327.851 -1268 23 22 30
-214.882 -328.032 -1269 25 24 32
-212.236 -327.956 -1269 22 21 29
-209.591 -327.88 -1269 21 20 27
-206.948 -327.806 -1269 25 24 31
-204.146 -327.474 -1268 22 21 28
-201.35 -327.143 -1267 23 22 29
-198.716 -327.072 -1267 27 26 33
-195.93 -326.743 -1266 24 23 30
-193.149 -326.416 -1265 22 21 28
-190.525 -326.348 -1265 22 21 28
-187.754 -326.022 -1264 20 19 26
-184.988 -325.698 -1263 19 18 25
-182.373 -325.633 -1263 22 21 28
-180.044 -326.084 -1265 24 23 30
-177.287 -325.762 -1264 25 24 31
-174.813 -325.957 -1265 26 25 32
-172.472 -326.411 -1267 26 25 32
-169.99 -326.608 -1268 27 24 32
-167.373 -326.548 -1268 32 29 37
-164.758 -326.489 -1268 29 28 35
-162.272 -326.688 -1269 32 31 39
-159.658 -326.631 -1269 31 30 38
-156.797 -326.06 -1267 32 31 39
-154.311 -326.262 -1268 25 24 32
-151.942 -326.723 -1270 21 20 28
-149.801 -327.698 -1274 19 18 26
-147.876 -329.189 -1280 18 17 25
-146.495 -331.965 -1291 13 12 20
-144.513 -333.456 -1297 10 9 17
-142.18 -334.177 -1300 10 9 17
-139.513 -334.127 -1300 12 11 19
-136.427 -333.05 -1296 15 14 23
-133.255 -331.718 -1291 17 16 26
-130.104 -330.386 -1286 20 19 28
-127.074 -329.313 -1282 27 26 34
-124.159 -328.499 -1279 26 25 33
-121.352 -327.941 -1277 26 25 32
-118.554 -327.386 -1275 26 25 32
-116.039 -327.601 -1276 23 22 29
-113.342 -327.304 -1275 25 24 32
-110.737 -327.264 -1275 20 19 27
-108.133 -327.226 -1275 19 18 28
-105.531 -327.188 -1275 19 18 28
-102.929 -327.151 -1275 21 20 28
-100.406 -327.372 -1276 22 21 28
-97.8038 -327.337 -1276 21 20 27
-95.2768 -327.559 -1277 21 20 27
-92.7466 -327.783 -1278 24 23 29
-90.2131 -328.007 -1279 23 22 29
-87.6764 -328.232 -1280 24 23 30
-85.0033 -327.945 -1279 27 26 33
-82.5928 -328.685 -1282 21 21 25
-80.1082 -329.169 -1284 19 19 23
-77.556 -329.398 -1285 19 19 23
-75.1168 -330.14 -1288 15 15 18
-72.6099 -330.627 -1290 15 15 19
-70.0412 -330.858 -1291 17 17 21
-67.3645 -330.577 -1290 16 16 19
-64.8431 -331.067 -1292 16 16 20
-62.2659 -331.301 -1293 17 17 21
-59.7312 -331.792 -1295 19 19 23
-57.0567 -331.515 -1294 20 20 24
-54.5129 -332.007 -1296 20 22 28
-51.8814 -331.989 -1296 22 22 29
-49.2503 -331.971 -1296 21 20 28
-46.5837 -331.698 -1295 19 21 28
-43.9894 -331.938 -1296 18 20 26
-41.3595 -331.923 -1296 16 16 22
-38.7597 -332.165 -1297 13 14 21
-36.2677 -333.433 -1302 11 13 20
-33.7557 -334.701 -1307 10 13 20
-31.2237 -335.97 -1312 9 11 18
-28.6064 -336.472 -1314 8 11 18
-25.9614 -336.718 -1315 11 11 21
-23.3126 -336.966 -1316 13 13 22
-20.66 -337.214 -1317 14 13 21
-17.9761 -336.951 -1316 12 13 20
-15.3198 -337.201 -1317 11 13 20
-12.6691 -337.708 -1319 11 12 19
-10.0028 -337.96 -1320 10 12 19
-7.33817 -338.47 -1322 11 13 19
-4.67585 -339.748 -1327 12 11 19
-2.00095 -342.307 -1337 14 13 21
0.71607 -345.635 -1350 15 14 22
3.47301 -347.684 -1358 12 12 20
6.28075 -350.758 -1370 12 12 21
9.06446 -351.017 -1371 11 10 22
11.8784 -352.044 -1375 11 10 21
14.6764 -352.305 -1376 13 12 22
17.5294 -353.591 -1381 13 12 22
20.3441 -353.854 -1382 11 10 22
23.2131 -354.886 -1386 11 10 22
26.0611 -355.406 -1388 11 10 20
28.9173 -355.928 -1390 11 10 19
31.7591 -356.195 -1391 12 11 19
34.6798 -357.231 -1395 12 11 19
37.6708 -358.78 -1401 14 13 20
40.9756 -362.891 -1417 20 19 26
-360.221 -367.633 -1393 50 49 57
-342.845 -352.727 -1337 30 29 37
-337.41 -349.963 -1327 25 24 32
-333.282 -348.521 -1322 24 23 30
-329.928 -347.872 -1320 24 23 30
-326.586 -347.224 -1318 24 23 30
-323.255 -346.578 -1316 25 24 31
-320.423 -346.459 -1316 24 24 31
-317.353 -346.079 -1315 23 23 30
-314.051 -345.436 -1313 25 24 31
-311.234 -345.321 -1313 24 23 30
-307.715 -344.419 -1310 24 23 30
-304.444 -343.781 -1308 23 24 32
-301.185 -343.144 -1306 22 23 33
-298.394 -343.034 -1306 21 22 34
-295.379 -342.663 -1305 22 22 32
-292.596 -342.555 -1305 22 21 30
-289.815 -342.449 -1305 21 20 28
-287.036 -342.344 -1305 22 21 29
-284.26 -342.239 -1305 21 20 28
-281.056 -341.612 -1303 20 22 29
-277.862 -340.985 -1301 20 22 29
-274.679 -340.36 -1299 19 21 28
-271.089 -339.213 -1295 19 21 28
-267.932 -338.591 -1293 15 18 25
-264.581 -337.709 -1290 15 17 24
-261.448 -337.089 -1288 15 18 27
-258.326 -336.472 -1286 17 19 28
-255.413 -336.117 -1285 20 22 29
-251.916 -334.978 -1281 22 24 31
-248.634 -334.103 -1278 22 24 31
-244.981 -332.706 -1273 21 23 30
-241.732 -331.834 -1270 21 23 30
-238.31 -330.702 -1266 25 27 34
-235.651 -330.616 -1266 20 22 28
-232.626 -330.009 -1264 17 19 25
-230.157 -330.186 -1265 14 17 23
-227.506 -330.104 -1265 17 17 25
-225.035 -330.283 -1266 18 18 26
-222.562 -330.463 -1267 21 20 28
-220.087 -330.644 -1268 21 20 28
-217.437 -330.564 -1268 22 21 29
-214.96 -330.747 -1269 21 20 28
-212.312 -330.67 -1269 21 20 28
-209.666 -330.594 -1269 21 20 28
-207.022 -330.519 -1269 19 18 26
-204.219 -330.184 -1268 20 19 27
-201.422 -329.851 -1267 21 20 28
-198.787 -329.779 -1267 21 20 27
-196 -329.448 -1266 21 20 27
-193.065 -328.857 -1264 23 22 29
-190.593 -329.048 -1265 22 21 28
-187.969 -328.98 -1265 23 22 29
-185.201 -328.653 -1264 24 23 29
-182.727 -328.847 -1265 24 23 28
-180.25 -329.042 -1266 25 24 30
-177.491 -328.718 -1265 28 27 34
-174.875 -328.655 -1265 29 28 35
-172.533 -329.112 -1267 27 26 33
-169.916 -329.05 -1267 28 25 33
-167.301 -328.99 -1267 30 27 35
-164.817 -329.19 -1268 28 27 34
-162.202 -329.132 -1268 27 26 34
-159.589 -329.074 -1268 28 27 35
-156.853 -328.758 -1267 26 25 33
-154.366 -328.962 -1268 21 20 28
-152.116 -329.685 -1271 20 19 27
-149.972 -330.669 -1275 18 17 25
-148.276 -332.69 -1283 15 14 22
-146.775 -335.23 -1293 13 12 20
-144.676 -336.474 -1298 10 9 17
-142.449 -337.46 -1302 9 8 16
-139.778 -337.41 -1302 10 9 17
-136.581 -336.065 -1297 12 11 20
-133.302 -334.462 -1291 17 16 24
-130.15 -333.12 -1286 22 21 29
-127.119 -332.038 -1282 25 24 32
-124.106 -330.957 -1278 26 25 33
-121.395 -330.655 -1277 26 25 33
-118.596 -330.094 -1275 23 22 29
-115.989 -330.052 -1275 23 22 29
-113.293 -329.752 -1274 23 22 29
-110.69 -329.713 -1274 21 20 28
-108.087 -329.674 -1274 20 19 28
-105.568 -329.894 -1275 20 19 28
-103.046 -330.116 -1276 21 20 28
-100.52 -330.339 -1277 21 20 28
-97.9917 -330.562 -1278 22 21 28
-95.4598 -330.786 -1279 23 22 29
-92.9246 -331.011 -1280 23 22 29
-90.3862 -331.237 -1281 25 24 29
-87.7759 -331.206 -1281 25 24 31
-85.1663 -331.175 -1281 25 24 30
-82.6864 -331.662 -1283 17 17 21
-80.199 -332.15 -1285 16 16 20
-77.5834 -332.122 -1285 15 15 19
-75.1434 -332.871 -1288 18 18 20
-72.6355 -333.361 -1290 16 16 19
-70.1202 -333.853 -1292 17 17 19
-67.4406 -333.57 -1291 15 15 17
-64.9162 -334.063 -1293 18 18 21
-62.336 -334.299 -1294 17 17 20
-59.7523 -334.536 -1295 20 20 23
-57.0769 -334.257 -1294 21 21 25
-54.5322 -334.754 -1296 22 22 28
-51.8997 -334.735 -1296 22 21 28
-49.2297 -334.459 -1295 23 22 29
-46.6001 -334.442 -1295 20 21 28
-43.9709 -334.426 -1295 15 17 23
-41.3421 -334.41 -1295 15 17 23
-38.7734 -334.913 -1297 14 17 23
-36.2248 -335.674 -1300 10 13 20
-33.716 -336.953 -1305 8 11 18
-31.1871 -338.232 -1310 8 11 18
-28.5729 -338.738 -1312 8 10 17
-25.9311 -338.987 -1313 9 10 20
-23.3032 -339.494 -1315 14 14 24
-20.6516 -339.745 -1316 15 14 22
-17.9825 -339.738 -1316 11 12 19
-15.3136 -339.732 -1316 10 12 19
-12.6735 -340.501 -1319 13 12 20
-10.0062 -340.756 -1320 13 14 21
-7.33515 -341.011 -1321 13 15 22
-4.67752 -342.557 -1327 14 13 21
-1.99875 -344.621 -1335 15 14 22
0.71473 -347.719 -1347 15 14 22
3.482 -351.334 -1361 11 13 19
6.28298 -353.659 -1370 11 12 20
9.06777 -353.92 -1371 11 10 22
11.8911 -355.214 -1376 13 12 22
14.6923 -355.477 -1377 12 11 21
17.523 -356.257 -1380 11 10 20
20.3513 -356.78 -1382 10 9 20
23.2214 -357.821 -1386 11 10 22
26.0328 -357.829 -1386 10 9 19
28.9068 -358.614 -1389 12 11 20
31.7475 -358.883 -1390 12 11 19
34.6422 -359.669 -1393 14 13 20
37.6034 -360.973 -1398 16 15 22
40.9611 -365.635 -1416 16 15 22
-359.32 -369.593 -1389 50 49 57
-342.202 -354.83 -1334 30 29 37
-337.026 -352.311 -1325 28 27 34
-333.153 -351.123 -1321 24 23 30
-329.8 -350.468 -1319 25 24 31
-326.459 -349.814 -1317 26 25 32
-323.129 -349.163 -1315 26 25 32
-320.298 -349.043 -1315 23 22 29
-316.987 -348.394 -1313 22 21 28
-313.927 -348.012 -1312 23 22 29
-311.111 -347.896 -1312 23 22 29
-307.828 -347.252 -1310 23 22 29
-304.323 -346.343 -1307 20 22 30
-301.065 -345.701 -1305 18 20 29
-298.504 -345.855 -1306 19 20 30
-295.714 -345.746 -1306 20 22 30
-292.927 -345.637 -1306 22 23 32
-290.365 -345.794 -1307 22 22 30
-287.362 -345.423 -1306 21 21 29
-284.365 -345.053 -1305 20 20 28
-281.159 -344.42 -1303 19 21 28
-277.964 -343.789 -1301 19 21 28
-274.78 -343.159 -1299 20 22 29
-271.397 -342.266 -1296 20 22 29
-268.237 -341.639 -1294 17 19 26
-264.883 -340.749 -1291 17 19 26
-261.746 -340.125 -1289 16 19 27
-258.822 -339.765 -1288 18 20 28
-255.904 -339.407 -1287 20 22 29
-252.599 -338.523 -1284 21 23 30
-249.308 -337.64 -1281 23 25 32
-245.455 -335.968 -1275 22 24 31
-242.011 -334.825 -1271 21 23 30
-238.773 -333.947 -1268 24 26 33
-235.736 -333.334 -1266 19 21 27
-232.895 -332.985 -1265 16 18 24
-230.423 -333.164 -1266 16 19 25
-227.769 -333.08 -1266 19 18 26
-225.117 -332.997 -1266 20 19 27
-222.643 -333.179 -1267 21 20 28
-220.167 -333.361 -1268 19 18 26
-217.516 -333.281 -1268 19 18 27
-215.037 -333.465 -1269 22 21 29
-212.389 -333.387 -1269 22 21 29
-209.742 -333.311 -1269 23 22 30
-206.934 -332.972 -1268 21 20 28
-204.293 -332.898 -1268 22 21 29
-201.654 -332.824 -1268 21 20 28
-198.859 -332.489 -1267 18 17 24
-196.071 -332.155 -1266 19 18 25
-193.135 -331.559 -1264 21 20 27
-190.662 -331.752 -1265 22 21 28
-188.037 -331.683 -1265 23 21 28
-185.268 -331.354 -1264 24 23 29
-182.793 -331.549 -1265 23 22 27
-180.173 -331.483 -1265 20 20 25
-177.414 -331.157 -1264 24 23 30
-174.8 -331.093 -1264 27 26 33
-172.323 -331.292 -1265 25 24 31
-169.709 -331.23 -1265 27 25 32
-167.229 -331.431 -1266 29 26 33
-164.746 -331.633 -1267 26 25 32
-162.26 -331.836 -1268 26 25 32
-159.646 -331.778 -1268 28 27 35
-157.157 -331.982 -1269 29 28 35
-154.543 -331.926 -1269 23 22 29
-152.171 -332.394 -1271 17 16 24
-150.144 -333.647 -1276 15 14 22
-148.445 -335.684 -1284 12 11 19
-146.941 -338.245 -1294 10 9 17
-144.951 -339.761 -1300 9 8 16
-142.61 -340.493 -1303 8 7 15
-139.828 -340.181 -1302 10 9 17
-136.735 -339.086 -1298 11 10 18
-133.35 -337.209 -1291 17 16 24
-130.096 -335.595 -1285 25 24 32
-127.066 -334.504 -1281 25 24 32
-124.15 -333.676 -1278 23 22 30
-121.439 -333.37 -1277 24 23 31
-118.732 -333.066 -1276 23 22 29
-116.121 -333.024 -1276 21 20 27
-113.334 -332.461 -1274 21 20 28
-110.729 -332.421 -1274 22 21 30
-108.126 -332.381 -1274 22 21 29
-105.606 -332.604 -1275 20 19 28
-103.083 -332.827 -1276 20 19 27
-100.556 -333.052 -1277 19 18 26
-98.0267 -333.277 -1278 18 17 25
-95.4939 -333.503 -1279 22 21 28
-93.0304 -333.991 -1281 23 22 29
-90.3479 -333.697 -1280 22 21 27
-87.8072 -333.926 -1281 21 20 28
-85.2632 -334.155 -1282 20 19 27
-82.7158 -334.386 -1283 16 15 21
-80.1651 -334.618 -1284 16 16 20
-77.611 -334.85 -1285 18 18 22
-75.1118 -335.344 -1287 19 19 22
-72.6614 -336.099 -1290 17 17 20
-70.0909 -336.334 -1291 17 17 20
-67.4646 -336.309 -1291 17 17 20
-64.9393 -336.807 -1293 17 17 20
-62.31 -336.784 -1293 17 17 20
-59.7274 -337.023 -1294 19 18 23
-57.0972 -337.002 -1294 24 23 29
-54.5516 -337.503 -1296 26 25 33
-51.9181 -337.483 -1296 24 23 31
-49.2852 -337.465 -1296 20 19 27
-46.5806 -336.927 -1294 19 21 27
-43.9525 -336.911 -1294 16 18 24
-41.3248 -336.896 -1294 15 17 24
-38.7573 -337.402 -1296 13 15 22
-36.1819 -337.91 -1298 12 14 21
-33.702 -339.459 -1304 9 12 19
-31.1744 -340.749 -1309 9 11 19
-28.5613 -341.259 -1311 9 11 20
-25.9008 -341.25 -1311 11 13 21
-23.276 -341.761 -1313 13 14 22
-20.6432 -342.274 -1315 12 13 20
-18.0026 -342.788 -1317 10 12 20
-15.3306 -342.782 -1317 11 13 21
-12.6781 -343.298 -1319 14 13 23
-10.0098 -343.554 -1320 14 14 23
-7.34326 -344.071 -1322 13 15 23
-4.6792 -345.37 -1327 15 14 22
-2.00388 -348.232 -1338 14 13 21
0.717107 -351.615 -1351 14 13 21
3.48061 -353.958 -1360 13 13 21
6.28065 -356.303 -1369 13 13 21
9.06432 -356.565 -1370 12 11 20
11.8953 -358.131 -1376 12 11 21
14.6976 -358.396 -1377 11 10 20
17.542 -359.443 -1381 12 11 21
20.3585 -359.71 -1382 13 12 22
23.2128 -360.498 -1385 12 11 22
26.0044 -360.247 -1384 11 10 22
28.8961 -361.298 -1388 12 11 21
31.7131 -361.309 -1388 13 12 20
34.6298 -362.362 -1392 14 13 21
37.6168 -363.937 -1398 14 13 21
40.86 -367.596 -1412 16 15 23
-353.761 -366.711 -1367 43 42 49
-341.817 -357.193 -1332 32 31 39
-336.643 -354.652 -1323 30 29 37
-332.773 -353.455 -1319 26 25 32
-329.673 -353.063 -1318 23 22 29
-326.581 -352.672 -1317 23 22 29
-323.25 -352.015 -1315 23 22 29
-320.174 -351.626 -1314 23 22 29
-317.105 -351.24 -1313 25 24 31
-313.805 -350.587 -1311 26 25 32
-310.99 -350.47 -1311 24 23 30
-307.707 -349.82 -1309 23 22 29
-304.437 -349.171 -1307 20 21 31
-301.638 -349.058 -1307 18 19 28
-298.843 -348.947 -1307 19 21 28
-295.824 -348.569 -1306 19 21 28
-293.485 -348.993 -1308 20 22 29
-290.695 -348.884 -1308 22 24 31
-287.688 -348.51 -1307 21 23 30
-284.688 -348.137 -1306 19 21 28
-281.479 -347.499 -1304 18 20 27
-278.28 -346.862 -1302 19 21 28
-275.304 -346.493 -1301 20 22 29
-271.707 -345.326 -1297 19 21 28
-268.543 -344.694 -1295 17 19 26
-265.186 -343.797 -1292 18 20 27
-262.046 -343.167 -1290 19 21 28
-259.118 -342.805 -1289 20 22 29
-256.197 -342.443 -1288 20 22 29
-252.888 -341.552 -1285 19 21 28
-249.595 -340.662 -1282 20 22 29
-245.545 -338.711 -1275 21 23 30
-242.099 -337.558 -1271 20 22 28
-238.672 -336.407 -1267 21 23 29
-235.637 -335.789 -1265 18 20 26
-232.796 -335.437 -1264 16 18 24
-230.325 -335.617 -1265 16 18 24
-227.852 -335.798 -1266 18 17 25
-225.378 -335.98 -1267 20 19 27
-222.9 -336.163 -1268 20 19 26
-220.247 -336.081 -1268 19 18 27
-217.768 -336.266 -1269 19 18 28
-214.946 -335.922 -1268 21 20 27
-212.299 -335.843 -1268 22 21 29
-209.488 -335.501 -1267 23 22 30
-206.846 -335.425 -1267 22 21 28
-204.045 -335.085 -1266 21 20 27
-201.568 -335.275 -1267 20 19 26
-198.775 -334.937 -1266 19 18 25
-196.142 -334.865 -1266 19 18 25
-193.206 -334.265 -1264 22 21 28
-190.58 -334.194 -1264 24 22 29
-188.106 -334.39 -1265 25 22 29
-185.335 -334.057 -1264 24 23 30
-182.715 -333.99 -1264 24 23 30
-180.239 -334.188 -1265 21 20 27
-177.619 -334.122 -1265 24 23 30
-175.002 -334.058 -1265 27 26 33
-172.522 -334.259 -1266 24 23 30
-170.039 -334.46 -1267 26 25 32
-167.422 -334.399 -1267 28 27 34
-164.806 -334.338 -1267 26 25 32
-162.191 -334.279 -1267 24 23 31
-159.452 -333.956 -1266 26 25 33
-156.966 -334.162 -1267 26 25 32
-154.478 -334.37 -1268 22 21 28
-152.106 -334.841 -1270 17 16 23
-149.963 -335.841 -1274 14 13 20
-148.383 -338.159 -1283 12 11 18
-146.653 -340.214 -1291 9 8 16
-144.78 -342.005 -1298 9 8 15
-142.552 -343.007 -1302 7 6 14
-139.663 -342.429 -1300 7 6 14
-136.784 -341.852 -1298 10 9 17
-133.398 -339.959 -1291 18 17 24
-130.244 -338.595 -1286 25 24 32
-127.012 -336.969 -1280 26 25 33
-124.195 -336.397 -1278 22 21 29
-121.387 -335.826 -1276 21 20 27
-118.775 -335.782 -1276 19 18 25
-116.163 -335.74 -1276 19 18 25
-113.464 -335.435 -1275 20 19 27
-110.943 -335.658 -1276 20 19 29
-108.334 -335.618 -1276 19 18 28
-105.809 -335.842 -1277 19 18 28
-103.281 -336.067 -1278 19 18 26
-100.75 -336.293 -1279 19 18 26
-98.062 -335.995 -1278 19 18 26
-95.6029 -336.485 -1280 23 22 29
-92.9912 -336.451 -1280 25 24 31
-90.3803 -336.418 -1280 22 21 28
-87.7702 -336.386 -1280 19 18 26
-85.3604 -337.143 -1283 19 18 26
-82.7456 -337.113 -1283 17 16 23
-80.2564 -337.609 -1285 17 16 21
-77.6993 -337.843 -1286 17 17 21
-75.1972 -338.341 -1288 17 17 21
-72.6875 -338.839 -1290 16 16 20
-70.0617 -338.814 -1290 16 16 20
-67.4888 -339.051 -1291 17 17 21
-64.8621 -339.028 -1291 17 17 21
-62.2842 -339.267 -1292 17 17 21
-59.7027 -339.508 -1293 18 18 23
-57.0735 -339.487 -1293 24 23 30
-54.487 -339.729 -1294 26 25 33
-51.8967 -339.973 -1295 25 24 32
-49.2648 -339.954 -1295 22 21 30
-46.6334 -339.937 -1295 20 22 28
-44.0023 -339.921 -1295 16 18 25
-41.4035 -340.168 -1296 15 17 24
-38.801 -340.416 -1297 11 13 20
-36.2785 -341.452 -1301 10 12 19
-33.74 -342.49 -1305 9 12 19
-31.1617 -343.265 -1308 8 11 19
-28.5933 -344.304 -1312 10 11 21
-25.9496 -344.557 -1313 13 14 22
-23.302 -344.81 -1314 14 15 23
-20.6506 -345.065 -1315 11 13 20
-18.009 -345.583 -1317 10 11 20
-15.3244 -345.314 -1316 13 13 23
-12.6826 -346.096 -1319 16 15 25
-10.0134 -346.355 -1320 15 15 25
-7.35138 -347.139 -1323 13 14 24
-4.68089 -348.186 -1327 13 12 20
-2.00453 -351.071 -1338 12 11 19
0.716301 -353.957 -1349 13 12 20
3.4717 -355.795 -1356 14 13 21
6.26914 -358.42 -1366 14 13 21
9.07429 -359.735 -1371 12 11 19
11.9083 -361.313 -1377 11 10 19
14.7135 -361.58 -1378 10 9 19
17.5483 -362.374 -1381 11 10 20
20.3658 -362.643 -1382 12 11 21
23.2044 -363.175 -1384 12 11 21
25.9949 -362.922 -1383 13 12 23
28.8857 -363.982 -1387 12 11 21
31.7244 -364.255 -1388 13 12 20
34.6174 -365.054 -1391 12 11 19
37.6034 -366.642 -1397 12 11 19
40.7589 -369.543 -1408 16 15 23
-353.377 -369.145 -1365 38 37 44
-341.689 -359.82 -1331 29 28 36
-336.261 -356.989 -1321 28 27 35
-332.646 -356.052 -1318 27 26 33
-329.797 -355.926 -1318 24 23 30
-326.703 -355.532 -1317 23 22 29
-323.371 -354.87 -1315 23 22 29
-320.294 -354.478 -1314 24 23 30
-317.466 -354.358 -1314 27 26 33
-314.162 -353.7 -1312 27 26 33
-311.344 -353.582 -1312 25 24 31
-308.058 -352.926 -1310 24 23 30
-305.017 -352.542 -1309 20 21 31
-301.982 -352.158 -1308 18 20 28
-299.184 -352.045 -1308 19 21 28
-296.161 -351.664 -1307 19 21 28
-293.594 -351.822 -1308 19 21 28
-291.026 -351.982 -1309 21 23 30
-287.796 -351.336 -1307 21 23 30
-284.794 -350.959 -1306 19 21 28
-281.583 -350.316 -1304 18 20 27
-278.384 -349.674 -1302 16 18 25
-275.195 -349.033 -1300 17 19 26
-271.808 -348.126 -1297 19 21 28
-268.643 -347.488 -1295 20 22 29
-265.49 -346.852 -1293 21 23 30
-262.347 -346.217 -1291 21 23 31
-259.415 -345.851 -1290 19 21 29
-256.491 -345.487 -1289 19 21 28
-253.179 -344.588 -1286 18 20 27
-249.687 -343.423 -1282 18 20 27
-246.022 -341.991 -1277 20 22 28
-242.189 -340.294 -1271 20 22 28
-238.761 -339.134 -1267 20 22 28
-235.538 -338.243 -1264 18 20 26
-232.882 -338.156 -1264 16 18 24
-230.228 -338.07 -1264 14 16 22
-227.757 -338.252 -1265 16 16 23
-225.461 -338.703 -1267 18 17 25
-222.983 -338.887 -1268 20 19 26
-220.502 -339.072 -1269 20 19 27
-218.02 -339.258 -1270 19 18 27
-215.365 -339.178 -1270 19 18 25
-212.545 -338.832 -1269 22 21 28
-209.731 -338.486 -1268 23 22 30
-207.086 -338.409 -1268 23 22 29
-204.12 -337.799 -1266 22 21 28
-201.324 -337.458 -1265 21 20 27
-198.691 -337.384 -1265 21 20 27
-196.059 -337.311 -1265 19 18 25
-193.277 -336.973 -1264 21 20 27
-190.65 -336.902 -1264 23 22 29
-188.175 -337.099 -1265 24 23 30
-185.403 -336.763 -1264 24 23 30
-182.782 -336.696 -1264 24 23 30
-180.162 -336.629 -1264 24 23 30
-177.684 -336.829 -1265 24 23 30
-175.204 -337.03 -1266 26 25 32
-172.721 -337.232 -1267 25 24 31
-170.236 -337.436 -1268 24 23 30
-167.615 -337.374 -1268 26 25 32
-165.126 -337.578 -1269 24 23 30
-162.507 -337.518 -1269 23 22 30
-159.762 -337.193 -1268 23 22 30
-157.272 -337.401 -1269 21 20 28
-154.656 -337.344 -1269 19 18 25
-152.042 -337.287 -1269 15 14 21
-149.782 -338.029 -1272 13 12 19
-148.205 -340.366 -1281 11 10 17
-146.707 -342.969 -1291 10 9 16
-144.722 -344.51 -1297 8 7 14
-142.713 -346.051 -1303 8 7 14
-139.822 -345.468 -1301 7 6 14
-136.94 -344.886 -1299 11 10 17
-133.55 -342.978 -1292 17 16 23
-130.291 -341.337 -1286 20 19 27
-127.059 -339.698 -1280 24 23 31
-124.143 -338.856 -1277 25 24 32
-121.336 -338.28 -1275 22 21 29
-118.725 -338.236 -1275 20 19 26
-116.296 -338.724 -1277 19 18 25
-113.594 -338.417 -1276 20 19 27
-110.983 -338.376 -1276 21 20 30
-108.374 -338.336 -1276 20 19 29
-105.848 -338.562 -1277 21 20 30
-103.157 -338.259 -1276 21 20 28
-100.629 -338.486 -1277 19 18 26
-98.0208 -338.45 -1277 19 18 26
-95.4882 -338.68 -1278 22 21 28
-92.8797 -338.646 -1278 25 24 31
-90.3425 -338.877 -1279 21 20 27
-87.8021 -339.11 -1280 18 17 25
-85.3248 -339.608 -1282 18 17 25
-82.8401 -340.107 -1284 16 15 22
-80.223 -340.078 -1284 17 16 21
-77.7274 -340.578 -1286 18 18 22
-75.166 -340.815 -1287 17 17 21
-72.6575 -341.318 -1289 16 16 20
-70.0871 -341.557 -1290 15 15 19
-67.5132 -341.797 -1291 16 16 20
-64.9359 -342.037 -1292 16 16 20
-62.3549 -342.279 -1293 16 16 20
-59.7705 -342.522 -1294 18 18 22
-57.1384 -342.5 -1294 21 21 26
-54.5488 -342.745 -1295 23 22 30
-51.8754 -342.461 -1294 24 23 32
-49.2446 -342.442 -1294 25 24 34
-46.6502 -342.689 -1295 21 22 30
-44.0182 -342.673 -1295 17 19 26
-41.4185 -342.922 -1296 16 18 25
-38.8451 -343.437 -1298 11 13 20
-36.2916 -344.217 -1301 9 11 18
-33.7522 -345.262 -1305 9 12 19
-31.2207 -346.573 -1310 8 10 19
-28.6472 -347.621 -1314 9 10 20
-25.9985 -347.875 -1315 14 13 21
-23.3281 -347.866 -1315 15 15 23
-20.6738 -348.123 -1316 13 15 22
-18.0155 -348.381 -1317 12 13 23
-15.3416 -348.374 -1317 14 15 25
-12.6776 -348.634 -1318 15 16 26
-10.0246 -349.423 -1321 13 14 24
-7.35414 -349.949 -1323 11 12 22
-4.69318 -351.799 -1330 13 12 20
-2.00384 -353.649 -1337 12 11 19
0.71709 -357.087 -1350 12 11 19
3.478 -359.204 -1358 12 11 19
6.27142 -361.322 -1366 12 11 19
9.07088 -362.383 -1370 12 11 19
11.9126 -364.238 -1377 10 9 19
14.7403 -365.037 -1380 9 8 18
17.5674 -365.572 -1382 9 8 18
20.388 -365.843 -1383 11 10 20
23.2296 -366.38 -1385 13 12 22
26.0233 -366.125 -1384 13 12 22
28.8962 -366.928 -1387 12 11 20
31.7361 -367.204 -1388 12 11 19
34.6549 -368.274 -1392 12 11 19
37.6439 -369.875 -1398 13 12 20
40.8315 -373.064 -1410 16 15 23
-351.699 -370.21 -1358 33 32 39
-341.819 -362.718 -1331 26 25 33
-336.389 -359.864 -1321 26 25 33
-333.025 -359.192 -1319 27 26 33
-329.922 -358.793 -1318 25 24 31
-326.827 -358.396 -1317 24 23 30
-323.74 -358 -1316 24 23 30
-320.659 -357.605 -1315 25 24 31
-317.586 -357.212 -1314 28 27 34
-314.52 -356.82 -1313 28 27 34
-311.461 -356.429 -1312 25 24 31
-308.174 -355.768 -1310 23 22 29
-305.132 -355.38 -1309 19 20 30
-302.096 -354.994 -1308 19 21 30
-299.525 -355.151 -1309 19 21 28
-296.726 -355.038 -1309 17 19 26
-293.93 -354.927 -1309 19 21 28
-291.136 -354.816 -1309 21 23 30
-287.904 -354.164 -1307 21 23 30
-284.901 -353.785 -1306 19 21 28
-281.905 -353.407 -1305 18 20 27
-278.275 -352.219 -1301 17 19 26
-275.299 -351.843 -1300 17 19 26
-271.91 -350.928 -1297 18 20 27
-269.159 -350.827 -1297 21 23 30
-265.795 -349.914 -1294 23 25 32
-262.445 -349.004 -1291 21 23 31
-259.513 -348.635 -1290 20 22 30
-256.587 -348.268 -1289 19 21 28
-253.471 -347.632 -1287 17 19 26
-249.781 -346.187 -1282 16 18 25
-246.114 -344.744 -1277 19 21 27
-242.28 -343.033 -1271 19 21 27
-238.661 -341.593 -1266 20 22 28
-235.439 -340.695 -1263 20 22 28
-232.6 -340.338 -1262 15 17 23
-229.95 -340.251 -1262 13 15 21
-227.661 -340.705 -1264 15 15 23
-225.189 -340.89 -1265 18 18 26
-223.066 -341.614 -1268 20 19 26
-220.41 -341.531 -1268 20 19 27
-218.101 -341.988 -1270 20 19 27
-215.275 -341.638 -1269 19 18 25
-212.624 -341.558 -1269 21 20 27
-209.809 -341.21 -1268 23 22 30
-207.163 -341.132 -1268 22 21 28
-204.196 -340.518 -1266 23 22 29
-201.558 -340.442 -1266 22 21 28
-198.922 -340.367 -1266 23 22 29
-196.132 -340.025 -1265 21 20 27
-193.501 -339.953 -1265 21 20 27
-190.872 -339.881 -1265 22 21 28
-188.393 -340.079 -1266 22 21 28
-185.765 -340.01 -1266 22 21 28
-183.283 -340.21 -1267 23 22 29
-180.657 -340.142 -1267 24 23 30
-178.031 -340.076 -1267 23 22 29
-175.546 -340.278 -1268 24 23 30
-173.058 -340.482 -1269 24 23 30
-170.433 -340.418 -1269 23 22 29
-167.809 -340.356 -1269 23 22 29
-165.187 -340.294 -1269 22 21 28
-162.438 -339.965 -1268 23 22 30
-159.695 -339.637 -1267 23 22 30
-157.205 -339.847 -1268 19 18 25
-154.469 -339.521 -1267 15 14 21
-152.098 -340 -1269 13 12 19
-149.955 -341.016 -1273 12 11 18
-148.26 -343.104 -1281 11 10 17
-146.647 -345.46 -1290 10 9 16
-144.887 -347.548 -1298 8 7 14
-142.766 -348.834 -1303 8 7 14
-139.981 -348.514 -1302 8 7 15
-136.99 -347.66 -1299 13 12 20
-133.599 -345.737 -1292 17 16 23
-130.441 -344.35 -1287 17 16 23
-127.205 -342.697 -1281 22 21 28
-124.286 -341.848 -1278 25 24 32
-121.571 -341.536 -1277 23 22 30
-118.955 -341.491 -1277 21 20 27
-116.339 -341.448 -1277 20 19 26
-113.725 -341.405 -1277 22 21 29
-111.285 -341.899 -1279 22 21 31
-108.583 -341.591 -1278 22 21 31
-105.97 -341.552 -1278 23 22 32
-103.276 -341.246 -1277 22 21 29
-100.745 -341.476 -1278 20 19 27
-98.0566 -341.172 -1277 19 18 26
-95.5231 -341.403 -1278 20 19 26
-92.9136 -341.369 -1278 22 21 28
-90.4462 -341.869 -1280 21 20 27
-87.8341 -341.837 -1280 19 18 26
-85.4225 -342.606 -1283 18 17 25
-82.8704 -342.842 -1284 17 16 23
-80.2523 -342.812 -1284 16 16 21
-77.6349 -342.783 -1284 15 15 19
-75.0182 -342.755 -1284 16 16 20
-72.5713 -343.529 -1287 15 15 19
-70.004 -343.769 -1288 14 14 18
-67.4856 -344.278 -1290 15 15 19
-64.9093 -344.521 -1291 16 16 20
-62.3777 -345.031 -1293 19 19 23
-59.7461 -345.009 -1293 19 19 23
-57.1592 -345.254 -1294 20 20 24
-54.5687 -345.5 -1295 22 21 29
-51.9345 -345.481 -1295 22 21 30
-49.3006 -345.462 -1295 22 22 32
-46.7033 -345.711 -1296 18 20 27
-44.0683 -345.695 -1296 17 19 26
-41.4976 -346.213 -1298 16 18 25
-38.9191 -346.731 -1300 13 15 22
-36.3607 -347.518 -1303 9 11 18
-33.8163 -348.572 -1307 10 12 19
-31.2558 -349.626 -1311 10 11 20
-28.6577 -350.415 -1314 9 10 20
-26.008 -350.672 -1315 14 13 21
-23.3367 -350.663 -1315 15 15 23
-20.6813 -350.922 -1316 14 16 23
-18.0221 -351.182 -1317 14 15 25
-15.3472 -351.175 -1317 15 16 26
-12.6725 -351.17 -1317 14 15 25
-10.0358 -352.499 -1322 12 13 23
-7.36231 -353.029 -1324 11 12 22
-4.69121 -354.36 -1329 14 13 21
-2.0015 -355.959 -1335 14 13 21
0.716287 -359.425 -1348 11 10 18
3.47423 -361.559 -1356 10 9 17
6.2783 -364.494 -1367 11 10 18
9.1074 -366.63 -1375 12 11 19
11.9431 -367.967 -1380 10 9 19
14.767 -368.505 -1382 9 8 18
17.5738 -368.511 -1382 9 8 18
20.3806 -368.518 -1382 11 10 20
23.2045 -368.793 -1383 12 11 21
26.0327 -369.068 -1384 12 11 21
28.8651 -369.345 -1385 13 12 21
31.7476 -370.156 -1388 13 12 20
34.6426 -370.968 -1391 12 11 19
37.6039 -372.315 -1396 12 11 19
40.7305 -374.997 -1406 14 13 21
44.3324 -381.414 -1430 27 26 34
-347.948 -369.05 -1343 34 33 40
-341.437 -365.071 -1329 26 25 33
-336.263 -362.469 -1320 26 25 33
-333.152 -362.065 -1319 25 24 31
-329.798 -361.389 -1317 24 23 30
-326.953 -361.263 -1317 24 23 30
-323.617 -360.589 -1315 24 23 30
-320.538 -360.191 -1314 24 23 30
-317.466 -359.795 -1313 24 23 30
-314.401 -359.4 -1312 24 23 30
-311.343 -359.006 -1311 24 23 30
-308.056 -358.34 -1309 23 22 29
-305.015 -357.949 -1308 19 20 30
-301.98 -357.559 -1307 20 21 30
-299.181 -357.445 -1307 19 21 28
-296.385 -357.331 -1307 17 19 26
-293.817 -357.491 -1308 19 21 28
-291.024 -357.38 -1308 21 23 30
-288.013 -356.996 -1307 20 22 29
-285.009 -356.614 -1306 20 22 29
-281.58 -355.687 -1303 18 20 27
-278.594 -355.308 -1302 18 20 27
-275.191 -354.384 -1299 18 20 27
-272.223 -354.007 -1298 19 21 28
-269.469 -353.904 -1298 21 23 30
-265.895 -352.712 -1294 22 24 31
-262.544 -351.794 -1291 21 23 30
-259.611 -351.422 -1290 20 22 29
-256.285 -350.508 -1287 19 21 28
-252.975 -349.594 -1284 18 20 27
-249.68 -348.682 -1281 18 20 27
-246.207 -347.5 -1277 20 22 28
-242.18 -345.503 -1270 19 21 27
-238.751 -344.324 -1266 21 23 29
-235.341 -343.146 -1262 21 23 29
-232.503 -342.786 -1261 18 20 26
-230.036 -342.971 -1262 15 17 23
-227.567 -343.156 -1263 15 17 24
-225.095 -343.342 -1264 17 19 26
-222.621 -343.529 -1265 20 19 26
-220.145 -343.718 -1266 20 19 27
-217.839 -344.178 -1268 19 18 26
-215.356 -344.368 -1269 19 18 25
-212.703 -344.287 -1269 21 20 27
-210.053 -344.208 -1269 22 21 28
-207.404 -344.129 -1269 21 20 27
-204.434 -343.51 -1267 22 21 28
-201.474 -342.891 -1265 22 21 28
-199.153 -343.358 -1267 22 21 28
-196.36 -343.013 -1266 22 21 28
-193.726 -342.94 -1266 21 20 27
-190.943 -342.597 -1265 21 20 27
-188.463 -342.796 -1266 21 20 27
-185.834 -342.726 -1266 22 21 28
-183.352 -342.928 -1267 24 23 30
-180.724 -342.86 -1267 23 22 29
-178.238 -343.063 -1268 21 20 27
-175.75 -343.267 -1269 21 20 27
-173.122 -343.202 -1269 20 19 26
-170.496 -343.138 -1269 22 21 28
-168.004 -343.345 -1270 24 23 30
-165.379 -343.283 -1270 24 23 30
-162.499 -342.681 -1268 25 24 31
-159.881 -342.621 -1268 22 21 29
-157.264 -342.562 -1268 19 18 25
-154.526 -342.233 -1267 15 14 21
-152.034 -342.446 -1268 14 13 20
-149.893 -343.47 -1272 13 12 19
-148.199 -345.575 -1280 12 11 18
-146.815 -348.489 -1291 11 10 17
-145.164 -350.864 -1300 10 9 16
-143.038 -352.16 -1305 7 6 13
-140.248 -351.837 -1304 8 7 15
-137.252 -350.976 -1301 14 13 21
-133.959 -349.307 -1295 17 16 23
-130.59 -347.37 -1288 17 16 23
-127.45 -345.974 -1283 23 22 29
-124.527 -345.118 -1280 24 23 31
-121.902 -345.072 -1280 25 24 31
-119.185 -344.758 -1279 23 22 29
-116.564 -344.714 -1279 20 19 26
-113.856 -344.402 -1278 21 20 28
-111.413 -344.899 -1280 22 21 31
-108.538 -344.05 -1277 23 22 32
-106.009 -344.279 -1278 24 23 33
-103.233 -343.702 -1276 22 21 29
-100.703 -343.933 -1277 20 19 26
-98.0161 -343.627 -1276 19 18 25
-95.3341 -343.322 -1275 19 18 25
-92.8752 -343.826 -1277 19 18 25
-90.3382 -344.061 -1278 19 18 25
-87.8666 -344.566 -1280 20 19 26
-85.3209 -344.803 -1281 19 18 26
-82.8364 -345.311 -1283 17 16 22
-80.2194 -345.28 -1283 17 17 22
-77.724 -345.789 -1285 16 16 20
-75.1043 -345.761 -1285 16 17 21
-72.6544 -346.541 -1288 15 16 20
-70.0298 -346.515 -1288 15 15 19
-67.5627 -347.296 -1291 15 16 20
-64.9835 -347.541 -1292 16 17 21
-62.4007 -347.786 -1293 20 20 24
-59.7219 -347.494 -1292 20 20 25
-57.1802 -348.011 -1294 20 20 25
-54.5887 -348.259 -1295 22 22 30
-51.9536 -348.239 -1295 22 22 31
-49.3187 -348.221 -1295 21 23 32
-46.7565 -348.741 -1297 18 20 27
-44.1185 -348.724 -1297 17 19 26
-41.4808 -348.708 -1297 17 19 26
-38.9034 -349.231 -1299 15 17 24
-36.4299 -350.83 -1305 12 14 21
-33.8546 -351.624 -1308 10 12 19
-31.2912 -352.687 -1312 10 12 20
-28.7119 -353.751 -1316 10 12 21
-26.0571 -354.01 -1317 12 12 20
-23.3808 -354.001 -1317 14 14 22
-20.7046 -353.993 -1317 13 15 22
-18.0423 -354.254 -1318 14 15 25
-15.3645 -354.248 -1318 16 17 27
-12.6772 -353.974 -1317 15 16 26
-10.0395 -355.314 -1322 12 13 23
-7.35938 -355.579 -1323 12 13 23
-4.68941 -356.921 -1328 15 14 22
-2.00515 -359.339 -1337 14 13 21
0.716184 -362.026 -1347 10 9 17
3.47815 -364.714 -1357 10 9 17
6.27619 -367.135 -1366 12 11 19
9.09096 -368.751 -1372 12 11 19
11.9129 -369.83 -1376 12 11 20
14.7511 -370.91 -1380 11 10 20
17.5676 -371.185 -1381 10 9 19
20.3882 -371.46 -1382 11 10 19
23.1963 -371.468 -1382 13 12 22
26.0424 -372.015 -1384 13 12 23
28.8757 -372.294 -1385 12 11 20
31.7593 -373.112 -1388 12 11 19
34.6554 -373.931 -1391 12 11 19
37.5639 -374.75 -1394 13 12 20
40.7167 -377.722 -1405 14 13 21
44.1007 -382.308 -1422 25 24 33
-350.156 -374.199 -1351 34 33 41
-341.312 -367.695 -1328 27 26 34
-336.138 -365.072 -1319 28 27 35
-332.775 -364.389 -1317 25 24 31
-329.675 -363.984 -1316 23 22 29
-326.582 -363.58 -1315 23 22 29
-323.742 -363.454 -1315 23 22 29
-320.662 -363.053 -1314 22 21 28
-317.588 -362.653 -1313 21 20 27
-314.522 -362.255 -1312 22 21 28
-311.462 -361.858 -1311 23 22 29
-307.939 -360.911 -1308 23 22 29
-304.665 -360.241 -1306 20 21 31
-301.865 -360.124 -1306 18 19 28
-298.838 -359.732 -1305 18 20 27
-296.272 -359.893 -1306 18 20 27
-293.705 -360.055 -1307 21 23 30
-290.913 -359.943 -1307 20 22 29
-287.903 -359.556 -1306 19 21 28
-285.118 -359.446 -1306 19 21 28
-281.904 -358.787 -1304 18 20 27
-278.914 -358.404 -1303 19 21 28
-275.932 -358.023 -1302 19 21 28
-272.536 -357.093 -1299 19 21 28
-269.571 -356.714 -1298 21 23 30
-266.407 -356.062 -1296 22 24 31
-262.847 -354.862 -1292 20 22 29
-259.911 -354.487 -1291 18 20 26
-256.582 -353.565 -1288 19 21 28
-253.268 -352.644 -1285 21 23 29
-249.775 -351.451 -1281 21 23 30
-246.493 -350.533 -1278 20 22 28
-242.463 -348.52 -1271 20 22 28
-238.842 -347.057 -1266 23 25 31
-235.431 -345.871 -1262 21 23 29
-232.591 -345.507 -1261 19 21 27
-229.941 -345.419 -1261 17 19 25
-227.473 -345.606 -1262 15 17 24
-225.002 -345.794 -1263 18 20 27
-222.882 -346.53 -1266 20 19 26
-220.229 -346.446 -1266 20 19 26
-217.921 -346.91 -1268 18 17 25
-215.437 -347.101 -1269 19 18 25
-212.952 -347.293 -1270 21 20 27
-209.966 -346.666 -1268 21 20 27
-207.318 -346.587 -1268 21 20 27
-204.672 -346.509 -1268 21 20 27
-201.709 -345.886 -1266 23 22 29
-199.386 -346.356 -1268 22 21 28
-196.589 -346.008 -1267 21 20 27
-193.952 -345.934 -1267 20 19 26
-191.166 -345.588 -1266 20 19 26
-188.683 -345.79 -1267 22 21 28
-186.051 -345.719 -1267 24 23 30
-183.565 -345.922 -1268 25 24 31
-181.077 -346.126 -1269 24 23 30
-178.446 -346.058 -1269 22 23 29
-175.954 -346.264 -1270 20 21 27
-173.324 -346.198 -1270 22 21 28
-170.56 -345.86 -1269 23 22 29
-167.935 -345.797 -1269 26 25 32
-165.311 -345.734 -1269 26 25 32
-162.432 -345.127 -1267 24 23 30
-159.814 -345.067 -1267 20 19 26
-157.075 -344.735 -1266 18 17 24
-154.584 -344.949 -1267 17 16 23
-152.091 -345.163 -1268 16 15 22
-150.067 -346.467 -1273 15 14 21
-148.486 -348.86 -1282 14 13 20
-147.097 -351.798 -1293 11 10 17
-145.441 -354.191 -1302 9 8 15
-143.201 -355.225 -1306 7 6 13
-140.408 -354.9 -1305 9 8 16
-137.303 -353.76 -1301 13 12 20
-134.009 -352.078 -1295 16 15 22
-130.74 -350.397 -1289 20 19 26
-127.597 -348.99 -1284 23 22 29
-124.67 -348.127 -1281 25 24 32
-121.947 -347.809 -1280 26 25 32
-119.136 -347.221 -1278 26 25 32
-116.699 -347.72 -1280 24 23 30
-113.898 -347.133 -1278 22 21 28
-111.368 -347.363 -1279 21 20 28
-108.664 -347.05 -1278 22 21 30
-106.048 -347.01 -1278 22 21 31
-103.352 -346.699 -1277 21 20 28
-100.662 -346.39 -1276 19 18 26
-97.9757 -346.081 -1275 19 18 25
-95.3696 -346.045 -1275 20 19 26
-92.837 -346.281 -1276 19 18 25
-90.3718 -346.79 -1278 20 19 26
-87.8992 -347.299 -1280 19 18 25
-85.4859 -348.081 -1283 18 17 25
-82.8672 -348.049 -1283 15 15 20
-80.3118 -348.29 -1284 16 16 21
-77.7529 -348.532 -1285 17 17 21
-75.1907 -348.775 -1286 14 15 19
-72.625 -349.018 -1287 13 15 19
-70.0558 -349.263 -1288 15 17 21
-67.5355 -349.779 -1290 16 18 22
-64.9573 -350.026 -1291 17 19 23
-62.3756 -350.273 -1292 18 20 24
-59.6978 -349.979 -1291 20 21 26
-57.1573 -350.5 -1293 22 21 28
-54.5669 -350.75 -1294 24 26 33
-51.9728 -351.001 -1295 23 25 32
-49.3371 -350.982 -1295 22 24 31
-46.7739 -351.506 -1297 19 21 28
-44.1688 -351.76 -1298 17 19 25
-41.5283 -351.745 -1298 16 19 26
-38.9478 -352.271 -1300 16 18 25
-36.4713 -353.883 -1306 14 16 23
-33.9189 -354.954 -1310 11 13 20
-31.3266 -355.755 -1313 10 12 19
-28.7225 -356.556 -1316 11 13 20
-26.0865 -357.088 -1318 10 12 19
-23.3895 -356.808 -1317 13 15 22
-20.7123 -356.8 -1317 13 15 22
-18.0216 -356.522 -1316 13 14 24
-15.3469 -356.515 -1316 15 16 26
-12.6722 -356.51 -1316 14 15 25
-10.0204 -357.319 -1319 12 13 23
-7.35663 -358.128 -1322 12 13 23
-4.68761 -359.48 -1327 15 14 22
-2.00148 -361.376 -1334 13 13 21
0.71432 -363.813 -1343 9 11 18
3.47936 -367.607 -1357 10 9 17
6.26932 -369.505 -1364 12 11 19
9.1075 -372.217 -1374 12 11 19
11.9086 -372.491 -1375 12 11 21
14.7458 -373.58 -1379 12 11 21
17.5613 -373.857 -1380 11 10 18
20.3811 -374.135 -1381 11 10 19
23.2051 -374.414 -1382 13 12 22
26.0519 -374.965 -1384 15 14 25
28.8866 -375.246 -1385 12 11 21
31.7483 -375.8 -1387 11 10 18
34.6433 -376.625 -1390 11 10 18
37.5508 -377.451 -1393 12 11 19
40.6158 -379.634 -1401 14 13 21
-348.477 -375.198 -1344 28 27 35
-341.445 -370.597 -1328 28 27 35
-336.524 -368.232 -1320 27 26 34
-332.905 -367.265 -1317 25 24 31
-329.803 -366.856 -1316 24 23 30
-326.709 -366.449 -1315 23 22 29
-323.622 -366.044 -1314 21 20 27
-320.786 -365.918 -1314 22 21 28
-317.953 -365.793 -1314 23 22 29
-314.644 -365.113 -1312 24 23 30
-311.583 -364.713 -1311 22 21 28
-308.53 -364.314 -1310 22 21 28
-305.25 -363.639 -1308 23 24 33
-302.213 -363.243 -1307 22 23 32
-298.954 -362.57 -1305 20 22 29
-296.387 -362.732 -1306 20 22 29
-293.593 -362.618 -1306 23 25 32
-290.802 -362.505 -1306 21 23 30
-287.573 -361.838 -1304 19 21 28
-285.01 -362.004 -1305 19 21 28
-281.796 -361.34 -1303 18 20 27
-278.808 -360.954 -1302 19 21 28
-275.402 -360.015 -1299 19 21 28
-272.431 -359.632 -1298 20 22 29
-269.259 -358.974 -1296 21 23 30
-266.099 -358.316 -1294 20 22 29
-262.541 -357.107 -1290 19 21 27
-259.205 -356.176 -1287 19 21 27
-256.282 -355.8 -1286 21 23 29
-253.168 -355.149 -1284 22 24 30
-249.87 -354.222 -1281 20 22 28
-246.394 -353.02 -1277 21 23 29
-242.937 -351.821 -1273 20 22 28
-239.311 -350.347 -1268 19 21 27
-235.894 -349.15 -1264 19 21 27
-232.865 -348.508 -1262 19 21 27
-230.211 -348.419 -1262 17 19 25
-227.74 -348.607 -1263 14 16 23
-225.088 -348.52 -1263 16 18 25
-222.791 -348.986 -1265 18 19 25
-220.313 -349.177 -1266 17 18 25
-217.832 -349.369 -1267 17 17 25
-215.519 -349.837 -1269 18 17 24
-213.033 -350.031 -1270 21 20 27
-210.378 -349.95 -1270 20 19 26
-207.724 -349.87 -1270 21 20 27
-205.073 -349.791 -1270 22 21 28
-202.105 -349.163 -1268 22 21 28
-199.776 -349.637 -1270 22 21 28
-197.13 -349.561 -1270 20 19 26
-194.486 -349.487 -1270 19 18 24
-191.541 -348.863 -1268 19 18 25
-188.904 -348.79 -1268 21 20 27
-186.269 -348.719 -1268 24 23 30
-183.78 -348.923 -1269 24 23 30
-181.146 -348.854 -1269 23 24 30
-178.654 -349.06 -1270 22 24 30
-176.021 -348.993 -1270 23 25 31
-173.253 -348.651 -1269 23 23 30
-170.49 -348.311 -1268 24 24 30
-167.866 -348.247 -1268 23 24 30
-165.373 -348.458 -1269 25 24 31
-162.621 -348.122 -1268 23 22 29
-160.001 -348.061 -1268 21 20 27
-157.382 -348 -1268 19 18 25
-154.643 -347.667 -1267 16 15 22
-152.149 -347.883 -1268 17 16 23
-150.005 -348.923 -1272 17 16 23
-148.426 -351.335 -1281 14 13 20
-147.153 -354.57 -1293 10 10 16
-145.72 -357.531 -1304 9 9 15
-143.474 -358.573 -1308 8 7 14
-140.783 -358.519 -1308 9 8 16
-137.566 -357.096 -1303 13 12 20
-134.163 -355.126 -1296 17 16 23
-130.688 -352.884 -1288 20 20 27
-127.546 -351.466 -1283 22 22 29
-124.523 -350.322 -1279 24 23 31
-122.089 -350.823 -1281 26 26 33
-119.181 -349.956 -1278 28 29 35
-116.743 -350.459 -1280 27 28 34
-113.941 -349.868 -1278 22 23 29
-111.409 -350.099 -1279 20 19 27
-108.62 -349.511 -1277 20 20 29
-106.005 -349.47 -1277 19 19 29
-103.229 -348.883 -1275 19 18 26
-100.62 -348.845 -1275 20 20 27
-98.0125 -348.807 -1275 19 20 26
-95.4054 -348.771 -1275 19 18 24
-92.8718 -349.009 -1276 21 21 27
-90.4764 -349.795 -1279 18 19 25
-88.0009 -350.308 -1281 15 16 22
-85.4512 -350.549 -1282 16 17 23
-82.9629 -351.064 -1284 15 16 20
-80.4044 -351.307 -1285 16 16 20
-77.7821 -351.277 -1285 16 17 21
-75.2774 -351.795 -1287 13 15 19
-72.7651 -352.314 -1289 13 15 19
-70.1908 -352.56 -1290 13 15 19
-67.5608 -352.535 -1290 15 17 21
-64.9816 -352.783 -1291 19 21 25
-62.4472 -353.305 -1293 19 21 25
-59.7664 -353.009 -1292 19 20 26
-57.2229 -353.534 -1294 21 22 28
-54.6295 -353.786 -1295 23 25 32
-51.9923 -353.766 -1295 22 24 31
-49.3174 -353.474 -1294 22 24 31
-46.7553 -354.002 -1296 17 19 25
-44.1173 -353.985 -1296 16 18 24
-41.5117 -354.242 -1297 13 16 23
-38.9324 -354.773 -1299 14 16 23
-36.457 -356.397 -1305 12 14 21
-33.9057 -357.477 -1309 9 11 18
-31.3145 -358.284 -1312 10 12 19
-28.7114 -359.092 -1315 10 12 19
-26.0567 -359.354 -1316 9 11 18
-23.3804 -359.345 -1316 12 14 21
-20.7043 -359.337 -1316 13 15 22
-18.0283 -359.33 -1316 12 14 22
-15.3642 -359.597 -1317 13 15 23
-12.6865 -359.591 -1317 12 13 23
-10.0241 -360.133 -1319 11 12 22
-7.36486 -361.222 -1323 12 13 23
-4.68936 -362.312 -1327 14 15 23
-2.00665 -365.041 -1337 12 13 20
0.717778 -368.317 -1349 9 11 18
3.48587 -371.048 -1359 10 11 18
6.26706 -372.142 -1363 11 11 19
9.09108 -374.329 -1371 10 10 18
11.9044 -375.152 -1374 9 10 18
14.7407 -376.25 -1378 10 11 19
17.5552 -376.529 -1379 13 12 20
20.374 -376.809 -1380 13 12 21
23.1969 -377.09 -1381 13 12 21
