ply
format ascii 1.0
comment Created by Open3D
element vertex 1384
property double x
property double y
property double z
property uchar red
property uchar green
property uchar blue
end_header
-38.6436 70.7601 -1162 144 140 161
-36.3647 70.818 -1163 151 147 168
-34.0235 70.7542 -1162 157 153 173
-31.7685 70.8733 -1164 158 154 173
-29.4804 70.9316 -1165 157 151 171
-27.1886 70.9902 -1166 153 147 167
-24.8717 70.9881 -1166 153 147 167
-22.555 70.9862 -1166 158 153 170
-20.2038 70.8627 -1164 157 152 167
-17.8761 70.8002 -1163 155 147 167
-15.5658 70.7988 -1163 157 150 170
-13.2443 70.7368 -1162 161 155 175
-10.9457 70.7967 -1163 160 154 175
-8.65801 70.9785 -1166 156 150 172
-6.34764 71.0388 -1167 148 146 172
-4.03681 71.1601 -1169 144 141 167
-1.72246 71.4642 -1174 143 138 165
0.610699 71.6468 -1177 144 141 167
2.95327 71.7687 -1179 144 142 168
5.30831 71.9517 -1182 142 142 168
7.68825 72.2565 -1187 146 145 172
10.0543 72.3182 -1188 148 145 174
12.4452 72.5017 -1191 145 144 170
14.8358 72.6246 -1193 145 143 169
17.2344 72.7477 -1195 142 140 166
19.6575 72.9318 -1198 138 138 162
22.0928 73.1162 -1201 132 132 156
24.5809 73.4225 -1206 130 130 154
27.0219 73.5463 -1208 130 130 154
29.5928 73.9748 -1215 130 130 154
32.0601 74.0992 -1217 128 128 152
34.7056 74.589 -1225 127 127 151
37.2619 74.8355 -1229 126 126 150
39.8989 75.204 -1235 124 124 148
42.4575 75.3901 -1238 124 124 149
45.0644 75.6373 -1242 124 124 148
47.7259 75.9455 -1247 123 123 147
50.3674 76.1932 -1251 123 125 146
53.0252 76.4411 -1255 124 126 147
55.8764 76.9328 -1263 123 125 145
59.0834 77.8513 -1278 123 125 145
-212.415 78.9862 -1330 220 218 227
-204.03 76.8317 -1294 218 215 223
-197.66 75.3907 -1270 214 212 220
-193.387 74.722 -1259 210 209 217
-189.16 74.0539 -1248 206 203 211
-186.176 73.8608 -1245 194 191 199
-182.911 73.5494 -1240 188 185 193
-179.958 73.3569 -1237 187 184 191
-177.019 73.1646 -1234 184 180 185
-174.235 73.032 -1232 184 180 185
-171.6 72.9589 -1231 187 183 188
-168.421 72.6489 -1226 188 183 191
-165.669 72.517 -1224 187 182 190
-162.661 72.2669 -1220 190 185 193
-159.932 72.1355 -1218 195 190 198
-157.084 71.9451 -1215 197 192 200
-154.249 71.7551 -1212 197 192 201
-151.051 71.3877 -1206 199 194 202
-147.386 70.7839 -1196 203 198 206
-143.157 69.8846 -1181 216 211 219
-138.989 68.9857 -1166 221 216 224
-135.469 68.3832 -1156 216 212 217
-132.451 68.0176 -1150 212 208 213
-129.797 67.8297 -1147 208 204 209
-127.49 67.8194 -1147 204 200 205
-125.075 67.7502 -1146 201 197 202
-122.665 67.6812 -1145 201 197 202
-120.26 67.6125 -1144 202 198 203
-118.067 67.662 -1145 200 196 201
-115.668 67.5937 -1144 196 191 199
-113.175 67.4663 -1142 193 188 196
-110.69 67.3393 -1140 190 186 191
-108.405 67.3306 -1140 191 187 192
-106.028 67.263 -1139 189 185 190
-103.655 67.1956 -1138 189 185 190
-101.377 67.1874 -1138 191 187 192
-99.0991 67.1795 -1138 191 187 192
-96.7371 67.1126 -1137 191 186 192
-94.463 67.105 -1137 192 185 191
-92.1085 67.0386 -1136 189 184 192
-89.917 67.0904 -1137 183 178 186
-87.6451 67.0834 -1137 178 173 182
-85.449 67.1355 -1138 179 172 184
-83.2496 67.1878 -1139 180 172 186
-80.9757 67.1813 -1139 178 171 182
-78.7716 67.2339 -1140 173 166 178
-76.4971 67.2277 -1140 170 162 178
-74.3534 67.3397 -1142 169 161 177
-72.1392 67.3928 -1143 164 156 172
-69.9216 67.4462 -1144 159 152 170
-67.6414 67.4408 -1144 159 152 171
-65.4189 67.4944 -1145 163 157 177
-63.1379 67.4893 -1145 171 166 184
-60.8041 67.4255 -1144 169 164 182
-58.526 67.4207 -1144 157 151 173
-56.3467 67.5341 -1146 155 150 171
-54.1127 67.5886 -1147 155 151 172
-52.0107 67.8201 -1151 155 151 172
-49.8501 67.9928 -1154 156 152 173
-47.719 68.2247 -1158 155 151 172
-45.4941 68.3387 -1160 154 150 171
-43.2615 68.4531 -1162 151 147 168
-40.9509 68.4498 -1162 146 142 163
-38.6737 68.5055 -1163 144 140 161
-36.3618 68.5025 -1163 151 147 168
-34.0501 68.4998 -1163 157 153 173
-31.7932 68.615 -1165 158 154 173
-29.5034 68.6715 -1166 160 154 174
-27.2097 68.7281 -1167 160 154 174
-24.8697 68.6671 -1166 161 155 175
-22.5726 68.7241 -1167 161 155 172
-20.2196 68.6047 -1165 158 153 168
-17.8746 68.4854 -1163 159 151 170
-15.5512 68.4252 -1162 161 153 172
-13.2547 68.483 -1163 163 155 175
-10.9448 68.482 -1163 161 154 176
-8.6499 68.599 -1165 158 152 174
-6.34714 68.7162 -1167 150 148 174
-4.03649 68.8335 -1169 145 141 168
-1.72232 69.1277 -1174 146 141 168
0.610646 69.3043 -1177 148 146 172
2.95303 69.4223 -1179 147 146 172
5.30788 69.5992 -1182 146 146 172
7.67468 69.7764 -1185 149 147 175
10.045 69.8949 -1187 150 147 176
12.4338 70.0724 -1190 146 144 170
14.8222 70.1912 -1192 145 143 169
17.233 70.3692 -1195 141 139 165
19.6723 70.6062 -1199 137 136 161
22.1278 70.8434 -1203 131 131 155
24.6197 71.1397 -1208 130 130 154
27.0868 71.3184 -1211 128 128 152
29.5904 71.5563 -1215 128 128 152
32.1629 71.9121 -1221 125 125 149
34.7594 72.2681 -1227 124 124 148
37.3195 72.5065 -1231 125 125 149
39.9604 72.863 -1237 123 123 148
42.4539 72.9252 -1238 124 124 150
45.0245 73.1054 -1241 125 125 149
47.6073 73.2857 -1244 126 127 150
50.3231 73.6431 -1250 127 129 150
53.0632 74.0007 -1256 126 128 148
55.8718 74.4174 -1263 125 127 147
59.1711 75.4237 -1280 122 124 145
-205.748 74.8664 -1305 213 210 219
-198.112 73.0151 -1273 208 206 215
-193.525 72.2543 -1260 203 202 211
-189.145 71.5513 -1248 197 195 204
-186.311 71.4221 -1246 188 186 194
-182.896 71.0639 -1240 186 183 191
-179.944 70.8779 -1237 186 182 189
-177.292 70.8068 -1236 182 178 183
-174.504 70.6786 -1234 183 179 184
-171.865 70.6079 -1233 186 182 187
-168.957 70.4229 -1230 185 180 188
-166.062 70.2382 -1227 184 179 187
-163.181 70.0537 -1224 191 186 194
-160.445 69.9268 -1222 197 192 200
-157.459 69.6855 -1218 199 194 202
-154.618 69.5019 -1215 200 195 204
-151.29 69.0896 -1208 200 195 204
-147.375 68.3918 -1196 203 198 207
-142.903 67.4086 -1179 216 211 219
-138.502 66.4258 -1162 219 214 222
-135.224 65.958 -1154 218 214 219
-132.325 65.662 -1149 215 211 216
-129.674 65.4804 -1146 210 206 211
-127.369 65.4705 -1146 205 201 206
-124.956 65.4037 -1145 202 198 203
-122.549 65.337 -1144 202 198 203
-120.251 65.3277 -1144 201 197 202
-118.057 65.3756 -1145 199 195 200
-115.659 65.3095 -1144 197 192 200
-113.166 65.1865 -1142 194 189 197
-110.779 65.1208 -1141 191 187 192
-108.397 65.0553 -1140 189 185 190
-106.02 64.99 -1139 185 181 186
-103.647 64.9249 -1138 185 181 186
-101.458 64.974 -1139 187 183 188
-99.0043 64.8523 -1137 187 183 188
-96.7296 64.8447 -1137 188 182 188
-94.3726 64.7804 -1136 190 183 190
-92.1014 64.7732 -1136 186 181 189
-89.91 64.8233 -1137 179 174 182
-87.7153 64.8735 -1138 173 168 177
-85.4423 64.8668 -1138 176 169 181
-83.2431 64.9173 -1139 181 173 187
-80.9694 64.9111 -1139 177 169 181
-78.7655 64.9619 -1140 170 162 175
-76.4911 64.956 -1140 166 158 174
-74.3476 65.0641 -1142 166 158 174
-72.0704 65.0585 -1142 163 155 171
-69.855 65.11 -1143 160 152 169
-67.577 65.1048 -1143 161 154 172
-65.4138 65.2136 -1145 166 160 180
-63.0778 65.1517 -1144 169 164 181
-60.7993 65.147 -1144 165 160 177
-58.6238 65.2563 -1146 160 154 176
-56.3915 65.3089 -1147 157 152 174
-54.1556 65.3616 -1148 154 150 171
-52.0971 65.6422 -1153 154 150 171
-49.9757 65.866 -1157 158 154 175
-47.839 66.0899 -1161 158 154 175
-45.6082 66.2002 -1163 155 151 172
-43.3326 66.2538 -1164 151 147 168
-41.0182 66.2505 -1164 149 145 166
-38.704 66.2475 -1164 151 147 168
-36.3589 66.1877 -1163 154 150 171
-34.0182 66.1281 -1162 157 151 172
-31.7907 66.2963 -1165 156 150 170
-29.4757 66.294 -1165 158 152 172
-27.2076 66.4056 -1167 160 154 174
-24.8678 66.3467 -1166 159 153 173
-22.5708 66.4018 -1167 159 154 171
-20.218 66.2864 -1165 159 154 169
-17.8886 66.2281 -1164 162 154 172
-15.5634 66.1698 -1163 162 154 173
-13.265 66.2256 -1164 161 153 173
-10.9533 66.2247 -1164 157 150 172
-8.64923 66.2809 -1165 153 147 169
-6.35209 66.451 -1168 147 145 171
-4.03963 66.5644 -1170 146 143 170
-1.72366 66.8486 -1175 147 142 169
0.611114 67.0193 -1178 149 146 172
2.95531 67.1332 -1180 147 145 171
5.31195 67.3042 -1183 144 144 170
7.67408 67.4185 -1185 147 146 173
10.0358 67.476 -1186 151 148 177
12.4119 67.5907 -1188 150 148 174
14.7961 67.7055 -1190 147 145 171
17.2028 67.8775 -1193 139 137 163
19.6544 68.1634 -1198 135 135 159
22.0892 68.3357 -1201 133 133 157
24.5566 68.565 -1205 130 130 154
27.0623 68.8515 -1210 126 126 150
29.5638 69.0813 -1214 125 125 149
32.1077 69.3682 -1219 125 125 149
34.7284 69.7691 -1226 125 125 149
37.3469 70.1133 -1232 125 125 149
39.925 70.3439 -1236 123 123 148
42.4506 70.4609 -1238 122 122 148
45.0572 70.6919 -1242 122 122 146
47.6418 70.8662 -1245 125 126 149
50.3594 71.2115 -1251 127 129 150
53.1013 71.557 -1257 125 127 147
56.0002 72.0736 -1266 123 125 145
59.0741 72.7611 -1278 122 124 144
-205.417 72.1378 -1303 210 207 217
-198.096 70.462 -1273 205 203 213
-194.279 70.0045 -1265 200 199 208
-190.343 69.492 -1256 192 191 199
-187.044 69.2013 -1251 186 185 193
-183.915 68.9662 -1247 186 183 191
-180.948 68.7866 -1244 185 181 188
-177.852 68.552 -1240 181 177 182
-175.056 68.4283 -1238 181 177 182
-172.27 68.3047 -1236 182 178 183
-169.219 68.0709 -1232 182 177 185
-166.32 67.8927 -1229 182 177 185
-163.302 67.6594 -1225 191 186 194
-160.433 67.4817 -1222 198 193 201
-157.447 67.2489 -1218 199 194 202
-154.352 66.9613 -1213 200 195 204
-151.028 66.5635 -1206 200 195 204
-147.117 65.8901 -1194 205 200 209
-142.771 64.9964 -1178 215 210 218
-138.253 63.9928 -1160 217 212 220
-134.979 63.5414 -1152 216 212 217
-132.315 63.3659 -1149 213 209 214
-129.664 63.1908 -1146 209 205 210
-127.36 63.1813 -1146 205 201 206
-125.056 63.1718 -1146 203 199 204
-122.646 63.1075 -1145 203 199 204
-120.242 63.0434 -1144 203 199 204
-117.945 63.0346 -1144 203 199 204
-115.549 62.9708 -1143 202 197 205
-113.157 62.9072 -1142 199 194 202
-110.673 62.7887 -1140 198 194 199
-108.389 62.7805 -1140 195 191 196
-106.012 62.7176 -1139 190 186 191
-103.731 62.7098 -1139 187 183 188
-101.45 62.7021 -1139 186 182 187
-99.171 62.6947 -1139 185 181 186
-96.7223 62.5774 -1137 187 181 188
-94.4485 62.5703 -1137 188 181 189
-92.1755 62.5634 -1137 184 179 187
-89.8241 62.5016 -1136 183 178 186
-87.6317 62.55 -1137 184 179 188
-85.4359 62.5987 -1138 185 178 190
-83.1637 62.5924 -1138 184 176 190
-80.9633 62.6413 -1139 179 171 185
-78.8286 62.7454 -1141 173 165 180
-76.4854 62.6847 -1140 168 160 176
-74.342 62.7891 -1142 164 156 172
-72.1282 62.8387 -1143 161 153 169
-69.7886 62.7784 -1142 164 156 172
-67.5719 62.8284 -1143 168 161 177
-65.4089 62.9334 -1145 169 164 181
-63.0731 62.8737 -1144 169 164 181
-60.848 62.924 -1145 168 163 180
-58.6705 63.0295 -1147 167 161 183
-56.4855 63.1352 -1149 160 154 176
-54.246 63.1861 -1150 154 150 171
-52.1835 63.4568 -1155 154 150 171
-50.0584 63.6728 -1159 158 154 175
-47.8766 63.834 -1162 159 155 176
-45.6832 63.9953 -1165 155 151 172
-43.4038 64.047 -1166 152 148 169
-41.0503 63.9889 -1165 153 149 170
-38.7011 63.9311 -1164 154 150 171
-36.3875 63.9283 -1164 154 149 172
-34.0449 63.8708 -1163 156 151 172
-31.7883 63.9782 -1165 156 150 170
-29.4735 63.976 -1165 157 151 171
-27.1823 64.0288 -1166 159 153 172
-24.8446 63.9719 -1165 159 154 171
-22.5498 64.0251 -1166 160 154 171
-20.1991 63.9137 -1164 161 156 171
-17.8873 63.9123 -1164 163 155 173
-15.5622 63.8562 -1163 161 153 172
-13.264 63.91 -1164 159 151 171
-10.9525 63.9091 -1164 155 148 170
-8.64859 63.9633 -1165 153 147 169
-6.35706 64.1824 -1169 147 145 171
-4.04279 64.2918 -1171 148 144 171
-1.72354 64.5112 -1175 147 142 169
0.611065 64.6759 -1178 146 143 169
2.95759 64.8407 -1181 145 143 169
5.31155 64.9508 -1183 143 143 170
7.66703 65.0062 -1184 146 144 173
10.035 65.1167 -1186 149 146 175
12.411 65.2273 -1188 149 147 173
14.8075 65.3931 -1191 147 145 171
17.216 65.559 -1194 141 137 164
19.6693 65.8348 -1199 137 135 160
22.1243 66.056 -1203 134 133 157
24.575 66.2225 -1206 131 131 155
27.0825 66.4989 -1211 128 128 152
29.6103 66.7756 -1216 124 124 148
32.1053 66.9427 -1219 124 124 148
34.6975 67.2746 -1225 125 125 149
37.3138 67.6068 -1231 125 125 149
39.8897 67.8293 -1235 125 125 150
42.3789 67.8873 -1236 124 124 150
44.9812 68.1102 -1240 124 124 148
47.5616 68.2784 -1243 125 125 149
50.2752 68.6116 -1249 126 127 148
53.0128 68.9451 -1255 125 127 148
55.9075 69.4435 -1264 126 128 149
59.2082 70.3818 -1281 121 123 144
62.6736 71.4303 -1300 120 122 143
-209.185 70.8052 -1327 206 203 213
-199.793 68.4962 -1284 200 198 208
-194.879 67.6819 -1269 195 194 203
-190.632 67.0813 -1258 189 188 196
-187.18 66.7477 -1252 187 186 194
-183.901 66.4678 -1247 187 184 192
-180.935 66.2948 -1244 184 180 187
-177.839 66.0687 -1240 180 176 181
-175.185 66.0027 -1239 180 175 182
-172.397 65.8836 -1237 180 175 183
-169.618 65.7648 -1235 179 174 182
-166.579 65.5397 -1231 180 175 183
-163.557 65.3149 -1227 191 186 194
-160.815 65.1967 -1225 195 190 198
-157.565 64.866 -1219 196 191 199
-154.468 64.5888 -1214 201 196 205
-150.892 64.099 -1205 203 198 207
-146.737 63.3436 -1191 208 203 212
-142.276 62.4292 -1174 216 211 219
-138.362 61.7278 -1161 216 211 219
-134.852 61.1864 -1151 212 208 214
-132.19 61.0174 -1148 208 204 210
-129.768 60.9548 -1147 204 200 205
-127.461 60.9456 -1147 201 197 202
-125.156 60.9365 -1147 201 197 202
-122.745 60.8746 -1146 201 197 202
-120.443 60.8658 -1146 201 197 202
-118.04 60.8042 -1145 202 198 203
-115.641 60.7427 -1144 204 200 205
-113.149 60.6283 -1142 202 198 204
-110.665 60.5141 -1140 200 196 200
-108.381 60.5063 -1140 198 194 199
-106.19 60.5518 -1141 196 192 197
-103.814 60.4912 -1140 192 188 193
-101.621 60.5369 -1141 191 187 192
-99.3379 60.5297 -1141 189 185 191
-96.8853 60.4166 -1139 187 182 188
-94.5247 60.3568 -1138 187 181 188
-92.2498 60.35 -1138 189 184 192
-89.8967 60.2905 -1137 188 183 191
-87.7024 60.3372 -1138 186 180 189
-85.4297 60.331 -1138 184 176 188
-83.1577 60.325 -1138 181 173 187
-80.9574 60.3722 -1139 177 169 183
-78.823 60.4725 -1141 171 163 178
-76.4127 60.3609 -1139 166 158 174
-74.2715 60.4616 -1141 163 155 171
-72.1229 60.5623 -1143 166 158 174
-69.7836 60.5043 -1142 172 164 181
-67.567 60.5524 -1143 174 167 184
-65.4042 60.6536 -1145 170 165 182
-63.1236 60.649 -1145 162 158 177
-60.9498 60.7505 -1147 158 154 173
-58.7174 60.7992 -1148 153 147 169
-56.5798 60.954 -1151 151 146 168
-54.3835 61.056 -1153 152 147 169
-52.2701 61.264 -1157 152 148 169
-50.1411 61.4721 -1161 154 151 172
-47.9555 61.6275 -1164 153 149 170
-45.7191 61.7301 -1166 152 148 169
-43.4378 61.7799 -1167 152 148 169
-41.0826 61.7239 -1166 153 149 170
-38.7316 61.6681 -1165 154 150 171
-36.4161 61.6655 -1165 156 151 174
-34.0716 61.61 -1164 158 153 175
-31.786 61.6606 -1165 159 153 174
-29.4714 61.6584 -1165 154 148 168
-27.157 61.6564 -1165 157 151 170
-24.8215 61.6016 -1164 161 156 172
-22.5288 61.6529 -1165 168 161 176
-20.1977 61.5985 -1164 174 167 181
-17.886 61.5971 -1164 170 161 178
-15.5744 61.5959 -1164 166 158 175
-13.2858 61.7007 -1166 159 152 172
-10.9706 61.6999 -1166 159 153 174
-8.66281 61.7521 -1167 154 149 171
-6.36748 61.9632 -1171 150 148 174
-4.0494 62.0686 -1173 146 144 170
-1.72635 62.2802 -1177 145 141 168
0.612055 62.4389 -1180 144 142 168
2.95987 62.5448 -1182 144 143 169
5.30668 62.5451 -1182 144 144 171
7.66 62.5985 -1183 148 146 174
10.0343 62.7579 -1186 150 147 176
12.4101 62.8645 -1188 149 146 173
14.794 62.9713 -1190 148 145 172
17.2147 63.1841 -1194 144 140 167
19.6515 63.3971 -1198 141 138 163
22.0859 63.5573 -1201 138 136 160
24.5732 63.8236 -1206 136 136 160
27.0359 63.9842 -1209 133 133 157
29.5594 64.2508 -1214 126 126 150
32.103 64.5176 -1219 124 124 148
34.7233 64.8905 -1226 125 125 149
37.3111 65.1578 -1231 125 125 149
39.8868 65.3722 -1235 125 125 150
42.4101 65.481 -1237 124 124 150
45.0143 65.6959 -1241 124 124 148
47.5964 65.858 -1244 123 124 147
50.2313 66.0733 -1248 123 124 145
52.9668 66.3946 -1254 123 125 146
55.9035 66.9279 -1264 124 126 147
58.8804 67.4616 -1274 123 125 145
62.5725 68.7368 -1298 121 123 143
-209.8 68.3497 -1331 199 198 208
-200.713 66.2302 -1290 196 195 204
-195.018 65.1898 -1270 194 192 201
-191.225 64.7658 -1262 189 188 196
-187.914 64.496 -1257 186 185 194
-184.626 64.2265 -1252 190 187 195
-181.795 64.1112 -1250 189 185 192
-178.544 63.8423 -1245 185 180 186
-175.597 63.6762 -1242 182 176 183
-172.524 63.459 -1238 183 177 184
-169.744 63.3447 -1236 177 172 180
-166.567 63.0768 -1231 183 178 186
-163.812 62.9629 -1229 192 187 195
-160.803 62.7467 -1225 195 190 198
-157.683 62.4796 -1220 195 190 198
-154.584 62.2128 -1215 199 194 203
-150.881 61.6902 -1205 201 196 204
-146.727 60.9633 -1191 210 205 213
-142.145 60.032 -1173 217 212 220
-137.995 59.2547 -1158 215 210 218
-134.843 58.8871 -1151 212 207 215
-132.181 58.7244 -1148 208 204 210
-129.759 58.6642 -1147 204 200 205
-127.452 58.6554 -1147 201 197 202
-125.147 58.6466 -1147 198 194 199
-122.736 58.587 -1146 198 194 199
-120.435 58.5786 -1146 198 194 199
-118.032 58.5193 -1145 199 195 200
-115.532 58.409 -1143 201 197 202
-113.141 58.35 -1142 199 195 200
-110.755 58.2912 -1141 197 193 196
-108.373 58.2326 -1140 195 191 196
-106.182 58.2763 -1141 195 191 196
-103.898 58.269 -1141 193 189 194
-101.614 58.262 -1141 191 186 192
-99.3309 58.2551 -1141 189 184 192
-96.8786 58.1462 -1139 188 184 190
-94.5181 58.0886 -1138 189 185 190
-92.2434 58.0822 -1138 189 184 192
-89.8904 58.0249 -1137 187 181 190
-87.6192 58.0188 -1137 187 180 189
-85.3486 58.0129 -1137 182 175 187
-83.1518 58.0581 -1138 175 167 181
-80.9517 58.1035 -1139 169 161 175
-78.7484 58.149 -1140 167 159 173
-76.4745 58.1437 -1140 165 157 173
-74.3314 58.2405 -1142 164 156 172
-72.0547 58.2355 -1142 168 160 176
-69.7787 58.2307 -1142 175 167 185
-67.6214 58.3279 -1144 176 169 187
-65.3996 58.3743 -1145 169 164 181
-63.1743 58.4209 -1146 159 155 175
-60.9987 58.5186 -1148 154 150 171
-58.8156 58.6164 -1150 153 147 169
-56.5758 58.6635 -1151 151 145 167
-54.3797 58.7616 -1153 150 144 166
-52.3116 59.0127 -1158 148 145 167
-50.1376 59.1621 -1161 150 148 170
-47.9522 59.3116 -1164 152 148 169
-45.7551 59.4613 -1167 151 147 168
-43.4721 59.5092 -1168 153 149 170
-41.1502 59.5063 -1168 151 147 168
-38.7954 59.4526 -1167 153 149 170
-36.4449 59.3991 -1166 157 152 175
-34.0985 59.3457 -1165 158 152 175
-31.8111 59.3944 -1166 161 155 178
-29.4693 59.3414 -1165 158 152 172
-27.1551 59.3395 -1165 158 152 171
-24.8411 59.3377 -1165 163 158 172
-22.5079 59.2852 -1164 186 179 191
-20.1789 59.2328 -1163 197 188 200
-17.8693 59.2314 -1163 187 178 192
-15.56 59.2302 -1163 177 170 185
-13.2735 59.3312 -1165 161 157 174
-10.9698 59.3813 -1166 160 155 176
-8.65479 59.3806 -1166 156 151 174
-6.36704 59.6347 -1171 150 148 174
-4.05258 59.7871 -1174 142 141 167
-1.72477 59.8888 -1176 141 141 167
0.61149 60.0415 -1179 144 143 169
2.95966 60.1944 -1182 145 143 169
5.3063 60.1947 -1182 147 145 171
7.65946 60.2461 -1183 150 148 175
10.0251 60.3486 -1185 151 148 177
12.3988 60.4512 -1187 149 146 175
14.7929 60.6049 -1190 147 144 172
17.1991 60.7588 -1193 142 139 166
19.6501 61.0147 -1198 138 135 161
22.0844 61.169 -1201 138 136 162
24.5512 61.3743 -1205 135 135 157
27.0563 61.6307 -1210 131 131 154
29.5816 61.8873 -1215 126 126 150
32.1271 62.1441 -1220 123 123 147
34.6926 62.4011 -1225 126 126 150
37.2782 62.6583 -1230 125 125 150
39.884 62.9157 -1235 124 124 149
42.3729 62.9694 -1236 124 124 150
45.0111 63.2271 -1241 125 125 149
47.5931 63.3832 -1244 125 125 148
50.1874 63.5393 -1247 123 124 145
52.8786 63.7977 -1252 124 126 147
55.7669 64.26 -1261 125 127 148
58.8301 64.8755 -1273 124 126 145
62.3272 65.899 -1293 122 124 144
-203.5 64.5328 -1308 196 194 204
-195.926 62.9408 -1276 194 192 201
-191.97 62.484 -1267 189 188 198
-187.902 61.9782 -1257 188 187 197
-185.055 61.8671 -1255 190 187 195
-181.928 61.6577 -1251 187 182 189
-178.818 61.4485 -1247 185 178 184
-175.585 61.1904 -1242 185 178 184
-172.652 61.031 -1239 186 179 185
-170.007 60.9703 -1238 185 180 188
-166.826 60.7128 -1233 192 187 195
-163.934 60.5541 -1230 197 192 200
-161.055 60.3957 -1227 199 194 202
-158.06 60.1882 -1223 199 194 202
-154.574 59.7841 -1215 199 194 202
-150.871 59.2819 -1205 201 196 204
-146.717 58.5833 -1191 213 208 216
-142.014 57.6392 -1172 218 213 221
-138.104 56.9906 -1159 213 208 216
-135.068 56.6866 -1153 211 207 213
-132.287 56.4811 -1149 208 204 209
-129.75 56.3741 -1147 206 202 207
-127.333 56.3164 -1146 203 199 204
-125.03 56.3081 -1146 201 197 202
-122.728 56.2999 -1146 202 198 203
-120.427 56.2918 -1146 203 199 204
-117.921 56.1857 -1144 203 199 204
-115.524 56.1288 -1143 203 199 205
-113.133 56.0721 -1142 202 198 203
-110.747 56.0156 -1141 197 193 198
-108.461 56.0084 -1141 194 190 195
-106.268 56.0504 -1142 193 189 194
-103.891 55.9944 -1141 189 185 190
-101.607 55.9875 -1141 189 184 190
-99.3242 55.9809 -1141 190 185 193
-96.872 55.8763 -1139 189 184 192
-94.5117 55.821 -1138 190 185 193
-92.1561 55.7658 -1137 188 183 191
-89.8843 55.7597 -1137 183 178 186
-87.6903 55.8029 -1138 182 175 184
-85.3429 55.7482 -1137 178 170 182
-83.0732 55.7426 -1137 172 164 178
-80.8753 55.7862 -1138 167 159 173
-78.674 55.83 -1139 164 156 171
-76.4023 55.8249 -1139 164 156 172
-74.2613 55.9179 -1141 164 156 172
-72.05 55.9621 -1142 169 161 177
-69.8351 56.0065 -1143 175 167 185
-67.6169 56.0509 -1144 174 167 185
-65.3952 56.0955 -1145 168 163 180
-63.1149 56.0913 -1145 163 159 178
-60.9414 56.1852 -1147 158 154 174
-58.8116 56.3281 -1150 154 148 170
-56.572 56.3734 -1151 150 144 166
-54.4232 56.5166 -1154 149 143 165
-52.3081 56.709 -1158 150 146 168
-50.1343 56.8525 -1161 152 148 171
-47.949 56.9962 -1164 152 148 169
-45.752 57.1401 -1167 150 146 167
-43.4692 57.1861 -1168 151 147 168
-41.1474 57.1833 -1168 152 148 169
-38.826 57.1807 -1168 152 148 169
-36.4736 57.1292 -1167 155 150 172
-34.1255 57.078 -1166 156 151 172
-31.809 57.0758 -1166 156 150 172
-29.4674 57.0249 -1165 156 150 171
-27.13 56.9741 -1164 159 153 173
-24.7968 56.9234 -1163 167 161 174
-22.487 56.9217 -1163 196 188 200
-20.1602 56.8715 -1162 209 201 211
-17.8528 56.8702 -1162 209 200 213
-15.5589 56.9181 -1163 199 192 206
-13.2612 56.9661 -1164 171 167 185
-10.9691 57.0632 -1166 160 155 178
-8.66164 57.1115 -1167 154 149 173
-6.36662 57.3067 -1171 148 146 172
-4.05576 57.5021 -1175 142 141 167
-1.72612 57.5998 -1177 140 140 166
0.611965 57.7466 -1180 144 143 169
2.96197 57.8936 -1183 145 143 169
5.31044 57.8938 -1183 148 146 172
7.65895 57.8942 -1183 151 149 177
10.0244 57.9927 -1185 151 148 177
12.398 58.0913 -1187 148 145 173
14.7919 58.239 -1190 147 144 171
17.1835 58.338 -1192 143 141 167
19.6488 58.6328 -1198 138 136 162
22.1013 58.83 -1202 139 137 163
24.5495 58.9783 -1205 135 135 158
27.0322 59.1758 -1209 130 130 153
29.5796 59.4714 -1215 127 127 151
32.0985 59.6693 -1219 127 127 151
34.662 59.9162 -1224 129 129 153
37.2757 60.2123 -1230 125 125 151
39.8814 60.4596 -1235 123 123 149
42.4729 60.6581 -1239 124 125 151
45.0444 60.8078 -1242 126 126 150
47.6282 60.9578 -1245 126 127 150
50.2243 61.1079 -1248 123 125 146
52.875 61.3072 -1252 122 124 145
55.6748 61.6536 -1259 123 125 146
58.6413 62.147 -1269 123 125 143
61.9374 62.9346 -1285 122 123 143
-205.975 62.6691 -1324 195 193 203
-197.449 60.8576 -1286 194 191 201
-192.109 59.9934 -1268 189 187 197
-188.786 59.7447 -1263 190 189 199
-185.633 59.5435 -1259 189 186 194
-182.352 59.2953 -1254 181 178 185
-179.237 59.0946 -1250 180 174 180
-175.997 58.8469 -1245 184 177 183
-172.78 58.5994 -1240 186 179 185
-169.996 58.494 -1238 191 186 194
-166.951 58.2942 -1234 199 194 202
-164.056 58.1419 -1231 202 197 205
-161.044 57.9426 -1227 201 196 204
-158.179 57.7908 -1224 203 198 206
-154.691 57.4031 -1216 202 197 205
-150.986 56.9214 -1206 204 199 207
-145.845 55.8736 -1184 216 211 219
-141.884 55.251 -1171 218 213 221
-138.215 54.7231 -1160 212 207 215
-135.294 54.4786 -1155 210 206 211
-132.509 54.2814 -1151 207 203 208
-129.968 54.1787 -1149 207 203 208
-127.547 54.1233 -1148 205 201 206
-125.24 54.1153 -1148 203 199 204
-122.934 54.1074 -1148 204 200 205
-120.524 54.0526 -1147 205 201 206
-118.016 53.9508 -1145 204 200 205
-115.719 53.9433 -1145 203 199 204
-113.225 53.8418 -1143 199 195 200
-110.74 53.7406 -1141 199 195 200
-108.549 53.7807 -1142 197 193 198
-106.262 53.7739 -1142 192 188 193
-103.975 53.7672 -1142 186 182 187
-101.69 53.7607 -1142 186 182 187
-99.4049 53.7543 -1142 189 184 192
-97.0359 53.701 -1141 190 185 193
-94.6717 53.6479 -1140 189 184 192
-92.3122 53.5949 -1139 185 180 188
-90.0366 53.5891 -1139 180 175 184
-87.7617 53.5835 -1139 179 172 181
-85.4875 53.578 -1139 175 167 179
-83.1409 53.5256 -1138 170 162 176
-80.9411 53.5674 -1139 166 158 172
-78.738 53.6095 -1140 162 154 169
-76.4644 53.6045 -1140 162 154 170
-74.3216 53.6938 -1142 165 157 173
-72.1084 53.7362 -1143 171 163 179
-69.8917 53.7787 -1144 176 168 186
-67.7307 53.8684 -1146 173 166 183
-65.5052 53.9112 -1147 167 162 179
-63.2211 53.9071 -1147 163 159 177
-61.0969 54.0441 -1150 157 153 172
-58.9101 54.1344 -1152 153 147 169
-56.6667 54.1777 -1153 150 144 166
-54.5612 54.3622 -1157 150 144 166
-52.3951 54.4997 -1160 151 146 169
-50.1742 54.5905 -1162 152 148 170
-47.9458 54.6813 -1164 153 149 170
-45.7491 54.8193 -1167 151 147 168
-43.4664 54.8634 -1168 149 145 166
-41.1448 54.8608 -1168 148 144 165
-38.8235 54.8583 -1168 148 144 165
-36.5025 54.8559 -1168 150 146 167
-34.1526 54.8067 -1167 153 148 169
-31.8069 54.7577 -1166 149 143 165
-29.4655 54.7087 -1165 150 144 166
-27.1283 54.66 -1164 163 156 176
-24.8165 54.6584 -1164 178 170 184
-22.4856 54.6099 -1163 203 196 207
-20.1762 54.6086 -1163 210 203 212
-17.8516 54.5604 -1162 207 200 211
-15.5579 54.6063 -1163 194 188 201
-13.2604 54.6524 -1164 166 162 181
-10.9684 54.7455 -1166 157 152 175
-8.66109 54.7919 -1167 154 149 174
-6.36621 54.9792 -1171 147 145 171
-4.05205 55.1197 -1174 143 142 168
-1.72455 55.2135 -1176 141 141 167
0.610886 55.3073 -1178 145 143 169
2.95927 55.4952 -1182 145 143 169
5.31009 55.5424 -1183 147 145 171
7.65845 55.5429 -1183 150 148 175
10.0323 55.6843 -1186 151 148 177
12.3972 55.7319 -1187 148 146 172
14.791 55.8737 -1190 146 144 170
17.1968 56.0155 -1193 145 143 169
19.6476 56.2514 -1198 141 139 165
22.1183 56.4875 -1203 141 139 165
24.5683 56.6299 -1206 137 137 161
27.0528 56.8193 -1210 132 132 156
29.6021 57.1029 -1216 129 129 153
32.1491 57.3396 -1221 127 127 151
34.688 57.5296 -1225 128 128 152
37.3036 57.8137 -1231 125 125 149
39.8465 57.957 -1234 124 124 149
42.4702 58.1944 -1239 125 125 151
45.0778 58.3851 -1243 126 126 150
47.5869 58.435 -1244 126 127 150
50.1808 58.579 -1247 124 126 147
52.8716 58.8172 -1252 123 125 146
55.6268 59.1025 -1258 124 126 146
58.5914 59.5759 -1268 123 125 143
62.2708 60.7074 -1292 121 122 141
-199.279 58.8255 -1298 191 190 200
-193.46 57.8619 -1277 189 188 198
-189.073 57.3064 -1265 193 192 202
-185.769 57.0685 -1260 191 188 196
-182.341 56.7854 -1254 182 179 186
-179.225 56.5933 -1250 181 177 183
-175.986 56.356 -1245 186 180 185
-172.908 56.1643 -1241 187 180 186
-169.985 56.018 -1238 192 187 195
-167.076 55.872 -1235 200 195 203
-164.313 55.7714 -1233 202 197 205
-161.166 55.5353 -1228 203 198 206
-158.169 55.3446 -1224 205 200 208
-154.3 54.8377 -1213 203 198 206
-150.601 54.3764 -1203 206 201 209
-145.836 53.5087 -1184 218 213 221
-141.996 52.9576 -1172 218 213 221
-138.325 52.452 -1161 212 207 215
-135.402 52.2178 -1156 209 205 210
-132.616 52.0289 -1152 206 202 207
-130.073 51.9306 -1150 205 201 206
-127.539 51.8325 -1148 206 202 207
-125.232 51.8248 -1148 203 199 204
-122.926 51.8172 -1148 203 199 204
-120.622 51.8098 -1148 203 199 204
-118.112 51.7123 -1146 202 198 203
-115.712 51.6601 -1145 201 197 202
-113.317 51.608 -1144 197 193 198
-110.83 51.511 -1142 198 194 199
-108.542 51.5043 -1142 199 195 200
-106.441 51.5879 -1144 195 191 196
-104.06 51.5365 -1143 188 184 189
-101.683 51.4852 -1142 187 183 188
-99.4858 51.5241 -1143 188 183 191
-97.1149 51.473 -1142 187 182 190
-94.6658 51.3771 -1140 185 180 188
-92.3876 51.3714 -1140 181 176 185
-90.1101 51.3659 -1140 182 176 185
-87.7562 51.3155 -1139 183 176 185
-85.4071 51.2652 -1138 176 169 181
-83.1358 51.26 -1138 167 159 173
-80.865 51.255 -1138 164 156 170
-78.7331 51.3403 -1140 164 156 171
-76.5268 51.3806 -1141 165 157 173
-74.317 51.4211 -1142 166 158 174
-72.1039 51.4617 -1143 170 162 178
-69.9485 51.5475 -1145 173 165 183
-67.7856 51.6333 -1147 171 164 182
-65.5582 51.6743 -1148 167 162 179
-63.3274 51.7154 -1149 162 158 176
-61.1463 51.8016 -1151 157 153 172
-58.9576 51.888 -1153 157 151 173
-56.7123 51.9295 -1154 155 149 171
-54.5578 52.0612 -1157 153 147 169
-52.3467 52.1479 -1159 154 149 171
-50.1712 52.2798 -1162 154 149 172
-47.9429 52.3668 -1164 154 150 171
-45.7071 52.454 -1166 152 148 169
-43.4637 52.5412 -1168 148 144 165
-41.1774 52.5837 -1169 145 141 162
-38.8543 52.5813 -1169 148 144 165
-36.5003 52.534 -1168 151 147 167
-34.1505 52.4869 -1167 154 149 170
-31.8323 52.4849 -1167 154 148 170
-29.4637 52.3931 -1165 157 151 171
-27.1266 52.3464 -1164 170 164 183
-24.8149 52.3448 -1164 192 184 198
-22.5035 52.3434 -1164 210 202 213
-20.175 52.2972 -1163 210 203 212
-17.8813 52.341 -1164 204 197 208
-15.5837 52.385 -1165 190 183 197
-13.2824 52.4291 -1166 165 161 180
-10.9865 52.5183 -1168 157 152 176
-8.6754 52.5626 -1169 152 147 172
-6.37669 52.742 -1173 146 144 170
-4.05525 52.8317 -1175 144 142 168
-1.72444 52.8764 -1176 142 142 168
0.611364 53.0113 -1179 146 144 170
2.96159 53.1913 -1183 147 145 171
5.31425 53.2365 -1184 146 144 170
7.67093 53.2818 -1185 147 145 172
10.0232 53.2824 -1185 149 146 175
12.3964 53.373 -1187 148 146 172
14.7901 53.5087 -1190 146 144 170
17.1958 53.6446 -1193 147 145 171
19.6463 53.8705 -1198 144 142 167
22.0985 54.0516 -1202 143 141 166
24.6279 54.3678 -1209 137 137 161
27.1182 54.5493 -1213 134 134 158
29.6489 54.7758 -1218 129 129 153
32.1734 54.9576 -1222 126 126 150
34.7424 55.1845 -1227 127 127 151
37.3315 55.4115 -1232 125 125 149
39.9409 55.6388 -1237 125 125 150
42.5361 55.8212 -1241 125 125 151
45.075 55.9138 -1243 125 125 149
47.6222 56.0066 -1245 125 126 148
50.218 56.1445 -1248 124 126 147
52.995 56.4626 -1255 125 127 147
55.6676 56.6458 -1259 126 128 148
58.6802 57.1442 -1270 123 125 143
61.8332 57.7328 -1283 120 121 141
-203.258 57.3523 -1324 192 191 201
-194.812 55.6947 -1286 191 190 200
-189.51 54.904 -1268 193 192 202
-185.905 54.5899 -1261 189 188 196
-182.621 54.3627 -1256 183 181 188
-179.501 54.1789 -1252 185 181 186
-176.117 53.9089 -1246 189 183 189
-173.316 53.8121 -1244 189 183 189
-170.524 53.7156 -1242 193 188 196
-167.471 53.5327 -1238 198 193 201
-164.436 53.3501 -1234 201 196 204
-161.418 53.1676 -1230 202 197 205
-158.289 52.9422 -1225 202 197 205
-154.545 52.5009 -1215 201 196 204
-150.342 51.8871 -1201 206 201 209
-145.334 50.9713 -1180 219 214 222
-141.745 50.531 -1170 218 213 221
-138.079 50.0478 -1159 211 206 214
-135.277 49.8671 -1155 208 204 209
-132.608 49.7298 -1152 206 202 207
-129.952 49.5927 -1149 203 199 204
-127.42 49.4989 -1147 202 198 203
-125.115 49.4915 -1147 199 195 200
-122.919 49.5274 -1148 198 194 199
-120.509 49.4772 -1147 200 196 201
-118.002 49.384 -1145 201 197 202
-115.503 49.291 -1143 201 197 202
-113.211 49.2843 -1143 198 194 199
-110.726 49.1916 -1141 198 194 199
-108.441 49.1852 -1141 198 194 199
-106.342 49.2652 -1143 197 193 198
-104.054 49.2591 -1143 191 187 193
-101.588 49.1669 -1141 190 186 192
-99.3928 49.2042 -1142 189 184 192
-97.0241 49.1554 -1141 190 185 193
-94.6602 49.1068 -1140 191 186 194
-92.3821 49.1013 -1140 189 184 193
-90.1047 49.096 -1140 184 179 188
-87.751 49.0479 -1139 182 175 185
-85.4771 49.0428 -1139 177 170 182
-83.1308 48.9949 -1138 170 162 176
-80.8602 48.9902 -1138 168 160 174
-78.7284 49.0716 -1140 168 160 175
-76.5893 49.1532 -1142 169 161 177
-74.4428 49.2349 -1144 168 160 176
-72.2258 49.2737 -1145 168 160 176
-70.0054 49.3126 -1146 168 160 178
-67.8407 49.3946 -1148 165 158 176
-65.6115 49.4338 -1149 163 158 175
-63.3237 49.4301 -1149 159 155 173
-61.1957 49.5556 -1152 155 151 170
-59.0053 49.6381 -1154 154 148 169
-56.8072 49.7208 -1156 154 148 170
-54.6018 49.8036 -1158 153 147 169
-52.3887 49.8865 -1160 151 146 168
-50.2113 50.0126 -1163 153 148 171
-47.9401 50.0527 -1164 155 151 172
-45.7436 50.1791 -1167 154 150 171
-43.4611 50.2195 -1168 149 145 166
-41.175 50.26 -1169 145 141 162
-38.852 50.2577 -1169 149 145 166
-36.5294 50.2555 -1169 155 150 171
-34.1485 50.1675 -1167 157 151 172
-31.8304 50.1656 -1167 157 151 173
-29.4872 50.1209 -1166 159 153 172
-27.1715 50.1192 -1166 174 167 185
-24.8348 50.0748 -1165 198 190 203
-22.5022 50.0304 -1164 208 201 212
-20.1738 49.9862 -1163 209 202 212
-17.8649 49.9851 -1163 204 196 209
-15.5694 50.0271 -1164 188 181 196
-13.2702 50.0693 -1165 165 161 180
-10.9765 50.1545 -1167 157 152 175
-8.66747 50.1969 -1168 151 146 170
-6.36545 50.3255 -1171 146 144 170
-4.05157 50.4541 -1174 144 143 169
-1.72581 50.5828 -1177 142 142 168
0.611844 50.7117 -1180 144 143 169
2.96391 50.8837 -1184 147 145 171
5.31842 50.9269 -1185 148 146 172
7.67695 50.9703 -1186 148 146 173
10.031 50.9708 -1186 150 147 175
12.3957 51.0144 -1187 149 147 173
14.7892 51.1442 -1190 147 145 171
17.1804 51.2311 -1192 147 145 171
19.6288 51.447 -1197 145 143 167
22.1156 51.7061 -1203 144 142 166
24.6468 52.0083 -1210 136 136 160
27.1166 52.1388 -1213 134 134 158
29.6472 52.3553 -1218 130 130 154
32.1978 52.572 -1223 125 125 149
34.797 52.8319 -1229 127 127 151
37.299 52.9199 -1231 126 126 150
39.9386 53.1801 -1237 125 125 151
42.5336 53.3545 -1241 125 125 151
45.1086 53.486 -1244 125 125 147
47.6576 53.5747 -1246 126 126 148
50.2955 53.7495 -1250 126 128 149
52.9919 53.9675 -1255 126 128 148
55.6643 54.1426 -1259 126 128 148
58.7228 54.662 -1271 122 124 143
61.8778 55.2246 -1284 122 123 143
65.3859 56.0455 -1303 121 122 142
-195.861 53.4094 -1293 190 189 199
-190.097 52.5312 -1272 191 190 200
-186.337 52.1903 -1264 189 188 196
-182.61 51.8497 -1256 185 183 190
-179.778 51.757 -1254 187 183 189
-176.531 51.5408 -1249 192 186 192
-173.724 51.4485 -1247 194 187 193
-171.064 51.3976 -1246 194 189 197
-167.732 51.1407 -1240 197 192 200
-164.826 51.0076 -1237 199 194 202
-161.54 50.7512 -1231 200 195 203
-158.28 50.495 -1225 200 195 203
-154.027 49.9092 -1211 200 195 203
-149.707 49.2826 -1196 206 201 209
-145.326 48.6152 -1180 219 214 222
-141.737 48.1952 -1170 217 212 220
-138.309 47.8167 -1161 210 205 213
-135.387 47.6032 -1156 207 203 208
-132.715 47.4722 -1153 206 202 207
-130.058 47.3414 -1150 204 200 205
-127.524 47.252 -1148 201 197 202
-125.108 47.2038 -1147 196 192 197
-122.912 47.238 -1148 197 193 198
-120.397 47.149 -1146 200 196 201
-118.098 47.1424 -1146 202 198 203
-115.698 47.0947 -1145 200 196 201
-113.304 47.0473 -1144 199 195 200
-110.914 47 -1143 200 196 201
-108.624 46.9938 -1143 199 195 200
-106.429 47.029 -1144 196 192 197
-104.048 46.9821 -1143 192 187 195
-101.671 46.9353 -1142 190 185 193
-99.3871 46.9297 -1142 190 185 193
-97.0186 46.8832 -1141 190 185 193
-94.6549 46.8368 -1140 190 185 193
-92.3769 46.8316 -1140 188 183 193
-90.1787 46.8677 -1141 184 178 188
-87.8231 46.8217 -1140 181 174 185
-85.6224 46.8579 -1141 177 170 183
-83.3452 46.8533 -1141 171 163 177
-81.0688 46.8488 -1141 168 160 174
-78.8621 46.8854 -1142 169 161 175
-76.652 46.9222 -1143 170 162 178
-74.5036 47.0001 -1145 171 163 179
-72.2848 47.0371 -1146 172 164 180
-70.0015 47.0331 -1146 165 157 175
-67.8369 47.1114 -1148 160 153 171
-65.6078 47.1488 -1149 160 155 172
-63.3752 47.1862 -1150 160 154 173
-61.2454 47.3059 -1153 158 152 172
-59.053 47.3847 -1155 157 151 171
-56.8532 47.4635 -1157 156 150 170
-54.6458 47.5424 -1159 153 147 169
-52.4309 47.6215 -1161 150 145 167
-50.2517 47.7418 -1164 153 148 171
-47.9785 47.7801 -1165 154 150 171
-45.7802 47.9006 -1168 154 150 171
-43.4958 47.9391 -1169 151 147 168
-41.2079 47.9777 -1170 148 144 165
-38.8499 47.9345 -1169 153 148 170
-36.5586 47.9735 -1170 160 154 176
-34.1759 47.8895 -1168 161 155 176
-31.8559 47.8877 -1168 157 151 171
-29.5108 47.845 -1167 157 152 169
-27.17 47.8025 -1166 181 175 191
-24.8334 47.7601 -1165 206 199 210
-22.5203 47.7588 -1165 210 203 214
-20.1727 47.6756 -1163 209 202 213
-17.8792 47.7156 -1164 200 192 206
-15.5819 47.7556 -1165 181 174 189
-13.2694 47.7549 -1165 160 156 175
-10.9758 47.8361 -1167 155 150 172
-8.68183 47.9585 -1170 153 148 171
-6.37053 48.0401 -1172 148 146 172
-4.05479 48.1629 -1175 142 141 167
-1.72865 48.3266 -1179 139 139 165
0.612325 48.4085 -1181 142 140 166
2.96375 48.5316 -1184 146 144 170
5.32261 48.6139 -1186 152 150 176
7.67651 48.6142 -1186 153 151 177
10.0305 48.6147 -1186 152 150 177
12.395 48.6564 -1187 150 148 174
14.7759 48.739 -1189 148 146 172
17.1506 48.7809 -1190 146 144 168
19.6113 49.0279 -1196 143 141 166
22.0776 49.234 -1201 143 141 165
24.6251 49.5633 -1209 138 138 161
27.1151 49.7287 -1213 133 133 155
29.6698 49.9762 -1219 128 128 151
32.1697 50.1009 -1222 125 125 149
34.7384 50.3078 -1227 126 126 150
37.2969 50.4737 -1231 125 125 149
39.9362 50.7219 -1237 126 126 151
42.5655 50.9292 -1242 126 126 151
45.1061 51.0136 -1244 127 127 149
47.6932 51.1393 -1247 127 128 149
50.2524 51.224 -1249 126 128 149
52.9889 51.4729 -1255 125 127 148
55.7496 51.722 -1261 124 126 146
58.6733 52.0943 -1270 121 123 143
61.7778 52.5898 -1282 122 123 143
66.436 54.3164 -1324 120 121 141
-198.425 51.4895 -1310 190 189 199
-190.834 50.1822 -1277 190 189 199
-186.179 49.622 -1263 188 187 197
-182.6 49.3372 -1256 185 182 192
-180.055 49.3276 -1256 186 181 189
-176.945 49.161 -1252 192 185 192
-174.132 49.0732 -1250 193 186 192
-171.192 48.9463 -1247 195 190 198
-168.535 48.898 -1246 195 190 198
-165.084 48.6145 -1239 196 191 199
-161.925 48.4096 -1234 198 193 201
-158.401 48.0873 -1226 201 196 204
-154.146 47.53 -1212 200 195 203
-149.95 46.9729 -1198 209 204 212
-144.949 46.1418 -1177 220 215 223
-141.366 45.7422 -1167 215 211 217
-138.063 45.4213 -1159 210 206 212
-135.379 45.2965 -1156 209 205 210
-132.823 45.211 -1154 208 204 209
-130.164 45.0865 -1151 206 202 207
-127.517 44.9623 -1148 201 197 202
-125.211 44.9556 -1148 199 195 200
-122.905 44.949 -1148 200 196 201
-120.391 44.8643 -1146 200 196 201
-117.989 44.8188 -1145 201 197 202
-115.591 44.7736 -1144 199 195 200
-113.199 44.7284 -1143 200 196 201
-110.811 44.6833 -1142 200 196 201
-108.524 44.6775 -1142 198 194 199
-106.237 44.6719 -1142 194 190 195
-103.951 44.6664 -1142 191 186 194
-101.577 44.6218 -1141 191 186 194
-99.2948 44.6165 -1141 191 186 194
-97.0134 44.6114 -1141 191 186 194
-94.6497 44.5672 -1140 188 183 191
-92.3719 44.5623 -1140 184 179 189
-90.0948 44.5575 -1140 181 176 186
-87.8184 44.5528 -1140 179 172 183
-85.5427 44.5483 -1140 174 166 180
-83.3408 44.5829 -1141 168 160 175
-81.1355 44.6176 -1142 164 156 170
-78.9959 44.6916 -1144 168 160 175
-76.782 44.7265 -1145 172 164 180
-74.5647 44.7617 -1146 175 167 183
-72.3439 44.7968 -1147 174 166 182
-70.1198 44.8322 -1148 167 159 177
-67.8923 44.8676 -1149 161 154 172
-65.7184 44.9421 -1151 159 154 171
-63.5371 45.0169 -1153 157 152 171
-61.2953 45.0527 -1154 156 150 170
-59.101 45.1275 -1156 156 150 170
-56.8993 45.2026 -1158 155 149 170
-54.69 45.2777 -1160 154 148 170
-52.4733 45.353 -1162 152 147 169
-50.2922 45.4674 -1165 152 147 170
-48.0172 45.5038 -1166 152 148 169
-45.8169 45.6184 -1169 150 146 167
-43.5307 45.6551 -1170 150 146 167
-41.2409 45.6919 -1171 151 147 168
-38.881 45.6508 -1170 155 151 172
-36.5566 45.6488 -1170 158 152 174
-34.174 45.569 -1168 156 150 170
-31.8815 45.6063 -1169 155 149 168
-29.5346 45.5656 -1168 158 153 167
-27.2152 45.5641 -1168 192 186 199
-24.8534 45.4848 -1166 209 202 213
-22.5191 45.4445 -1165 209 202 213
-20.1716 45.3653 -1163 205 198 209
-17.8629 45.3644 -1163 197 189 203
-15.5677 45.4025 -1164 176 169 184
-13.2801 45.4797 -1166 158 154 173
-10.9753 45.5181 -1167 153 150 172
-8.67394 45.5956 -1169 148 146 168
-6.37563 45.7512 -1173 147 146 172
-4.05803 45.868 -1176 142 142 168
-1.73002 46.0238 -1180 142 142 168
0.612808 46.1018 -1182 145 143 169
2.96609 46.2189 -1185 146 144 170
5.32681 46.2971 -1187 152 150 176
7.6761 46.2585 -1186 154 152 178
10.0384 46.298 -1187 152 150 176
12.4047 46.3376 -1188 150 148 174
14.7876 46.4163 -1190 149 147 173
17.1641 46.4561 -1191 144 142 166
19.6102 46.6521 -1196 143 141 165
22.0948 46.8873 -1202 145 143 167
24.6237 47.1616 -1209 137 137 159
27.1136 47.319 -1213 130 130 152
29.6682 47.5545 -1219 126 126 148
32.1417 47.6342 -1221 126 126 150
34.7931 47.948 -1229 126 126 150
37.2646 47.9889 -1230 125 125 149
39.9663 48.3031 -1238 127 127 151
42.563 48.4613 -1242 128 128 152
45.1399 48.5807 -1245 129 129 151
47.6907 48.6611 -1247 128 129 151
50.29 48.7808 -1250 126 128 149
52.9861 48.9786 -1255 123 125 145
55.6582 49.1376 -1259 119 121 141
58.6239 49.5309 -1269 121 123 143
61.7263 50.0025 -1281 123 125 145
65.8303 51.2159 -1312 121 122 142
-201.293 49.5766 -1329 190 189 199
-191.422 47.7762 -1281 190 189 199
-186.759 47.2446 -1267 186 185 195
-183.027 46.937 -1259 185 182 192
-180.332 46.8905 -1258 188 183 192
-177.502 46.807 -1256 190 185 191
-174.541 46.6863 -1253 191 186 192
-171.732 46.6031 -1251 194 189 197
-168.661 46.4455 -1247 196 191 199
-165.475 46.2509 -1242 196 191 199
-161.786 45.9076 -1233 198 193 201
-158.392 45.6389 -1226 202 197 205
-154.138 45.1099 -1212 201 196 204
-149.316 44.3951 -1193 212 207 215
-144.572 43.6808 -1174 219 214 222
-141.359 43.4132 -1167 214 210 216
-138.056 43.1086 -1159 211 207 212
-135.372 42.9901 -1156 210 206 211
-132.701 42.8718 -1153 208 204 209
-130.044 42.7537 -1150 204 200 205
-127.51 42.6729 -1148 197 193 198
-125.095 42.6294 -1147 196 192 197
-122.685 42.586 -1146 200 196 201
-120.28 42.5428 -1145 201 197 202
-117.879 42.4997 -1144 202 198 203
-115.383 42.4195 -1142 199 195 200
-113.193 42.4509 -1143 198 194 199
-110.903 42.4453 -1143 196 192 197
-108.613 42.4399 -1143 193 189 194
-106.324 42.4345 -1143 190 186 191
-104.037 42.4292 -1143 190 185 193
-101.572 42.3499 -1141 194 189 197
-99.2897 42.3448 -1141 196 191 199
-96.9234 42.3028 -1140 195 190 198
-94.6449 42.298 -1140 191 186 194
-92.3671 42.2934 -1140 184 179 190
-90.0901 42.2888 -1140 178 172 184
-87.8909 42.3214 -1141 174 166 179
-85.6884 42.3542 -1142 169 161 176
-83.4825 42.3871 -1143 164 156 172
-81.2024 42.383 -1143 166 158 172
-79.061 42.4531 -1145 169 161 176
-76.8452 42.4863 -1146 173 165 181
-74.6259 42.5196 -1147 173 165 181
-72.4034 42.553 -1148 170 162 178
-70.1773 42.5865 -1149 166 158 176
-67.9479 42.6201 -1150 162 155 173
-65.8293 42.728 -1153 159 152 170
-63.589 42.7618 -1154 157 151 170
-61.3452 42.7957 -1155 157 151 171
-59.098 42.8298 -1156 156 150 170
-56.8964 42.901 -1158 153 147 168
-54.6401 42.9353 -1159 152 146 168
-52.4254 43.0068 -1161 152 147 169
-50.2896 43.1524 -1165 154 149 171
-48.0558 43.2239 -1167 154 150 171
-45.8146 43.2957 -1169 152 148 169
-43.5285 43.3305 -1170 150 146 167
-41.2388 43.3655 -1171 153 148 169
-38.879 43.3264 -1170 157 152 173
-36.5235 43.2875 -1169 157 151 172
-34.1723 43.2488 -1168 154 149 167
-31.8798 43.2841 -1169 157 152 168
-29.533 43.2456 -1168 168 162 173
-27.2138 43.2441 -1168 203 197 208
-24.8521 43.1688 -1166 211 204 215
-22.5179 43.1306 -1165 213 206 217
-20.1706 43.0555 -1163 206 200 210
-17.862 43.0546 -1163 196 189 203
-15.5669 43.0907 -1164 173 167 182
-13.2681 43.1271 -1165 156 153 172
-10.9747 43.2005 -1167 153 151 173
-8.68092 43.3111 -1170 148 146 169
-6.38074 43.4588 -1174 145 145 171
-4.06128 43.5696 -1177 144 144 170
-1.72994 43.6805 -1180 148 148 174
0.613812 43.8285 -1184 152 150 176
2.96593 43.8656 -1185 152 150 176
5.32205 43.9028 -1186 156 154 180
7.6757 43.9032 -1186 155 153 179
10.0379 43.9406 -1187 152 150 176
12.3937 43.9412 -1187 149 147 173
14.7744 44.0159 -1189 146 144 170
17.1488 44.0537 -1190 143 141 165
19.5928 44.2397 -1195 141 139 163
22.0385 44.3889 -1199 139 137 161
24.5817 44.6862 -1207 132 132 154
27.0675 44.8356 -1211 128 128 150
29.6911 45.1703 -1220 126 126 148
32.1664 45.2459 -1222 124 124 148
34.7914 45.5067 -1229 123 123 147
37.3233 45.6196 -1232 126 126 150
39.9643 45.8437 -1238 128 128 152
42.5951 46.0309 -1243 127 127 151
45.1737 46.1442 -1246 127 127 149
47.6882 46.1835 -1247 129 129 151
50.2472 46.26 -1249 127 127 149
52.9411 46.4478 -1254 122 124 144
55.567 46.5616 -1257 120 122 142
58.5286 46.9349 -1267 123 125 145
61.6268 47.3824 -1279 124 125 145
-192.757 45.5312 -1290 191 190 200
-187.634 44.9222 -1273 186 185 195
-184.181 44.7015 -1267 183 181 191
-180.897 44.5164 -1262 186 181 190
-177.917 44.402 -1259 189 185 191
-175.09 44.3231 -1257 192 188 193
-171.998 44.1738 -1253 195 190 198
-168.788 43.9894 -1248 197 192 200
-165.201 43.6995 -1240 195 190 198
-162.172 43.5507 -1236 198 193 201
-158.385 43.1908 -1226 203 198 206
-154.258 42.7254 -1213 206 201 209
-149.309 42.0138 -1193 216 211 218
-144.934 41.4433 -1177 218 214 219
-141.11 41.0141 -1165 214 210 215
-137.93 40.7611 -1158 211 207 212
-135.366 40.6842 -1156 207 203 208
-132.695 40.5722 -1153 205 201 206
-130.037 40.4604 -1150 203 199 204
-127.504 40.3839 -1148 199 195 200
-125.198 40.3779 -1148 199 195 200
-122.679 40.3017 -1146 203 199 204
-120.274 40.2608 -1145 204 200 205
-117.874 40.22 -1144 204 200 205
-115.479 40.1793 -1143 200 196 201
-113.187 40.1739 -1143 199 195 200
-110.897 40.1686 -1143 196 192 197
-108.608 40.1634 -1143 192 188 193
-106.226 40.1232 -1142 189 185 190
-103.85 40.0831 -1141 191 186 194
-101.478 40.0431 -1140 197 192 200
-99.1978 40.0383 -1140 198 193 201
-96.9186 40.0337 -1140 196 191 199
-94.7233 40.0643 -1141 191 186 194
-92.5247 40.095 -1142 180 175 186
-90.1648 40.0555 -1141 173 167 179
-88.0407 40.1216 -1143 171 163 177
-85.8343 40.1525 -1144 166 158 174
-83.5516 40.1485 -1144 164 156 172
-81.2695 40.1446 -1144 166 158 172
-79.1952 40.2461 -1147 167 159 174
-76.9084 40.2424 -1147 167 159 175
-74.6873 40.2739 -1148 164 156 172
-72.5259 40.3407 -1150 164 156 172
-70.3572 40.4074 -1152 164 156 174
-68.0628 40.4041 -1152 163 155 173
-65.8831 40.4712 -1154 160 152 170
-63.641 40.5031 -1155 157 150 170
-61.4484 40.5703 -1157 157 151 171
-59.1463 40.5675 -1157 156 150 170
-56.9427 40.6349 -1159 154 148 169
-54.6846 40.6673 -1160 153 147 169
-52.4681 40.7349 -1162 154 149 171
-50.3303 40.8727 -1166 155 150 172
-48.0947 40.9405 -1168 154 150 171
-45.8124 40.9733 -1169 151 147 168
-43.5264 41.0063 -1170 150 146 167
-41.2368 41.0393 -1171 153 148 168
-38.8772 41.0024 -1170 155 149 170
-36.553 41.0006 -1170 156 150 171
-34.2292 40.999 -1170 160 154 171
-31.8782 40.9623 -1169 164 159 172
-29.5316 40.9258 -1168 181 174 184
-27.1892 40.8895 -1167 212 205 215
-24.8509 40.8532 -1166 213 206 217
-22.4975 40.782 -1164 213 207 217
-20.1696 40.746 -1163 205 200 209
-17.8611 40.7451 -1163 195 190 203
-15.5528 40.7443 -1163 173 168 184
-13.2674 40.8137 -1165 155 152 173
-10.9742 40.8832 -1167 151 149 172
-8.68793 41.0229 -1171 146 144 168
-6.38043 41.1276 -1174 144 144 170
-4.06453 41.2675 -1178 145 145 171
-1.73279 41.4075 -1182 149 149 175
0.61378 41.4775 -1184 152 151 177
2.96829 41.5477 -1186 153 151 177
5.32628 41.5829 -1187 157 155 181
7.67533 41.5482 -1186 157 155 181
10.0374 41.5837 -1187 153 151 177
12.3931 41.5842 -1187 151 149 175
14.7612 41.6199 -1188 147 145 171
17.1479 41.6907 -1190 144 142 166
19.5755 41.8317 -1194 141 139 163
22.0191 41.9728 -1198 137 135 159
24.5602 42.2542 -1206 133 133 156
27.0662 42.4306 -1211 130 130 153
29.5923 42.6071 -1216 128 128 151
32.1385 42.7838 -1221 124 124 148
34.7897 43.0657 -1229 122 122 146
37.2912 43.1375 -1231 126 126 150
39.9623 43.3846 -1238 128 128 152
42.5588 43.5267 -1242 127 127 151
45.1353 43.6339 -1245 128 128 150
47.6858 43.7062 -1247 128 128 150
50.285 43.8137 -1250 126 126 148
52.8964 43.9213 -1253 124 125 146
55.6085 44.0991 -1258 122 123 143
58.4334 44.3472 -1265 123 125 145
61.672 44.8759 -1280 125 126 146
-194.691 43.3836 -1303 193 192 202
-188.805 42.6426 -1281 185 184 195
-184.754 42.3013 -1271 182 180 190
-181.462 42.1267 -1266 185 182 190
-178.191 41.9522 -1261 188 185 190
-175.082 41.8112 -1257 191 187 192
-172.127 41.7036 -1254 195 190 198
-168.781 41.4964 -1248 197 192 200
