ply
format ascii 1.0
comment Created by Open3D
element vertex 1343
property double x
property double y
property double z
property uchar red
property uchar green
property uchar blue
end_header
-66.4078 -78.2608 -1298 177 172 183
-63.9218 -78.3761 -1300 176 171 183
-61.3811 -78.4314 -1301 178 173 186
-58.8369 -78.4868 -1302 180 175 190
-56.2029 -78.4218 -1301 171 167 181
-53.6557 -78.4776 -1302 163 159 172
-51.0657 -78.4734 -1302 162 158 171
-48.5878 -78.6503 -1305 165 161 174
-46.0632 -78.767 -1307 162 158 171
-43.5642 -78.944 -1310 157 153 166
-40.9911 -79.0009 -1311 152 148 161
-38.4436 -79.1182 -1313 157 152 166
-35.8885 -79.2358 -1315 159 154 169
-33.3005 -79.2932 -1316 154 149 164
-30.732 -79.4112 -1318 151 147 162
-28.1771 -79.5896 -1321 150 146 161
-25.5525 -79.5874 -1321 149 145 160
-22.9455 -79.6457 -1322 151 147 162
-20.3501 -79.7645 -1324 150 146 163
-17.7335 -79.8232 -1325 149 145 162
-15.1473 -80.0627 -1329 152 148 165
-12.5358 -80.2425 -1332 154 150 167
-9.90518 -80.3619 -1334 155 151 168
-7.2721 -80.5419 -1337 152 148 167
-4.62371 -80.6621 -1339 153 149 166
-1.97035 -80.9026 -1343 154 150 167
0.697845 -81.0231 -1345 145 141 158
3.379 -81.2642 -1349 147 143 160
6.06709 -81.3851 -1351 147 143 160
8.7567 -81.4459 -1352 137 135 154
11.4588 -81.5674 -1354 132 130 149
14.1585 -81.6286 -1355 129 127 146
16.8872 -81.8106 -1358 125 123 141
19.6567 -82.1133 -1363 123 121 138
22.4627 -82.4765 -1369 123 121 138
25.2377 -82.6591 -1372 121 119 136
28.045 -82.9023 -1376 121 119 138
30.8908 -83.2059 -1381 118 116 133
33.6836 -83.329 -1383 118 116 133
36.4584 -83.3921 -1384 120 119 133
39.294 -83.5759 -1387 124 123 136
42.1116 -83.6997 -1389 128 127 140
44.9374 -83.8239 -1391 133 132 146
47.8061 -84.0084 -1394 135 134 148
50.6506 -84.1329 -1396 139 138 152
53.5034 -84.2576 -1398 145 143 154
56.3244 -84.3223 -1399 162 159 169
59.0653 -84.2667 -1398 169 165 178
61.8028 -84.2112 -1397 166 162 175
64.6292 -84.2768 -1398 163 159 172
67.4118 -84.2821 -1398 160 158 169
70.2956 -84.4082 -1400 160 159 169
73.2921 -84.6553 -1404 153 149 162
76.4677 -85.0834 -1411 139 136 147
79.8406 -85.6927 -1421 129 126 136
-318.068 -86.8559 -1371 210 207 214
-312.437 -86.0685 -1359 210 207 214
-307.999 -85.5984 -1352 209 204 212
-304.495 -85.382 -1349 208 202 210
-301.23 -85.2293 -1347 205 199 205
-298.198 -85.1402 -1346 196 191 198
-295.391 -85.1146 -1346 189 183 191
-292.37 -85.0259 -1345 186 179 187
-289.786 -85.064 -1346 186 179 187
-286.774 -84.976 -1345 189 182 190
-283.98 -84.9514 -1345 190 185 193
-281.188 -84.9272 -1345 193 188 196
-278.191 -84.84 -1344 194 189 197
-275.201 -84.753 -1343 196 191 199
-272.624 -84.7927 -1344 199 194 202
-269.642 -84.7063 -1343 203 198 206
-267.065 -84.7463 -1344 206 201 209
-264.093 -84.6605 -1343 206 201 209
-261.321 -84.638 -1343 206 201 209
-258.359 -84.5527 -1342 209 204 212
-255.403 -84.4676 -1341 209 204 212
-251.889 -84.1941 -1337 211 206 213
-248.765 -84.0468 -1335 215 211 216
-245.284 -83.7737 -1331 215 211 216
-242.368 -83.69 -1330 217 213 218
-239.277 -83.5437 -1328 214 210 215
-236.553 -83.5233 -1328 209 205 210
-233.479 -83.3776 -1326 208 204 209
-230.589 -83.2948 -1325 207 203 208
-227.533 -83.1496 -1323 208 204 209
-224.317 -82.9418 -1320 207 203 208
-221.116 -82.7345 -1317 204 200 205
-218.426 -82.7157 -1317 203 199 204
-215.246 -82.5088 -1314 206 202 207
-212.404 -82.4279 -1313 206 202 207
-209.249 -82.2217 -1310 205 201 206
-206.738 -82.2668 -1311 203 199 204
-203.758 -82.1238 -1309 202 198 203
-200.941 -82.0439 -1308 203 199 204
-197.978 -81.9015 -1306 205 201 206
-195.324 -81.8849 -1306 207 203 208
-192.23 -81.6803 -1303 207 203 208
-189.44 -81.6015 -1302 208 204 209
-186.512 -81.4603 -1300 209 205 210
-184.018 -81.5073 -1301 208 204 209
-181.243 -81.4291 -1300 204 200 205
-178.61 -81.4139 -1300 201 197 202
-175.844 -81.3364 -1299 200 196 201
-173.217 -81.3216 -1299 200 196 201
-170.197 -81.1192 -1296 201 197 202
-167.449 -81.0424 -1295 203 199 204
-164.834 -81.0283 -1295 204 200 205
-162.22 -81.0146 -1295 204 200 205
-159.485 -80.9384 -1294 205 201 206
-156.876 -80.9251 -1294 206 201 209
-154.148 -80.8495 -1293 206 201 209
-151.309 -80.7115 -1291 203 198 206
-148.71 -80.6989 -1291 201 196 203
-146.112 -80.6866 -1291 197 193 198
-143.404 -80.6118 -1290 197 193 198
-140.92 -80.6623 -1291 197 193 199
-138.218 -80.5882 -1290 199 194 202
-135.521 -80.5141 -1289 201 196 202
-132.933 -80.5029 -1289 202 198 203
-130.346 -80.4918 -1289 200 196 199
-127.66 -80.4185 -1288 198 194 197
-124.98 -80.3454 -1287 196 192 196
-122.305 -80.2727 -1286 196 192 196
-119.728 -80.2625 -1286 196 192 197
-117.334 -80.3774 -1288 198 193 201
-114.755 -80.3676 -1288 198 193 202
-112.263 -80.4205 -1289 197 192 201
-109.854 -80.5359 -1291 195 190 198
-107.272 -80.5268 -1291 195 190 198
-104.609 -80.4557 -1290 194 189 200
-102.109 -80.5093 -1291 191 186 198
-99.5293 -80.5008 -1291 190 185 198
-96.7999 -80.3679 -1289 186 181 193
-94.2987 -80.4223 -1290 182 177 188
-91.7941 -80.4768 -1291 183 178 189
-89.1481 -80.407 -1290 185 179 191
-86.5739 -80.3996 -1290 183 178 189
-84.0656 -80.4548 -1291 182 177 188
-81.4277 -80.3855 -1290 186 181 192
-78.9778 -80.5035 -1292 187 182 193
-76.4614 -80.5592 -1293 185 180 191
-73.9417 -80.6153 -1294 181 176 187
-71.3635 -80.6091 -1294 177 172 183
-68.9452 -80.7902 -1297 175 170 181
-66.4133 -80.8468 -1298 175 170 182
-63.927 -80.966 -1300 174 169 182
-61.3861 -81.0229 -1301 174 169 182
-58.8418 -81.0802 -1302 176 171 186
-56.2507 -81.0755 -1302 170 165 180
-53.6601 -81.0708 -1302 163 159 172
-51.1091 -81.1287 -1303 162 158 171
-48.5919 -81.2491 -1305 165 161 174
-46.067 -81.3697 -1307 161 157 170
-43.5678 -81.5527 -1310 155 151 164
-40.9945 -81.6114 -1311 153 149 162
-38.4468 -81.7327 -1313 158 154 168
-35.9188 -81.9162 -1316 159 154 169
-33.3538 -82.0378 -1318 157 152 167
-30.7812 -82.1596 -1320 153 149 164
-28.2007 -82.2817 -1322 149 145 160
-25.574 -82.2794 -1322 147 143 158
-22.9474 -82.2774 -1322 151 147 162
-20.3518 -82.4001 -1324 151 147 164
-17.7484 -82.523 -1326 149 145 162
-15.1486 -82.7083 -1329 148 144 161
-12.5369 -82.8939 -1332 151 147 164
-9.90599 -83.0174 -1334 153 149 166
-7.27269 -83.2034 -1337 154 150 169
-4.62409 -83.3274 -1339 153 149 167
-1.96904 -83.5138 -1342 156 152 169
0.697906 -83.7004 -1345 149 145 162
3.37928 -83.9495 -1349 148 144 161
6.0631 -84.0122 -1350 145 141 158
8.75742 -84.1373 -1352 139 137 156
11.4597 -84.2626 -1354 133 131 150
14.1701 -84.3881 -1356 130 128 147
16.901 -84.5761 -1359 127 125 143
19.6583 -84.8265 -1363 125 123 140
22.4483 -85.1395 -1368 124 122 139
25.2213 -85.3282 -1371 121 119 137
28.0473 -85.6416 -1376 119 117 136
30.9157 -86.0175 -1382 119 118 134
33.6864 -86.0824 -1383 119 118 133
36.4877 -86.2098 -1385 120 119 133
39.3256 -86.3997 -1388 123 122 135
42.1757 -86.59 -1391 129 128 140
44.9734 -86.6559 -1392 132 131 145
47.8443 -86.8465 -1395 132 131 145
50.691 -86.9751 -1397 135 134 148
53.5078 -87.0417 -1398 142 139 151
56.329 -87.1087 -1399 160 157 167
59.0703 -87.0512 -1398 167 163 175
61.7636 -86.9317 -1396 166 162 174
64.5882 -86.9992 -1397 161 157 170
67.3691 -87.0047 -1397 157 156 166
70.2511 -87.1351 -1399 158 157 167
73.2459 -87.3902 -1403 150 146 159
76.3657 -87.7702 -1409 137 134 145
79.9594 -88.6489 -1423 129 126 136
-318.328 -89.7004 -1372 210 207 214
-312.235 -88.7572 -1358 209 206 213
-307.342 -88.1414 -1349 209 204 212
-303.845 -87.9181 -1346 207 202 210
-300.586 -87.7606 -1344 203 198 206
-297.559 -87.6686 -1343 193 188 196
-294.759 -87.6422 -1343 185 180 188
-292.178 -87.6813 -1344 185 178 186
-289.596 -87.7207 -1345 188 181 189
-286.586 -87.6298 -1344 189 182 190
-284.005 -87.6697 -1345 188 183 191
-281.003 -87.5794 -1344 190 185 193
-278.009 -87.4895 -1343 192 187 195
-275.225 -87.4649 -1343 197 192 200
-272.445 -87.4406 -1343 201 196 204
-269.465 -87.3516 -1342 203 198 206
-266.89 -87.3928 -1343 206 201 209
-264.115 -87.3694 -1343 205 201 209
-261.344 -87.3461 -1343 204 199 207
-258.381 -87.2581 -1342 207 202 210
-255.616 -87.2354 -1342 210 205 213
-252.099 -86.9529 -1338 211 206 212
-248.973 -86.8009 -1336 212 208 213
-245.305 -86.4544 -1331 214 210 215
-242.389 -86.3678 -1330 217 213 218
-239.658 -86.3465 -1330 216 212 217
-236.752 -86.2608 -1329 212 208 213
-233.675 -86.1102 -1327 210 206 211
-230.783 -86.0248 -1326 210 206 211
-227.725 -85.875 -1324 209 205 210
-224.507 -85.6605 -1321 207 203 208
-221.135 -85.3816 -1317 206 202 207
-218.611 -85.4271 -1318 207 203 208
-215.265 -85.1489 -1314 208 204 209
-212.261 -85.0005 -1312 208 204 209
-209.426 -84.9172 -1311 208 204 209
-206.913 -84.9637 -1312 207 203 208
-203.775 -84.7514 -1309 205 201 206
-200.958 -84.6689 -1308 205 201 206
-197.995 -84.5222 -1306 206 202 207
-195.191 -84.4402 -1305 206 202 207
-192.246 -84.2938 -1303 207 203 208
-189.456 -84.2125 -1302 207 203 208
-186.671 -84.1314 -1301 208 204 209
-184.034 -84.1151 -1301 207 203 208
-181.258 -84.0345 -1300 204 200 205
-178.488 -83.9541 -1299 203 199 204
-175.724 -83.8742 -1298 202 198 203
-173.098 -83.8589 -1298 200 196 201
-170.211 -83.7147 -1296 200 196 201
-167.334 -83.5709 -1294 201 197 202
-164.721 -83.5563 -1294 201 197 202
-162.109 -83.5422 -1294 201 197 203
-159.498 -83.5282 -1294 203 199 205
-156.768 -83.4498 -1293 205 200 207
-154.162 -83.4362 -1293 204 199 207
-151.557 -83.4229 -1293 202 198 205
-148.953 -83.4099 -1293 202 197 203
-146.351 -83.3972 -1293 198 194 199
-143.528 -83.2556 -1291 197 193 199
-141.041 -83.3076 -1292 197 193 199
-138.337 -83.2311 -1291 197 192 200
-135.533 -83.0902 -1289 199 195 201
-133.047 -83.1431 -1290 200 196 201
-130.458 -83.1315 -1290 198 194 197
-127.671 -82.9915 -1288 195 191 194
-124.894 -82.8518 -1286 193 189 195
-122.315 -82.8409 -1286 195 191 197
-119.738 -82.8304 -1286 196 192 198
-117.344 -82.949 -1288 197 192 200
-114.853 -83.0033 -1289 197 192 201
-112.36 -83.0579 -1290 197 192 201
-109.863 -83.1126 -1291 196 191 199
-107.281 -83.1032 -1291 195 190 198
-104.537 -82.9655 -1289 193 188 199
-102.039 -83.0208 -1290 192 187 199
-99.4606 -83.0121 -1290 191 186 199
-96.733 -82.8749 -1288 186 181 193
-94.3066 -82.9954 -1290 179 174 185
-91.7308 -82.9873 -1290 184 179 190
-89.1557 -82.9794 -1290 185 180 191
-86.6484 -83.0363 -1291 184 179 190
-84.1379 -83.0931 -1292 182 177 188
-81.4346 -82.9574 -1290 185 180 191
-78.9845 -83.079 -1292 186 181 192
-76.5271 -83.201 -1294 184 179 190
-73.948 -83.1946 -1294 182 177 188
-71.4247 -83.2525 -1295 180 175 186
-68.9511 -83.375 -1297 178 173 185
-66.4189 -83.4334 -1298 176 171 184
-63.9325 -83.5564 -1300 172 167 180
-61.3914 -83.6153 -1301 171 166 179
-58.8468 -83.6743 -1302 171 166 181
-56.2987 -83.7336 -1303 172 167 182
-53.7471 -83.7932 -1304 168 164 177
-51.192 -83.8529 -1305 164 160 173
-48.6704 -83.9772 -1307 163 159 172
-46.1414 -84.1015 -1309 163 159 172
-43.6047 -84.2261 -1311 159 155 168
-40.9667 -84.1583 -1310 156 152 165
-38.4501 -84.3476 -1313 160 155 170
-35.8945 -84.4729 -1315 160 155 170
-33.3313 -84.5984 -1317 160 155 170
-30.7604 -84.7241 -1319 153 148 163
-28.2032 -84.9143 -1322 145 141 156
-25.5761 -84.9118 -1322 147 143 158
-22.9494 -84.9098 -1322 151 147 162
-20.3535 -85.0364 -1324 150 146 163
-17.7231 -85.0348 -1324 148 144 161
-15.127 -85.226 -1327 146 142 159
-12.5286 -85.4817 -1331 150 146 163
-9.90682 -85.6735 -1334 150 146 163
-7.2733 -85.8654 -1337 150 146 164
-4.62447 -85.9933 -1339 151 147 164
-1.9692 -86.1857 -1342 152 148 165
0.69745 -86.3141 -1344 146 142 159
3.37456 -86.507 -1347 144 140 157
6.05463 -86.5716 -1348 142 138 155
8.75168 -86.7649 -1351 140 138 157
11.4523 -86.8942 -1353 134 132 151
14.1504 -86.9595 -1354 131 129 148
16.89 -87.2178 -1358 129 127 145
19.6456 -87.4762 -1362 126 124 141
22.4502 -87.8634 -1368 125 123 140
25.2235 -88.0581 -1371 124 122 139
28.07 -88.4458 -1377 119 117 136
30.8959 -88.7053 -1381 119 117 133
33.6892 -88.8367 -1383 119 118 132
36.5171 -89.0324 -1386 120 119 133
39.3572 -89.2283 -1389 124 123 136
42.1792 -89.3603 -1391 130 129 141
45.0097 -89.4926 -1393 134 133 146
47.8826 -89.6893 -1396 130 129 143
50.659 -89.6936 -1396 132 131 144
53.474 -89.7624 -1397 140 137 149
56.3339 -89.8956 -1399 163 159 170
59.0753 -89.8363 -1398 170 166 177
61.8131 -89.7772 -1397 169 165 177
64.6399 -89.847 -1398 163 159 172
67.4714 -89.917 -1399 158 157 167
70.257 -89.9229 -1399 156 155 165
73.2522 -90.1863 -1403 150 146 158
76.318 -90.5141 -1408 139 135 146
79.7416 -91.2279 -1419 130 127 137
-328.726 -94.6697 -1404 209 206 213
-316.965 -92.078 -1366 210 207 214
-311.574 -91.3077 -1355 208 205 212
-306.915 -90.7403 -1347 207 204 211
-303.646 -90.5775 -1345 205 201 209
-300.613 -90.4824 -1344 201 196 204
-297.586 -90.3876 -1343 193 188 196
-295.005 -90.4277 -1344 187 182 190
-292.422 -90.4679 -1345 188 183 191
-289.622 -90.4412 -1345 191 185 193
-286.612 -90.3476 -1344 190 185 193
-283.819 -90.3214 -1344 190 185 193
-281.029 -90.2956 -1344 191 186 194
-278.241 -90.27 -1344 192 187 195
-275.455 -90.2446 -1344 196 191 199
-272.469 -90.1525 -1343 198 193 201
-269.69 -90.1278 -1343 198 193 201
-266.715 -90.0362 -1342 200 195 203
-263.943 -90.012 -1342 201 196 204
-261.367 -90.055 -1343 202 197 205
-258.405 -89.9643 -1342 208 203 211
-255.448 -89.8737 -1341 210 205 213
-252.122 -89.6496 -1338 211 206 213
-248.996 -89.4929 -1336 211 207 214
-245.512 -89.2025 -1332 212 208 214
-242.593 -89.1132 -1331 212 208 215
-239.86 -89.0913 -1331 212 207 214
-236.951 -89.0028 -1330 211 207 213
-233.52 -88.7137 -1326 210 206 213
-230.804 -88.6928 -1326 210 206 211
-227.745 -88.5381 -1324 210 206 211
-224.527 -88.3171 -1321 207 203 208
-221.323 -88.0964 -1318 206 202 207
-218.63 -88.0764 -1318 206 202 207
-215.12 -87.7227 -1313 207 203 208
-212.118 -87.5697 -1311 207 203 208
-209.126 -87.4171 -1309 207 203 208
-206.459 -87.3983 -1309 208 204 209
-203.637 -87.313 -1308 207 203 208
-200.822 -87.228 -1307 205 201 206
-198.013 -87.1433 -1306 206 202 207
-195.209 -87.0588 -1305 206 202 207
-192.263 -86.9079 -1303 205 201 206
-189.473 -86.8241 -1302 206 202 207
-186.688 -86.7403 -1301 207 203 208
-184.05 -86.7237 -1301 207 203 208
-181.274 -86.6406 -1300 204 200 205
-178.642 -86.6244 -1300 203 199 204
-175.875 -86.5418 -1299 201 197 202
-173.114 -86.4595 -1298 199 195 200
-170.358 -86.3774 -1297 199 195 200
-167.608 -86.2956 -1296 200 196 201
-164.863 -86.2142 -1295 200 196 201
-162.123 -86.1328 -1294 201 197 203
-159.512 -86.1184 -1294 201 196 204
-156.781 -86.0377 -1293 203 198 206
-154.056 -85.9573 -1292 204 199 207
-151.57 -86.0101 -1293 203 199 204
-148.966 -85.9966 -1293 202 198 203
-146.251 -85.9169 -1292 199 195 200
-143.651 -85.9039 -1292 198 193 201
-141.053 -85.8911 -1292 201 196 203
-138.349 -85.8122 -1291 202 197 205
-135.65 -85.7334 -1290 201 197 203
-133.162 -85.7878 -1291 200 196 201
-130.571 -85.776 -1291 196 192 196
-127.782 -85.6315 -1289 192 188 192
-125.002 -85.4874 -1287 194 189 197
-122.421 -85.4764 -1287 197 192 200
-119.748 -85.3992 -1286 199 194 201
-117.354 -85.5214 -1288 198 193 201
-114.774 -85.5109 -1288 197 192 200
-112.283 -85.5672 -1289 199 194 202
-109.788 -85.6238 -1290 200 195 203
-107.207 -85.6141 -1290 197 192 200
-104.546 -85.5383 -1289 196 191 202
-102.048 -85.5954 -1290 194 189 201
-99.4694 -85.5864 -1290 191 186 199
-96.7416 -85.4449 -1288 187 182 193
-94.2418 -85.5027 -1289 182 177 188
-91.7389 -85.5608 -1290 183 178 189
-89.0944 -85.4864 -1289 185 180 191
-86.6561 -85.6113 -1291 185 180 191
-84.2104 -85.7362 -1293 185 180 191
-81.6311 -85.7289 -1293 186 181 192
-79.0526 -85.7217 -1293 185 180 191
-76.593 -85.8474 -1295 186 181 192
-73.9545 -85.7744 -1294 187 182 193
-71.3757 -85.768 -1294 185 180 191
-68.8508 -85.8279 -1295 183 178 190
-66.3735 -85.9545 -1297 178 173 186
-63.8397 -86.015 -1298 171 166 179
-61.3495 -86.1419 -1300 167 162 175
-58.8519 -86.2691 -1302 168 163 178
-56.3036 -86.3303 -1303 170 165 179
-53.7518 -86.3917 -1304 166 161 174
-51.1964 -86.4532 -1305 162 158 171
-48.6747 -86.5813 -1307 164 160 173
-46.1102 -86.6433 -1308 165 161 174
-43.6086 -86.8381 -1311 161 157 170
-40.9702 -86.7681 -1310 160 155 168
-38.4534 -86.9632 -1313 164 159 174
-35.8977 -87.0924 -1315 163 158 173
-33.3342 -87.2218 -1317 163 158 173
-30.7631 -87.3514 -1319 155 150 165
-28.2056 -87.5475 -1322 148 144 159
-25.5784 -87.5451 -1322 148 143 158
-22.9513 -87.543 -1322 151 146 161
-20.3399 -87.6073 -1323 149 145 162
-17.7246 -87.6717 -1324 146 142 159
-15.1169 -87.8026 -1326 144 140 157
-12.5202 -88.0663 -1330 150 146 163
-9.90025 -88.264 -1333 152 148 165
-7.26849 -88.4618 -1336 151 147 165
-4.62487 -88.66 -1339 152 148 165
-1.96937 -88.8583 -1342 151 147 164
0.697515 -88.9907 -1344 146 142 159
3.37486 -89.1895 -1347 145 141 158
6.05516 -89.2561 -1348 144 140 157
8.74597 -89.3892 -1350 138 136 155
11.4448 -89.5226 -1352 135 133 152
14.1621 -89.7223 -1355 134 132 151
16.9039 -89.9887 -1359 130 128 147
19.6763 -90.3214 -1364 126 124 142
22.4521 -90.5882 -1368 125 123 140
25.2625 -90.9214 -1373 125 123 140
28.0521 -91.1224 -1376 120 118 135
30.8986 -91.4561 -1381 119 118 133
33.7165 -91.6577 -1384 119 118 132
36.5466 -91.8595 -1387 121 120 134
39.389 -92.0615 -1390 125 124 137
42.2134 -92.1977 -1392 130 129 141
45.0136 -92.2678 -1393 132 131 144
47.8525 -92.4044 -1395 132 131 143
50.6634 -92.475 -1396 133 132 144
53.4787 -92.5459 -1397 140 137 149
56.3388 -92.6832 -1399 164 160 172
59.1227 -92.6885 -1399 171 167 179
61.8627 -92.6276 -1398 171 167 179
64.692 -92.6994 -1399 166 162 175
67.5255 -92.7717 -1400 163 162 172
70.3134 -92.7777 -1400 159 158 168
73.2586 -92.9829 -1403 152 149 160
76.3246 -93.3211 -1408 143 140 150
79.8609 -94.1896 -1421 131 128 138
-317.226 -94.9181 -1367 209 206 213
-311.373 -93.9858 -1354 208 205 212
-306.943 -93.4706 -1347 206 203 210
-303.449 -93.2335 -1344 203 199 206
-300.417 -93.1356 -1343 198 193 201
-297.614 -93.1072 -1343 192 187 195
-294.813 -93.0792 -1343 189 184 192
-292.232 -93.1208 -1344 191 186 194
-289.649 -93.1625 -1345 193 188 196
-286.639 -93.066 -1344 194 189 197
-283.846 -93.0391 -1344 194 189 197
-281.473 -93.1509 -1346 193 188 196
-278.474 -93.0553 -1345 194 189 197
-275.686 -93.0292 -1345 194 190 197
-272.697 -92.9342 -1344 195 191 198
-269.514 -92.7704 -1342 196 192 199
-266.74 -92.7452 -1342 198 194 201
-263.77 -92.6512 -1341 201 197 204
-261.002 -92.6265 -1341 205 201 208
-258.043 -92.533 -1340 210 206 214
-255.472 -92.578 -1341 211 207 215
-252.145 -92.347 -1338 210 207 214
-249.205 -92.2545 -1337 211 207 215
-245.719 -91.9553 -1333 211 207 214
-242.797 -91.8635 -1332 209 205 212
-239.702 -91.703 -1330 207 203 211
-236.617 -91.5428 -1328 208 204 212
-233.366 -91.3141 -1325 209 204 212
-230.651 -91.2924 -1325 206 202 207
-227.25 -90.9954 -1321 204 200 205
-224.548 -90.9743 -1321 203 199 204
-221.511 -90.8159 -1319 202 198 203
-218.65 -90.7264 -1318 205 201 206
-215.304 -90.4308 -1314 207 203 208
-212.137 -90.2044 -1311 207 203 208
-209.304 -90.1161 -1310 209 205 210
-206.635 -90.0967 -1310 208 204 209
-203.656 -89.9401 -1308 206 202 207
-200.841 -89.8526 -1307 205 201 206
-198.182 -89.8339 -1307 206 202 207
-195.077 -89.6094 -1304 206 202 207
-192.133 -89.4541 -1302 204 200 205
-189.49 -89.4364 -1302 205 201 206
-186.705 -89.3502 -1301 206 202 207
-183.925 -89.2643 -1300 205 201 206
-181.151 -89.1786 -1299 205 201 206
-178.52 -89.162 -1299 205 201 206
-175.755 -89.077 -1298 201 197 203
-172.996 -88.9922 -1297 200 196 202
-170.242 -88.9076 -1296 203 199 205
-167.623 -88.892 -1296 206 202 208
-164.878 -88.8081 -1295 207 203 209
-161.887 -88.5872 -1292 207 202 209
-159.404 -88.641 -1293 207 202 210
-156.553 -88.4893 -1291 208 203 211
-154.07 -88.5434 -1292 206 201 209
-151.467 -88.5293 -1292 204 200 205
-148.98 -88.5839 -1293 202 198 204
-146.264 -88.5018 -1292 200 196 202
-143.664 -88.4884 -1292 201 196 204
-140.957 -88.4068 -1291 202 197 205
-138.362 -88.3938 -1291 205 200 208
-135.662 -88.3128 -1290 203 199 205
-133.174 -88.3688 -1291 201 197 201
-130.481 -88.2883 -1290 198 194 197
-127.694 -88.1395 -1288 192 188 192
-125.013 -88.0595 -1287 194 189 197
-122.432 -88.0481 -1287 200 195 203
-119.852 -88.0369 -1287 201 196 204
-117.365 -88.0944 -1288 197 192 200
-114.785 -88.0837 -1288 196 191 199
-112.293 -88.1416 -1289 198 193 201
-109.798 -88.1999 -1290 199 194 202
-107.217 -88.1898 -1290 197 192 200
-104.474 -88.0434 -1288 196 191 202
-102.057 -88.1706 -1290 194 189 200
-99.4013 -88.093 -1289 190 185 197
-96.7503 -88.0156 -1288 187 182 193
-94.3235 -88.1436 -1290 186 181 192
-91.8182 -88.2033 -1291 187 182 193
-89.1716 -88.1267 -1290 186 181 192
-86.731 -88.2553 -1292 187 182 193
-84.218 -88.3157 -1293 188 183 194
-81.5754 -88.2399 -1292 185 180 191
-79.0597 -88.3008 -1293 184 179 190
-76.5999 -88.4301 -1295 187 182 193
-73.9611 -88.355 -1294 188 183 194
-71.3822 -88.3484 -1294 186 181 192
-68.857 -88.4102 -1295 183 178 189
-66.3284 -88.4723 -1296 178 173 186
-63.7962 -88.5345 -1297 173 168 181
-61.2607 -88.5971 -1298 171 166 179
-58.7669 -88.7281 -1300 169 164 179
-56.2223 -88.791 -1301 168 163 178
-53.7566 -88.9908 -1304 166 161 174
-51.2011 -89.0543 -1305 162 158 171
-48.6791 -89.1862 -1307 165 161 174
-46.1144 -89.25 -1308 167 163 176
-43.6125 -89.4506 -1311 164 159 172
-41.0053 -89.4468 -1311 167 162 175
-38.4276 -89.5114 -1312 170 165 180
-35.9009 -89.7127 -1315 166 161 176
-33.3372 -89.846 -1317 164 159 174
-30.7425 -89.9111 -1318 158 153 168
-28.1655 -90.0449 -1320 151 146 161
-25.5614 -90.1107 -1321 149 144 159
-22.9188 -90.0402 -1320 149 144 160
-20.3263 -90.1747 -1322 151 147 164
-17.6994 -90.173 -1322 148 144 161
-15.1069 -90.3761 -1325 146 142 159
-12.5025 -90.5795 -1328 151 147 164
-9.8937 -90.8513 -1332 153 149 166
-7.26369 -91.0551 -1335 155 151 168
-4.62183 -91.2592 -1338 153 149 166
-1.96807 -91.4636 -1341 147 143 161
0.697064 -91.5999 -1343 144 140 157
3.37266 -91.8047 -1346 144 140 157
6.05122 -91.8733 -1347 145 141 158
8.74676 -92.0786 -1350 138 136 155
11.4458 -92.216 -1352 134 132 152
14.1529 -92.3536 -1354 135 133 152
16.9056 -92.696 -1359 133 131 150
19.6636 -92.9705 -1363 126 124 143
22.487 -93.45 -1370 122 120 137
25.2647 -93.6567 -1373 119 117 134
28.0954 -94.0003 -1378 115 113 130
30.9238 -94.2758 -1382 119 118 132
33.7926 -94.6198 -1387 119 118 132
36.5763 -94.6914 -1388 120 119 133
39.3643 -94.7631 -1389 126 125 138
42.2475 -95.0397 -1393 130 129 141
45.0177 -95.0437 -1393 130 129 141
47.8225 -95.1161 -1394 132 131 143
50.5953 -95.1208 -1394 133 132 144
53.4453 -95.262 -1396 139 136 149
56.223 -95.267 -1396 158 154 167
59.0434 -95.3405 -1397 170 166 179
61.8684 -95.4144 -1398 170 166 179
64.744 -95.5567 -1400 167 163 176
67.5798 -95.6309 -1401 164 162 173
70.37 -95.6374 -1401 161 159 169
73.3696 -95.917 -1405 153 150 160
76.3316 -96.1286 -1408 146 143 153
79.7557 -96.8869 -1419 134 131 141
83.5153 -97.9868 -1435 121 118 128
-317.257 -97.6916 -1367 210 207 214
-310.943 -96.589 -1352 208 205 212
-306.745 -96.1304 -1346 203 200 207
-303.252 -95.8864 -1343 200 197 204
-300.446 -95.8569 -1343 198 193 201
-297.642 -95.8277 -1343 192 187 195
-295.061 -95.8702 -1344 189 184 192
-292.26 -95.8416 -1344 189 184 192
-289.677 -95.8847 -1345 192 187 195
-286.666 -95.7853 -1344 194 189 197
-283.873 -95.7576 -1344 194 189 197
-281.5 -95.8726 -1346 193 188 196
-278.5 -95.7743 -1345 194 189 197
-275.917 -95.8185 -1346 195 191 199
-272.926 -95.7207 -1345 196 193 200
-269.54 -95.4809 -1342 197 194 201
-266.566 -95.3839 -1341 200 197 204
-263.599 -95.2871 -1340 204 201 208
-260.832 -95.2617 -1340 207 204 211
-258.068 -95.2366 -1340 211 208 215
-255.306 -95.2118 -1340 212 209 216
-252.169 -95.0453 -1338 210 207 214
-249.415 -95.021 -1338 211 208 215
-245.926 -94.713 -1334 212 209 216
-243.003 -94.6185 -1333 210 207 214
-239.905 -94.4533 -1331 207 204 211
-236.817 -94.2884 -1329 208 204 212
-233.388 -93.982 -1325 210 205 213
-230.673 -93.9597 -1325 208 204 209
-227.444 -93.725 -1322 205 201 206
-224.569 -93.6323 -1321 204 200 205
-221.532 -93.4692 -1319 202 198 203
-218.837 -93.448 -1319 201 197 202
-215.488 -93.1438 -1315 204 200 205
-212.481 -92.9816 -1313 206 202 207
-209.484 -92.8198 -1311 208 204 209
-206.497 -92.6582 -1309 208 204 209
-203.675 -92.5679 -1308 207 203 208
-200.86 -92.4776 -1307 207 203 208
-198.201 -92.4586 -1307 208 204 209
-195.096 -92.2276 -1304 206 202 207
-192.004 -91.9969 -1301 203 199 204
-189.508 -92.0493 -1302 203 199 204
-186.722 -91.9606 -1301 204 200 205
-183.943 -91.8724 -1300 205 201 206
-181.029 -91.7135 -1298 206 202 207
-178.4 -91.6964 -1298 205 200 208
-175.637 -91.6089 -1297 203 198 206
-172.879 -91.5217 -1296 203 198 206
-170.127 -91.4346 -1295 205 200 208
-167.639 -91.489 -1296 206 201 209
-164.893 -91.4027 -1295 206 201 209
-162.028 -91.2459 -1293 206 201 209
-159.542 -91.3013 -1294 209 204 212
-156.689 -91.145 -1292 211 206 214
-154.084 -91.1303 -1292 210 205 213
-151.481 -91.1158 -1292 209 205 210
-148.994 -91.1719 -1293 209 205 211
-146.278 -91.0874 -1292 209 204 212
-143.678 -91.0736 -1292 208 203 211
-140.97 -90.9896 -1291 204 199 207
-138.374 -90.9765 -1291 201 196 204
-135.78 -90.9634 -1291 201 196 202
-133.187 -90.9506 -1291 202 198 201
-130.595 -90.9381 -1291 202 198 201
-127.805 -90.785 -1289 198 194 198
-125.025 -90.6322 -1287 197 192 200
-122.444 -90.6204 -1287 198 193 201
-119.864 -90.609 -1287 201 196 204
-117.376 -90.6682 -1288 201 196 204
-114.796 -90.6571 -1288 201 196 204
-112.303 -90.7167 -1289 199 194 202
-109.723 -90.7062 -1289 197 192 200
-107.227 -90.7663 -1290 194 189 197
-104.484 -90.6156 -1288 194 189 200
-101.987 -90.6762 -1289 193 188 199
-99.4106 -90.6666 -1289 189 184 195
-96.8345 -90.6573 -1289 188 183 194
-94.3323 -90.7187 -1290 189 184 195
-91.8268 -90.7802 -1291 188 183 194
-89.1799 -90.7013 -1290 186 181 192
-86.8062 -90.904 -1293 186 181 192
-84.2258 -90.8959 -1293 185 180 191
-81.6461 -90.888 -1293 185 180 191
-79.1894 -91.0211 -1295 185 180 191
-76.6662 -91.0839 -1296 185 180 191
-74.0252 -91.0066 -1295 184 179 190
-71.444 -90.9997 -1295 181 176 187
-68.8102 -90.9229 -1294 178 173 184
-66.2322 -90.9164 -1294 174 169 183
-63.753 -91.0508 -1296 170 165 178
-61.2192 -91.1153 -1297 169 164 177
-58.7723 -91.3203 -1300 174 169 184
-56.2275 -91.3851 -1301 170 165 179
-53.7617 -91.5907 -1304 166 161 174
-51.2058 -91.6559 -1305 167 162 175
-48.6836 -91.7917 -1307 169 164 177
-46.1186 -91.8575 -1308 168 164 177
-43.6166 -92.064 -1311 167 163 176
-41.009 -92.06 -1311 167 162 175
-38.4605 -92.1966 -1313 161 156 171
-35.9042 -92.3336 -1315 158 153 168
-33.315 -92.4005 -1316 162 157 172
-30.7454 -92.538 -1318 160 155 170
-28.1467 -92.6054 -1319 154 149 164
-25.5444 -92.6731 -1320 147 142 158
-22.9035 -92.6007 -1319 149 144 159
-20.3282 -92.8091 -1322 152 147 164
-17.7145 -92.8775 -1323 152 147 164
-15.1197 -93.0866 -1326 151 147 164
-12.5037 -93.2257 -1328 153 149 166
-9.88718 -93.4353 -1331 152 148 165
-7.25892 -93.6451 -1334 155 151 168
-4.61534 -93.7849 -1336 152 148 165
-1.96532 -93.9952 -1339 148 144 161
0.696614 -94.2058 -1342 147 143 160
3.37298 -94.4867 -1346 148 144 161
6.05178 -94.5574 -1347 147 143 160
8.74757 -94.7687 -1350 135 132 153
11.4469 -94.91 -1352 133 131 152
14.1647 -95.1218 -1355 133 131 151
16.9071 -95.4041 -1359 129 128 146
19.6654 -95.6867 -1363 124 122 141
22.4891 -96.1802 -1370 124 122 139
25.2855 -96.4632 -1374 124 122 139
28.098 -96.7466 -1378 120 118 135
30.9714 -97.1706 -1384 119 118 132
33.7958 -97.3843 -1387 118 117 131
36.6062 -97.528 -1389 121 120 134
39.4247 -97.672 -1391 124 123 136
42.3121 -97.9567 -1395 126 125 137
45.0864 -97.9609 -1395 129 128 140
47.8955 -98.0355 -1396 133 132 144
50.6365 -97.9699 -1395 135 134 146
53.4503 -98.045 -1396 141 138 151
56.2282 -98.0503 -1396 157 153 166
59.049 -98.1259 -1397 168 164 177
61.9184 -98.2721 -1399 168 164 177
64.8425 -98.4887 -1402 167 163 176
67.6827 -98.5654 -1403 164 161 171
70.477 -98.5718 -1403 161 158 168
73.3765 -98.7193 -1405 154 151 161
76.3929 -99.0073 -1409 148 145 155
79.8194 -99.7877 -1420 137 134 144
83.8141 -101.201 -1440 122 119 129
-317.521 -100.539 -1368 210 207 214
-311.894 -99.6258 -1356 207 204 211
-307.231 -99.0071 -1348 202 199 206
-303.508 -98.6827 -1344 200 197 204
-300.7 -98.6524 -1344 196 193 200
-297.672 -98.549 -1343 192 187 195
-294.87 -98.5192 -1343 188 183 191
-292.506 -98.6366 -1345 189 184 192
-289.706 -98.6074 -1345 189 184 192
-286.908 -98.5785 -1345 189 184 192
-284.112 -98.5501 -1345 187 184 191
-281.737 -98.6684 -1347 188 185 192
-278.942 -98.6404 -1347 192 189 196
-275.944 -98.5394 -1346 195 192 199
-272.953 -98.4389 -1345 199 196 203
-269.767 -98.2654 -1343 201 198 205
-266.791 -98.1657 -1342 202 199 206
-263.821 -98.0661 -1341 204 201 208
-260.858 -97.9668 -1340 205 202 209
-258.093 -97.941 -1340 208 205 212
-255.521 -97.9885 -1341 211 208 215
-252.382 -97.8172 -1339 211 208 215
-249.626 -97.7923 -1339 212 209 216
-246.319 -97.5485 -1336 211 208 215
-243.209 -97.3783 -1334 210 207 214
-240.109 -97.2083 -1332 208 205 212
-237.019 -97.0389 -1330 209 204 212
-233.587 -96.7237 -1326 210 205 213
-230.695 -96.6278 -1325 207 203 208
-227.466 -96.3864 -1322 204 200 205
-224.591 -96.2912 -1321 205 201 206
-221.721 -96.1962 -1320 204 200 205
-218.858 -96.1015 -1319 203 199 204
-215.673 -95.8616 -1316 204 200 205
-212.502 -95.622 -1313 205 201 206
-209.664 -95.5283 -1312 206 202 207
-206.675 -95.3622 -1310 206 202 207
-203.851 -95.2691 -1309 206 202 207
-201.033 -95.1764 -1308 206 202 207
-198.22 -95.084 -1307 207 203 208
-195.114 -94.8465 -1304 205 201 206
-192.022 -94.6091 -1301 205 201 206
-189.09 -94.4449 -1299 204 200 205
-186.454 -94.4266 -1299 203 199 204
-183.536 -94.263 -1297 205 201 206
-180.628 -94.0997 -1295 207 203 208
-178.142 -94.1549 -1296 206 201 209
-175.518 -94.1374 -1296 206 201 209
-172.762 -94.0477 -1295 205 200 208
-170.143 -94.0309 -1295 205 200 208
-167.655 -94.087 -1296 204 199 207
-164.909 -93.9981 -1295 204 199 207
-162.169 -93.9094 -1294 204 199 207
-159.557 -93.8936 -1294 207 202 210
-156.826 -93.8057 -1293 211 206 214
-154.338 -93.863 -1294 211 206 214
-151.73 -93.848 -1294 208 204 209
-149.008 -93.7608 -1293 208 203 210
-146.292 -93.6739 -1292 207 202 210
-143.581 -93.5872 -1291 203 198 206
-140.874 -93.5009 -1290 201 196 204
-138.281 -93.4872 -1290 200 195 203
-135.688 -93.4738 -1290 200 195 200
-133.096 -93.4606 -1290 200 196 199
-130.405 -93.3755 -1289 201 197 200
-127.718 -93.2904 -1288 201 197 200
-125.037 -93.2056 -1287 197 193 198
-122.456 -93.1935 -1287 198 194 201
-119.968 -93.2542 -1288 201 196 204
-117.478 -93.3149 -1289 200 195 203
-114.807 -93.2313 -1288 199 194 203
-112.314 -93.2926 -1289 198 193 202
-109.734 -93.2818 -1289 196 191 199
-107.154 -93.2713 -1289 193 188 196
-104.413 -93.1163 -1287 193 188 199
-101.918 -93.1786 -1288 192 187 198
-99.343 -93.1688 -1288 189 184 195
-96.8437 -93.2316 -1289 189 184 195
-94.3413 -93.2946 -1290 188 183 194
-91.8356 -93.3578 -1291 188 183 194
-89.2576 -93.349 -1291 188 183 194
-86.7474 -93.4127 -1292 186 181 192
-84.1687 -93.4045 -1292 184 179 190
-81.5907 -93.3964 -1292 183 178 189
-79.1358 -93.5333 -1294 183 178 189
-76.5552 -93.5256 -1294 183 178 189
-73.9751 -93.5184 -1294 179 174 185
-71.4508 -93.5835 -1295 176 171 182
-68.87 -93.5768 -1295 175 170 181
-66.2897 -93.5702 -1295 171 166 181
-63.759 -93.6362 -1296 167 162 176
-61.1778 -93.6302 -1296 165 160 173
-58.7327 -93.841 -1299 169 164 179
-56.1897 -93.9077 -1300 171 166 180
-53.6843 -94.0468 -1302 168 163 176
-51.1715 -94.1862 -1304 166 161 174
-48.651 -94.3258 -1306 165 160 173
-46.123 -94.4657 -1308 164 160 173
-43.5874 -94.6057 -1310 166 162 175
-41.0129 -94.6739 -1311 162 157 170
-38.4348 -94.7423 -1312 154 149 164
-35.9077 -94.9553 -1315 157 152 167
-33.2675 -94.8798 -1314 164 159 174
-30.7017 -95.0211 -1316 161 156 171
-28.1068 -95.0903 -1317 153 148 163
-25.5468 -95.3044 -1320 148 143 160
-22.9057 -95.2298 -1319 148 143 159
-20.3302 -95.4444 -1322 150 145 162
-17.7027 -95.4425 -1322 151 147 164
-15.1097 -95.6575 -1325 153 149 166
-12.486 -95.7284 -1326 154 150 167
-9.88068 -96.0161 -1330 153 149 166
-7.24872 -96.1597 -1332 154 150 167
-4.61577 -96.4479 -1336 151 147 164
-1.9655 -96.6642 -1339 149 145 162
0.696685 -96.8807 -1342 148 143 162
3.3708 -97.0975 -1345 149 144 162
6.05685 -97.3145 -1348 147 143 160
8.75488 -97.5318 -1351 136 133 154
11.4564 -97.6771 -1353 133 131 152
14.1767 -97.8949 -1356 132 130 149
16.9336 -98.2574 -1361 128 126 145
19.6673 -98.4036 -1363 125 123 142
22.4912 -98.911 -1370 127 125 142
25.2879 -99.2021 -1374 126 124 141
28.121 -99.5657 -1379 122 120 137
30.9519 -99.8573 -1383 120 118 133
33.7991 -100.149 -1387 122 121 135
36.5833 -100.225 -1388 123 122 136
39.4001 -100.373 -1390 122 121 134
42.2858 -100.666 -1394 124 123 135
45.0584 -100.67 -1394 131 130 142
47.8659 -100.747 -1395 134 133 145
50.5687 -100.607 -1393 136 135 148
53.4171 -100.757 -1395 143 140 153
56.1933 -100.762 -1395 158 154 167
59.0546 -100.912 -1397 167 163 174
61.9685 -101.135 -1400 167 163 175
64.895 -101.358 -1403 167 163 176
67.7373 -101.436 -1404 164 161 171
70.5341 -101.443 -1404 162 159 169
73.3835 -101.522 -1405 157 153 163
76.2918 -101.674 -1407 151 148 158
79.6583 -102.404 -1417 139 136 146
83.7058 -103.93 -1438 122 119 129
-318.017 -103.467 -1370 208 205 212
-312.155 -102.453 -1357 206 203 210
-307.49 -101.817 -1349 204 201 208
-304.217 -101.635 -1347 200 197 204
-301.178 -101.528 -1346 194 191 198
-298.145 -101.422 -1345 192 187 195
-295.34 -101.391 -1345 190 185 193
-292.753 -101.437 -1346 191 186 194
-290.166 -101.482 -1347 190 185 193
-287.363 -101.452 -1347 192 187 195
-284.563 -101.423 -1347 190 187 194
-281.975 -101.469 -1348 191 188 195
-279.177 -101.44 -1348 193 190 197
-276.177 -101.336 -1347 195 192 199
-273.184 -101.233 -1346 201 198 205
-270.196 -101.13 -1345 203 200 207
-267.216 -101.027 -1344 203 200 207
-263.848 -100.775 -1341 202 199 206
-260.884 -100.673 -1340 201 198 205
-258.119 -100.646 -1340 205 202 209
-255.357 -100.62 -1340 210 207 214
-252.408 -100.519 -1339 211 208 215
-249.651 -100.493 -1339 213 210 217
-246.713 -100.393 -1338 212 209 216
-243.78 -100.293 -1337 210 207 214
-240.313 -99.9683 -1333 209 206 213
-237.042 -99.719 -1330 207 203 211
-233.786 -99.4703 -1327 205 200 209
-230.719 -99.2967 -1325 204 200 205
-227.489 -99.0487 -1322 204 200 205
-224.613 -98.9506 -1321 206 202 207
-221.744 -98.8532 -1320 207 203 208
-218.548 -98.6062 -1317 207 203 208
-215.531 -98.4344 -1315 206 202 207
-212.523 -98.263 -1313 206 202 207
-209.525 -98.0919 -1311 204 200 205
-206.538 -97.9212 -1309 204 200 205
-203.716 -97.8256 -1308 204 200 205
-200.899 -97.7303 -1307 204 200 205
-198.089 -97.6354 -1306 206 202 207
-195.134 -97.466 -1304 206 202 207
-192.041 -97.2222 -1301 206 202 207
-189.108 -97.0535 -1299 206 202 207
-186.472 -97.0346 -1299 205 201 206
-183.554 -96.8665 -1297 207 203 208
-180.786 -96.7734 -1296 207 203 208
-178.16 -96.7553 -1296 208 203 211
-175.671 -96.8121 -1297 207 202 210
-172.913 -96.7199 -1296 206 201 209
-170.423 -96.7771 -1297 205 200 208
-167.93 -96.8347 -1298 203 198 206
-165.053 -96.6687 -1296 202 197 205
-162.436 -96.6524 -1296 202 197 205
-159.696 -96.5616 -1295 202 197 206
-156.962 -96.471 -1294 207 202 210
-154.353 -96.4555 -1294 208 203 211
-151.628 -96.3655 -1293 205 201 206
-148.908 -96.2759 -1292 203 198 204
-146.08 -96.1121 -1290 202 197 205
-143.483 -96.0974 -1290 202 197 205
-140.779 -96.0087 -1289 202 197 206
-138.187 -95.9947 -1289 201 196 204
-135.596 -95.9809 -1289 197 193 198
-133.006 -95.9674 -1289 195 191 194
-130.317 -95.8799 -1288 196 192 195
-127.731 -95.8669 -1288 197 193 196
-125.049 -95.7799 -1287 195 191 197
-122.468 -95.7674 -1287 197 193 200
-119.98 -95.8296 -1288 201 196 204
-117.399 -95.8178 -1288 200 195 203
-114.729 -95.7318 -1287 198 193 201
-112.238 -95.7947 -1288 195 190 199
-109.659 -95.7837 -1288 193 188 197
-107.081 -95.7728 -1288 192 187 195
-104.504 -95.7623 -1288 193 188 199
-101.928 -95.752 -1288 192 187 198
-99.3527 -95.7419 -1288 189 184 195
-96.8532 -95.8064 -1289 189 184 195
-94.3506 -95.8712 -1290 186 181 192
-91.9158 -96.0105 -1292 186 181 192
-89.3355 -96.0015 -1292 185 180 191
-86.8231 -96.067 -1293 185 180 191
-84.177 -95.9841 -1292 185 180 191
-81.662 -96.0501 -1293 184 179 190
-79.1436 -96.1165 -1294 184 179 190
-76.5627 -96.1086 -1294 183 178 189
-74.0395 -96.1755 -1295 180 175 186
-71.4579 -96.1681 -1295 177 172 183
-68.8768 -96.1612 -1295 174 169 180
-66.3474 -96.2286 -1296 171 166 181
-63.8145 -96.2965 -1297 170 165 179
-61.231 -96.2901 -1297 171 166 180
-58.7837 -96.507 -1300 170 165 180
-56.1952 -96.5013 -1300 172 167 181
-53.6896 -96.6442 -1302 164 159 172
-51.1372 -96.7132 -1303 156 151 164
-48.6186 -96.8566 -1305 157 152 165
-46.057 -96.9261 -1306 161 157 170
-43.5584 -97.1444 -1309 164 160 173
-41.017 -97.2886 -1311 157 152 165
-38.4386 -97.3589 -1312 153 148 163
-35.9385 -97.6519 -1316 162 157 172
-33.2961 -97.5743 -1315 169 164 179
-30.728 -97.7195 -1317 165 160 175
-28.1095 -97.7166 -1317 152 147 162
-25.5493 -97.9366 -1320 142 137 154
-22.9253 -97.9342 -1320 142 137 154
-20.3476 -98.1546 -1323 145 140 157
-17.7179 -98.1527 -1323 149 144 161
-15.1226 -98.3735 -1326 152 148 164
-12.4967 -98.4463 -1327 153 149 166
-9.87421 -98.5936 -1329 151 147 164
-7.24398 -98.7411 -1331 149 145 162
-4.60931 -98.9631 -1334 148 144 161
-1.96275 -99.1853 -1337 149 144 161
0.696239 -99.482 -1341 149 143 163
3.36862 -99.7048 -1344 148 142 161
6.05296 -99.9278 -1347 144 140 157
8.75574 -100.225 -1351 137 135 156
11.4745 -100.523 -1355 132 130 151
14.1885 -100.673 -1357 131 129 148
16.9228 -100.897 -1360 129 127 146
19.6548 -101.047 -1362 127 125 144
22.4441 -101.42 -1367 125 123 140
25.2535 -101.794 -1372 122 120 137
28.1034 -102.241 -1378 120 118 135
30.955 -102.615 -1383 120 118 133
33.8025 -102.915 -1387 121 120 134
36.6132 -103.067 -1389 121 120 134
39.4039 -103.145 -1390 121 120 134
42.2899 -103.446 -1394 127 126 138
45.0953 -103.525 -1395 134 133 145
47.9049 -103.603 -1396 138 137 149
50.6099 -103.46 -1394 139 138 152
53.4223 -103.539 -1395 146 143 156
56.1586 -103.471 -1394 161 157 170
59.0181 -103.625 -1396 168 165 175
61.9305 -103.854 -1399 166 163 174
64.8088 -104.008 -1401 166 162 175
67.6476 -104.089 -1402 163 160 170
70.4907 -104.17 -1403 163 159 170
73.3908 -104.326 -1405 160 155 166
76.245 -104.408 -1406 154 150 160
79.61 -105.158 -1416 142 139 149
83.423 -106.429 -1433 123 120 130
-319.443 -106.715 -1376 208 205 212
-312.418 -105.285 -1358 207 204 211
-307.751 -104.632 -1350 205 202 209
-304.023 -104.29 -1346 202 199 206
-300.762 -104.103 -1344 198 195 203
-297.955 -104.071 -1344 195 191 199
-294.711 -103.885 -1342 190 185 193
-292.349 -104.009 -1344 190 185 193
-289.981 -104.133 -1346 190 185 193
-287.393 -104.18 -1347 190 185 193
-284.382 -104.072 -1346 190 187 194
-281.795 -104.12 -1347 192 189 196
-279.206 -104.168 -1348 193 190 197
-276.001 -103.984 -1346 196 193 200
-273.212 -103.955 -1346 201 198 205
-270.224 -103.849 -1345 203 200 207
-267.243 -103.744 -1344 205 202 209
-264.072 -103.561 -1342 205 202 209
-260.911 -103.379 -1340 204 201 208
-258.146 -103.352 -1340 207 204 211
-255.574 -103.402 -1341 210 207 214
-252.622 -103.299 -1340 212 209 216
-249.677 -103.195 -1339 212 209 216
-246.922 -103.169 -1339 209 206 214
-243.805 -102.99 -1337 207 204 212
-240.518 -102.733 -1334 207 204 211
-237.423 -102.554 -1332 205 200 209
-234.163 -102.298 -1329 203 198 207
-230.916 -102.043 -1326 201 197 202
-227.512 -101.712 -1322 203 199 204
-224.636 -101.611 -1321 205 201 206
-221.599 -101.434 -1319 207 203 208
-218.239 -101.103 -1315 209 205 210
-215.389 -101.004 -1314 208 204 209
-212.545 -100.905 -1313 207 203 208
-209.387 -100.652 -1310 205 201 206
-206.559 -100.554 -1309 205 201 206
-203.892 -100.533 -1309 205 201 206
-200.92 -100.358 -1307 203 199 204
-198.261 -100.337 -1307 204 200 205
-195.304 -100.163 -1305 206 202 207
-192.209 -99.9128 -1302 206 202 207
-189.273 -99.7396 -1300 205 201 206
-186.778 -99.7968 -1301 207 203 208
-183.573 -99.4707 -1297 208 204 209
-180.944 -99.4518 -1297 207 203 208
-178.178 -99.3566 -1296 207 202 210
-175.689 -99.4149 -1297 207 202 210
-172.93 -99.3203 -1296 207 202 210
-170.572 -99.4556 -1298 205 200 208
-167.947 -99.4382 -1298 202 197 205
-165.07 -99.2677 -1296 201 196 204
-162.452 -99.2508 -1296 201 196 204
-159.713 -99.1576 -1295 201 196 205
-156.978 -99.0646 -1294 202 197 205
-154.488 -99.1252 -1295 204 199 207
-151.761 -99.0328 -1294 201 197 202
-148.923 -98.8643 -1292 200 196 202
-146.208 -98.7724 -1291 202 197 205
-143.498 -98.681 -1290 201 196 205
-140.793 -98.5899 -1289 200 195 204
-138.201 -98.5755 -1289 200 195 203
-135.61 -98.5614 -1289 198 193 199
-132.917 -98.4711 -1288 197 193 196
-130.229 -98.3811 -1287 196 192 195
-127.546 -98.2913 -1286 195 191 194
-124.965 -98.2783 -1286 198 193 201
-122.48 -98.3421 -1287 197 192 200
-119.992 -98.4059 -1288 200 195 203
-117.41 -98.3938 -1288 201 196 204
-114.83 -98.3819 -1288 201 196 204
-112.25 -98.3702 -1288 199 194 203
-109.67 -98.3588 -1288 195 190 198
-107.092 -98.3477 -1288 193 188 196
-104.515 -98.3368 -1288 193 188 199
-101.939 -98.3262 -1288 191 186 197
-99.4399 -98.3921 -1289 190 185 196
-96.9382 -98.4583 -1290 189 184 195
-94.4333 -98.5248 -1291 185 180 191
-91.9251 -98.5917 -1292 184 179 190
-89.3446 -98.5824 -1292 183 178 189
-86.7647 -98.5733 -1292 184 179 190
-84.1204 -98.4882 -1291 184 179 190
-81.5439 -98.4799 -1291 184 179 190
-78.9681 -98.4716 -1291 184 179 190
-76.4521 -98.5399 -1292 182 177 188
-73.9898 -98.6848 -1294 178 173 184
-71.5203 -98.8298 -1296 174 169 180
-68.9901 -98.8989 -1297 171 166 177
-66.4565 -98.9682 -1298 168 163 178
-63.9194 -99.0378 -1299 169 164 179
-61.3316 -99.0313 -1299 172 167 182
-58.7896 -99.1015 -1300 170 165 180
-56.244 -99.1717 -1301 170 165 180
-53.695 -99.2424 -1302 164 159 172
-51.1424 -99.3133 -1303 159 154 167
-48.5862 -99.3843 -1304 164 159 172
-46.0616 -99.5319 -1306 167 163 176
-43.5296 -99.6798 -1308 165 161 174
-41.0211 -99.9041 -1311 158 153 166
-38.4718 -100.052 -1313 158 153 168
-35.9421 -100.277 -1316 166 161 176
-33.2995 -100.197 -1315 168 163 178
-30.7545 -100.423 -1318 165 160 175
-28.1123 -100.344 -1317 154 149 164
-25.5325 -100.493 -1319 143 138 155
-22.9102 -100.491 -1319 142 137 154
-20.3496 -100.793 -1323 148 143 160
-17.7331 -100.868 -1324 151 147 163
-15.1241 -101.018 -1326 151 147 162
-12.5073 -101.169 -1328 151 147 164
-9.88263 -101.32 -1330 151 147 164
-7.2447 -101.396 -1331 149 145 162
-4.60976 -101.624 -1334 147 142 159
-1.96294 -101.852 -1337 145 140 157
0.696314 -102.157 -1341 145 139 159
3.36896 -102.385 -1344 145 140 158
6.05806 -102.69 -1348 143 139 156
8.76311 -102.996 -1352 138 136 156
11.4673 -103.149 -1354 134 132 153
14.2004 -103.455 -1358 133 131 150
16.937 -103.686 -1361 130 128 147
19.6568 -103.764 -1362 127 125 144
22.4464 -104.147 -1367 125 123 140
25.2561 -104.53 -1372 122 120 137
28.1064 -104.99 -1378 120 118 135
30.9582 -105.374 -1383 119 117 132
33.7815 -105.606 -1386 118 117 131
36.5905 -105.762 -1388 120 119 133
39.3795 -105.842 -1389 123 122 135
42.2639 -106.151 -1393 125 124 136
45.0675 -106.232 -1394 134 133 145
47.8754 -106.313 -1395 137 136 148
50.615 -106.241 -1394 135 134 148
53.4278 -106.323 -1395 140 137 150
56.2046 -106.329 -1395 157 153 166
59.0665 -106.487 -1397 168 165 175
61.9367 -106.645 -1399 168 164 175
64.8153 -106.804 -1401 166 162 175
67.6544 -106.887 -1402 163 160 170
70.3973 -106.818 -1401 163 159 169
73.2414 -106.902 -1402 158 153 164
76.1443 -107.062 -1404 154 149 160
79.5617 -107.909 -1415 146 141 152
83.4314 -109.29 -1433 126 123 133
-318.085 -109.032 -1370 208 205 212
-312.682 -108.123 -1359 206 203 210
-308.012 -107.452 -1351 200 197 205
-304.281 -107.101 -1347 198 195 202
-300.794 -106.83 -1344 196 193 201
-297.765 -106.718 -1343 192 188 196
-294.743 -106.606 -1342 188 183 191
-292.38 -106.733 -1344 189 185 192
-290.012 -106.86 -1346 189 185 193
-287.211 -106.829 -1346 189 185 193
-284.412 -106.798 -1346 189 186 193
-281.616 -106.768 -1346 191 188 195
-279.029 -106.816 -1347 193 190 197
-275.825 -106.628 -1345 195 192 199
-273.038 -106.598 -1345 197 194 201
-270.253 -106.569 -1345 198 195 202
-267.272 -106.461 -1344 201 198 205
-263.903 -106.195 -1341 203 200 207
-260.939 -106.087 -1340 205 202 209
-257.981 -105.98 -1339 208 205 212
-255.219 -105.952 -1339 210 207 214
-252.272 -105.846 -1338 210 207 215
-249.703 -105.898 -1339 208 205 213
-246.949 -105.871 -1339 205 202 210
-244.014 -105.766 -1338 203 200 208
-240.724 -105.503 -1335 204 201 208
-237.27 -105.161 -1331 204 200 208
-234.188 -104.978 -1329 204 199 208
-230.767 -104.637 -1325 202 198 203
-227.536 -104.375 -1322 204 200 205
-224.49 -104.193 -1320 207 203 208
-221.622 -104.091 -1319 207 203 208
-218.262 -103.751 -1315 209 205 211
-215.248 -103.57 -1313 210 206 211
-212.405 -103.469 -1312 208 204 209
-209.409 -103.288 -1310 207 203 208
-206.738 -103.266 -1310 208 204 209
-204.07 -103.244 -1310 208 204 209
-201.095 -103.065 -1308 205 201 206
-198.13 -102.886 -1306 203 199 204
-195.324 -102.786 -1305 205 201 206
-192.377 -102.608 -1303 205 201 206
-189.293 -102.352 -1300 204 200 205
-186.941 -102.489 -1302 205 201 206
-183.734 -102.155 -1298 207 203 208
-181.102 -102.135 -1298 207 203 208
-178.334 -102.037 -1297 206 201 209
-175.843 -102.097 -1298 206 201 209
-173.082 -102 -1297 205 200 208
-170.59 -102.06 -1298 204 199 207
-167.965 -102.042 -1298 201 196 204
-165.214 -101.946 -1297 201 196 204
-162.469 -101.85 -1296 202 197 205
-159.729 -101.754 -1295 204 199 208
-157.116 -101.738 -1295 204 199 207
-154.504 -101.721 -1295 203 198 206
-151.777 -101.626 -1294 202 198 203
-148.939 -101.453 -1292 203 199 205
-146.223 -101.359 -1291 206 201 209
-143.513 -101.265 -1290 210 205 214
-140.808 -101.172 -1289 206 201 210
-138.108 -101.079 -1288 202 197 205
-135.624 -101.143 -1289 196 192 197
-132.827 -100.971 -1287 194 190 193
-130.242 -100.958 -1287 197 193 196
-127.658 -100.944 -1287 197 193 197
-125.172 -101.009 -1288 198 193 201
-122.588 -100.996 -1288 197 192 200
-120.098 -101.061 -1289 200 195 203
-117.423 -100.971 -1288 199 194 202
-114.841 -100.958 -1288 196 191 199
-112.261 -100.946 -1288 194 189 198
-109.682 -100.935 -1288 193 188 197
-107.103 -100.923 -1288 193 188 196
-104.526 -100.912 -1288 191 186 197
-101.949 -100.901 -1288 191 186 197
-99.3731 -100.891 -1288 192 187 198
-96.8731 -100.959 -1289 191 186 197
-94.3699 -101.027 -1290 187 182 193
-91.8635 -101.095 -1291 186 181 192
-89.3538 -101.164 -1292 185 180 191
-86.7066 -101.076 -1291 183 178 189
-84.064 -100.989 -1290 182 177 188
-81.5524 -101.059 -1291 183 178 189
-78.9763 -101.05 -1291 183 178 189
-76.46 -101.12 -1292 181 176 187
-74.0547 -101.347 -1295 179 174 185
-71.5277 -101.418 -1296 175 170 183
-69.0505 -101.567 -1298 172 167 180
-66.5145 -101.638 -1299 171 166 181
-63.9752 -101.71 -1300 171 166 181
-61.3852 -101.703 -1300 173 168 183
-58.8862 -101.853 -1302 170 165 180
-56.3364 -101.925 -1303 170 165 180
-53.783 -101.998 -1304 168 163 176
-51.1476 -101.914 -1303 165 160 173
-48.6285 -102.065 -1305 167 162 175
-46.0664 -102.138 -1306 167 163 176
-43.5007 -102.212 -1307 164 159 172
-40.9941 -102.442 -1310 163 156 170
-38.4757 -102.673 -1313 165 160 174
-35.9185 -102.825 -1315 168 163 178
-33.3029 -102.821 -1315 164 159 174
-30.7576 -103.053 -1318 160 155 170
-28.1366 -103.049 -1318 150 145 160
-25.5352 -103.125 -1319 143 138 155
-22.9474 -103.279 -1321 143 138 155
-20.3671 -103.511 -1324 151 146 163
-17.7617 -103.665 -1326 154 150 165
-15.1485 -103.82 -1328 151 147 162
-12.5086 -103.819 -1328 150 146 163
-9.89115 -104.052 -1331 150 146 163
-7.25088 -104.129 -1332 151 147 164
-4.61023 -104.285 -1334 151 146 163
-1.96314 -104.519 -1337 149 144 161
0.696391 -104.832 -1341 148 142 162
3.36932 -105.066 -1344 145 140 158
6.05869 -105.38 -1348 143 139 156
8.76401 -105.693 -1352 135 133 153
11.477 -105.929 -1355 133 131 152
14.2018 -106.165 -1358 133 131 151
16.9387 -106.401 -1361 130 128 148
19.6444 -106.403 -1361 127 125 144
22.4159 -106.718 -1365 127 125 143
25.2587 -107.267 -1372 126 124 141
28.1093 -107.739 -1378 122 120 137
30.9614 -108.133 -1383 118 117 131
33.7849 -108.371 -1386 115 114 128
36.5679 -108.453 -1387 121 120 134
39.4121 -108.692 -1390 126 125 138
