ply
format ascii 1.0
comment Created by Open3D
element vertex 1334
property double x
property double y
property double z
property uchar red
property uchar green
property uchar blue
end_header
-257.117 -212.74 -1183 213 210 215
-253.771 -211.958 -1179 215 211 216
-250.445 -211.176 -1175 213 209 214
-247.137 -210.396 -1171 211 207 212
-244.266 -209.976 -1169 212 208 213
-240.992 -209.198 -1165 214 210 215
-237.941 -208.6 -1162 216 211 217
-234.297 -207.465 -1156 221 216 224
-230.881 -206.51 -1151 220 217 224
-227.289 -205.377 -1145 210 207 214
-224.509 -204.963 -1143 206 201 209
-221.351 -204.191 -1139 205 200 208
-218.789 -203.957 -1138 203 198 207
-216.233 -203.725 -1137 202 199 208
-213.87 -203.672 -1137 192 189 201
-211.51 -203.619 -1137 178 176 193
-209.519 -203.926 -1139 173 171 191
-207.34 -204.054 -1140 169 167 188
-205.338 -204.361 -1142 169 167 188
-203.152 -204.49 -1143 177 175 196
-200.964 -204.619 -1144 183 181 203
-198.773 -204.749 -1145 184 179 202
-196.751 -205.058 -1147 181 177 200
-194.723 -205.368 -1149 182 180 201
-192.521 -205.499 -1150 183 181 202
-190.316 -205.631 -1151 183 181 202
-187.945 -205.585 -1151 179 177 199
-185.415 -205.361 -1150 176 173 194
-183.05 -205.316 -1150 176 172 193
-181 -205.628 -1152 174 170 191
-178.789 -205.763 -1153 170 165 187
-176.881 -206.255 -1156 166 161 184
-174.962 -206.747 -1159 167 162 186
-172.883 -207.061 -1161 167 162 187
-170.504 -207.02 -1161 164 162 186
-168.416 -207.335 -1163 161 159 183
-166.179 -207.472 -1164 158 156 180
-164.22 -207.967 -1167 156 154 178
-161.973 -208.106 -1168 155 153 177
-159.723 -208.245 -1169 151 149 175
-157.605 -208.562 -1171 146 144 170
-155.481 -208.88 -1173 146 144 170
-153.219 -209.021 -1174 143 143 171
-151.339 -209.696 -1178 142 141 169
-149.445 -210.372 -1182 140 140 168
-147.286 -210.692 -1184 139 139 167
-144.999 -210.834 -1185 141 141 168
-142.708 -210.977 -1186 141 141 167
-140.651 -211.476 -1189 142 142 168
-138.235 -211.443 -1189 141 141 167
-136.276 -212.121 -1193 136 137 165
-134.078 -212.443 -1195 138 139 166
-132.093 -213.122 -1199 138 138 164
-129.877 -213.446 -1201 138 138 162
-127.76 -213.948 -1204 135 135 159
-125.528 -214.273 -1206 134 134 157
-123.493 -214.953 -1210 135 135 159
-121.142 -215.102 -1211 136 136 162
-118.887 -215.428 -1213 133 133 159
-116.624 -215.754 -1215 131 131 157
-114.26 -215.904 -1216 130 130 156
-111.893 -216.054 -1217 130 130 156
-109.523 -216.205 -1218 131 131 157
-107.15 -216.356 -1219 134 133 159
-104.774 -216.509 -1220 134 133 159
-102.562 -217.016 -1223 132 132 158
-100.421 -217.701 -1227 133 132 158
-98.1848 -218.209 -1230 130 128 154
-96.0928 -219.073 -1235 119 119 143
-93.9815 -219.937 -1240 117 117 141
-91.9983 -221.156 -1247 117 117 141
-89.7723 -221.844 -1251 116 116 142
-87.8798 -223.418 -1260 116 116 142
-86.0871 -225.348 -1271 119 119 143
-84.3166 -227.455 -1283 117 117 140
-82.5621 -229.739 -1296 113 113 136
-80.8177 -232.201 -1310 113 113 135
-78.7789 -233.954 -1320 113 112 133
-76.5851 -235.354 -1328 110 108 127
-74.4155 -236.93 -1337 109 110 128
-72.2638 -238.685 -1347 112 113 131
-70.3309 -241.325 -1362 113 114 132
-333.738 -217.993 -1186 217 215 224
-330.33 -217.357 -1183 221 218 226
-327.493 -217.089 -1182 214 211 218
-324.938 -217.006 -1182 208 204 210
-322.112 -216.74 -1181 199 195 200
-319.565 -216.658 -1181 193 188 196
-316.752 -216.393 -1180 190 185 193
-314.479 -216.496 -1181 186 181 189
-311.94 -216.417 -1181 184 180 185
-309.666 -216.521 -1182 180 176 182
-307.651 -216.809 -1184 176 171 179
-305.887 -217.28 -1187 175 170 178
-303.346 -217.203 -1187 173 168 176
-301.315 -217.492 -1189 174 169 177
-299.278 -217.782 -1191 178 173 181
-296.986 -217.889 -1192 184 179 187
-294.445 -217.815 -1192 193 186 194
-292.642 -218.288 -1195 196 189 198
-289.857 -218.032 -1194 198 193 202
-287.561 -218.142 -1195 201 196 204
-285.024 -218.07 -1195 203 197 205
-282.253 -217.816 -1194 206 199 207
-279.021 -217.198 -1191 208 202 210
-276.5 -217.128 -1191 211 205 214
-273.751 -216.876 -1190 213 208 216
-271.237 -216.808 -1190 214 209 217
-268.726 -216.74 -1190 218 213 221
-266.217 -216.673 -1190 225 222 227
-263.266 -216.242 -1188 225 222 227
-260.547 -215.995 -1187 220 217 222
-256.746 -214.838 -1181 218 215 220
-253.619 -214.229 -1178 217 213 218
-250.294 -213.438 -1174 216 212 217
-247.198 -212.831 -1171 213 209 214
-243.908 -212.042 -1167 213 209 214
-240.845 -211.437 -1164 213 209 214
-237.795 -210.832 -1161 212 208 214
-234.152 -209.684 -1155 219 214 222
-230.938 -208.899 -1151 220 216 224
-227.345 -207.753 -1145 209 206 213
-224.565 -207.334 -1143 208 203 211
-221.601 -206.735 -1140 207 202 210
-218.843 -206.317 -1138 206 201 210
-216.286 -206.082 -1137 201 198 206
-213.923 -206.028 -1137 192 190 200
-211.562 -205.975 -1137 178 176 193
-209.571 -206.285 -1139 170 168 188
-207.391 -206.414 -1140 166 164 185
-205.389 -206.725 -1142 169 167 189
-203.202 -206.856 -1143 175 173 195
-201.013 -206.986 -1144 179 177 199
-198.996 -207.299 -1146 183 178 201
-196.971 -207.611 -1148 183 179 202
-194.771 -207.744 -1149 181 179 200
-192.568 -207.877 -1150 177 176 197
-190.528 -208.191 -1152 177 176 197
-187.991 -207.963 -1151 177 175 197
-185.46 -207.736 -1150 171 168 190
-183.254 -207.871 -1151 173 169 190
-181.044 -208.007 -1152 174 170 191
-178.677 -207.963 -1152 169 165 187
-176.924 -208.641 -1156 162 159 181
-175.005 -209.139 -1159 162 159 182
-172.926 -209.457 -1161 164 161 185
-170.84 -209.775 -1163 160 158 183
-168.747 -210.094 -1165 157 155 180
-166.505 -210.233 -1166 157 155 179
-164.401 -210.553 -1168 157 155 180
-162.151 -210.693 -1169 154 152 177
-160.036 -211.014 -1171 150 148 174
-157.779 -211.155 -1172 147 145 171
-155.651 -211.477 -1174 146 145 171
-153.387 -211.619 -1175 143 143 171
-151.505 -212.302 -1179 141 141 169
-149.608 -212.985 -1183 138 138 166
-147.322 -213.128 -1184 138 138 166
-145.156 -213.453 -1186 138 138 166
-142.863 -213.597 -1187 138 138 164
-140.804 -214.102 -1190 140 140 166
-138.501 -214.248 -1191 139 139 165
-136.538 -214.934 -1195 135 136 164
-134.447 -215.44 -1198 134 135 163
-132.456 -216.127 -1202 137 137 163
-130.233 -216.454 -1204 137 137 162
-127.897 -216.602 -1205 133 133 157
-125.662 -216.931 -1207 130 130 152
-123.523 -217.439 -1210 133 133 156
-121.172 -217.589 -1211 136 136 162
-118.915 -217.919 -1213 133 133 159
-116.748 -218.429 -1216 129 129 155
-114.476 -218.76 -1218 128 128 154
-112.012 -218.733 -1218 128 128 154
-109.64 -218.885 -1219 131 131 157
-107.352 -219.218 -1221 134 132 158
-104.971 -219.371 -1222 134 132 158
-102.755 -219.885 -1225 133 133 159
-100.445 -220.219 -1227 136 134 160
-98.2086 -220.733 -1230 135 133 159
-96.0382 -221.427 -1234 121 121 145
-93.7768 -221.942 -1237 118 118 142
-91.6516 -222.817 -1242 117 117 141
-89.6505 -224.05 -1249 116 116 142
-87.6917 -225.464 -1257 119 119 145
-85.7692 -227.057 -1266 123 123 147
-83.7453 -228.471 -1274 120 120 144
-82.1998 -231.32 -1290 113 113 137
-80.2819 -233.273 -1301 111 111 133
-78.4994 -235.763 -1315 111 110 132
-76.4882 -237.717 -1326 111 109 129
-74.2107 -238.953 -1333 109 109 128
-72.0667 -240.728 -1343 112 113 131
-70.2446 -243.758 -1360 110 111 130
-333.261 -220.118 -1184 218 216 224
-329.857 -219.474 -1181 216 213 221
-327.577 -219.575 -1182 214 211 217
-324.746 -219.305 -1181 206 202 207
-321.922 -219.036 -1180 196 192 196
-319.377 -218.954 -1180 192 187 195
-317.102 -219.057 -1181 184 179 187
-314.293 -218.79 -1180 181 176 184
-312.02 -218.895 -1181 182 178 184
-309.745 -219 -1182 179 175 181
-307.989 -219.477 -1185 175 170 178
-305.707 -219.583 -1186 173 168 176
-303.679 -219.875 -1188 169 164 172
-301.392 -219.983 -1189 173 168 176
-299.103 -220.091 -1190 177 172 180
-296.812 -220.199 -1191 182 177 185
-294.52 -220.309 -1192 190 183 191
-292.471 -220.603 -1194 193 187 195
-289.931 -220.529 -1194 198 193 201
-287.634 -220.64 -1195 202 197 205
-285.096 -220.567 -1195 200 195 203
-282.325 -220.31 -1194 202 195 203
-279.326 -219.869 -1192 206 200 209
-276.802 -219.798 -1192 211 205 214
-274.051 -219.544 -1191 213 208 216
-271.534 -219.474 -1191 215 210 218
-269.02 -219.406 -1191 221 216 224
-266.508 -219.338 -1191 227 224 229
-263.111 -218.534 -1187 226 223 228
-260.173 -218.099 -1185 224 221 226
-256.593 -217.114 -1180 221 217 223
-253.252 -216.313 -1176 219 215 221
-250.143 -215.698 -1173 219 215 220
-247.049 -215.083 -1170 216 212 217
-243.97 -214.47 -1167 214 210 215
-240.905 -213.857 -1164 213 209 214
-237.855 -213.245 -1161 214 210 216
-234.211 -212.084 -1155 219 214 222
-230.795 -211.107 -1150 218 215 222
-227.402 -210.132 -1145 210 207 214
-224.425 -209.524 -1142 210 205 213
-221.462 -208.918 -1139 208 203 211
-219.09 -208.862 -1139 207 202 211
-216.53 -208.624 -1138 202 198 210
-214.165 -208.57 -1138 190 186 199
-211.801 -208.516 -1138 176 174 193
-209.807 -208.829 -1140 167 165 186
-207.443 -208.777 -1140 168 166 188
-205.26 -208.908 -1141 172 170 192
-203.253 -209.223 -1143 173 171 193
-201.239 -209.538 -1145 176 174 196
-199.045 -209.671 -1146 183 180 202
-197.02 -209.988 -1148 185 182 204
-194.819 -210.121 -1149 181 179 200
-192.616 -210.256 -1150 176 175 196
-190.575 -210.573 -1152 175 173 195
-188.201 -210.526 -1152 174 172 194
-185.668 -210.296 -1151 170 167 188
-183.458 -210.433 -1152 172 168 189
-181.246 -210.57 -1153 172 168 189
-178.877 -210.525 -1153 170 167 188
-176.968 -211.028 -1156 166 164 186
-174.897 -211.35 -1158 163 161 184
-172.968 -211.854 -1161 164 163 187
-170.882 -212.176 -1163 162 160 187
-168.644 -212.316 -1164 156 155 181
-166.546 -212.639 -1166 153 152 177
-164.442 -212.962 -1168 152 151 177
-162.192 -213.104 -1169 151 149 175
-160.075 -213.428 -1171 149 148 174
-157.952 -213.753 -1173 146 145 171
-155.69 -213.896 -1174 143 143 169
-153.555 -214.223 -1176 141 141 169
-151.671 -214.913 -1180 141 141 168
-149.771 -215.604 -1184 138 138 166
-147.483 -215.749 -1185 137 137 165
-145.315 -216.077 -1187 138 138 166
-143.139 -216.405 -1189 136 137 163
-141.075 -216.916 -1192 136 136 162
-138.768 -217.063 -1193 136 136 162
-136.686 -217.575 -1196 133 134 162
-134.593 -218.087 -1199 131 132 160
-132.489 -218.6 -1202 132 132 158
-130.157 -218.749 -1203 132 132 157
-127.929 -219.081 -1205 131 131 155
-125.798 -219.595 -1208 128 128 150
-123.655 -220.109 -1211 129 129 152
-121.502 -220.624 -1214 130 130 156
-119.239 -220.958 -1216 129 129 155
-117.065 -221.474 -1219 127 127 153
-114.786 -221.808 -1221 128 128 154
-112.408 -221.962 -1222 128 128 154
-109.847 -221.753 -1221 130 130 156
-107.466 -221.908 -1222 134 132 158
-105.083 -222.063 -1223 132 130 156
-102.864 -222.582 -1226 129 129 155
-100.634 -223.102 -1229 129 127 153
-98.3125 -223.44 -1231 131 129 155
-96.0618 -223.96 -1234 124 124 148
-93.7998 -224.481 -1237 123 123 147
-91.5264 -225.003 -1240 118 118 142
-89.3853 -225.888 -1245 117 117 143
-87.2945 -226.955 -1251 118 118 144
-85.4514 -228.748 -1261 122 122 146
-83.6343 -230.722 -1272 119 119 143
-81.7737 -232.697 -1283 112 112 136
-79.9929 -235.035 -1296 110 110 132
-78.2201 -237.554 -1310 111 111 132
-76.3915 -240.074 -1324 114 112 133
-74.0619 -241.143 -1330 112 112 131
-71.7623 -242.394 -1337 115 116 135
-69.8485 -245.096 -1352 113 114 134
-332.785 -222.236 -1182 218 216 225
-329.943 -221.961 -1181 219 216 224
-327.108 -221.688 -1180 217 213 219
-324.555 -221.603 -1180 208 204 208
-321.733 -221.33 -1179 198 194 198
-319.459 -221.435 -1180 193 188 196
-316.916 -221.352 -1180 188 183 191
-314.375 -221.269 -1180 184 179 187
-312.101 -221.375 -1181 180 175 183
-309.825 -221.482 -1182 177 172 180
-307.549 -221.589 -1183 175 170 178
-305.27 -221.697 -1184 174 169 177
-303.502 -222.179 -1187 172 167 175
-301.469 -222.475 -1189 172 167 175
-299.18 -222.584 -1190 175 170 178
-296.889 -222.694 -1191 179 174 182
-294.596 -222.805 -1192 187 182 190
-292.547 -223.102 -1194 190 185 193
-290.005 -223.027 -1194 193 188 196
-287.708 -223.139 -1195 198 193 201
-285.169 -223.065 -1195 197 192 200
-282.634 -222.992 -1195 198 193 201
-279.632 -222.546 -1193 204 198 207
-277.105 -222.475 -1193 209 204 212
-274.351 -222.217 -1192 214 209 217
-271.603 -221.961 -1191 216 211 220
-269.088 -221.891 -1191 222 217 226
-266.576 -221.822 -1191 227 224 231
-263.178 -221.009 -1187 224 221 228
-260.24 -220.57 -1185 222 219 224
-256.659 -219.573 -1180 220 216 222
-253.317 -218.763 -1176 219 214 222
-249.567 -217.583 -1170 218 214 219
-246.69 -217.147 -1168 216 212 217
-243.614 -216.527 -1165 214 210 215
-240.552 -215.908 -1162 215 210 218
-237.506 -215.289 -1159 220 215 223
-234.271 -214.486 -1155 225 220 228
-230.854 -213.498 -1150 219 214 222
-227.658 -212.697 -1146 209 204 212
-224.678 -212.083 -1143 209 204 212
-221.712 -211.469 -1140 208 203 211
-219.146 -211.227 -1139 206 201 209
-216.776 -211.172 -1139 198 194 208
-214.219 -210.932 -1138 184 180 196
-211.855 -210.878 -1138 172 170 191
-209.86 -211.194 -1140 167 165 186
-207.677 -211.327 -1141 167 165 187
-205.492 -211.459 -1142 172 170 192
-203.482 -211.778 -1144 174 172 194
-201.29 -211.911 -1145 177 175 197
-199.095 -212.046 -1146 182 180 202
-197.07 -212.365 -1148 187 185 207
-194.699 -212.316 -1148 186 184 205
-192.497 -212.452 -1149 182 179 200
-190.292 -212.588 -1150 180 177 198
-188.085 -212.725 -1151 174 172 193
-185.715 -212.678 -1151 171 169 190
-183.664 -213.001 -1153 170 168 189
-181.449 -213.139 -1154 168 166 187
-179.232 -213.278 -1155 168 166 188
-177.165 -213.603 -1157 166 164 188
-175.243 -214.112 -1160 161 160 184
-173.31 -214.622 -1163 160 160 184
-171.072 -214.763 -1164 158 158 185
-168.976 -215.089 -1166 155 155 183
-166.731 -215.231 -1167 152 152 180
-164.624 -215.558 -1169 152 153 179
-162.371 -215.701 -1170 151 151 177
-160.389 -216.214 -1173 149 149 175
-158.126 -216.358 -1174 148 148 174
-155.994 -216.687 -1176 143 143 169
-153.855 -217.016 -1178 140 140 166
-151.837 -217.531 -1181 141 141 168
-149.808 -218.045 -1184 140 140 167
-147.769 -218.56 -1187 138 138 166
-145.596 -218.892 -1189 140 140 168
-143.416 -219.223 -1191 138 138 166
-141.229 -219.556 -1193 133 133 160
-139.035 -219.889 -1195 132 132 159
-136.948 -220.406 -1198 133 133 161
-134.626 -220.556 -1199 134 134 162
-132.522 -221.074 -1202 131 131 157
-130.298 -221.409 -1204 130 130 155
-128.067 -221.745 -1206 130 130 154
-125.725 -221.897 -1207 127 127 150
-123.686 -222.601 -1211 127 126 150
-121.332 -222.754 -1212 128 127 153
-119.17 -223.275 -1215 127 127 153
-116.998 -223.797 -1218 126 126 152
-114.721 -224.136 -1220 127 127 153
-112.344 -224.291 -1221 128 128 154
-109.964 -224.447 -1222 126 126 152
-107.581 -224.603 -1223 129 127 153
-105.109 -224.577 -1223 131 129 155
-102.889 -225.102 -1226 127 126 153
-100.659 -225.627 -1229 128 127 153
-98.4168 -226.153 -1232 129 128 153
-96.0856 -226.496 -1234 130 130 155
-93.823 -227.023 -1237 129 129 154
-91.4014 -227.183 -1238 122 122 147
-89.192 -227.895 -1242 121 121 147
-87.037 -228.79 -1247 118 118 144
-85.1336 -230.42 -1256 118 118 142
-82.9974 -231.499 -1262 118 118 142
-81.3477 -234.047 -1276 113 113 137
-79.704 -236.778 -1291 111 110 133
-78.0603 -239.693 -1307 111 111 132
-75.9488 -241.324 -1316 113 111 132
-73.8574 -243.139 -1326 112 112 133
-71.5653 -244.405 -1333 115 116 136
-332.872 -224.728 -1182 218 216 224
-330.029 -224.451 -1181 219 216 224
-327.194 -224.174 -1180 215 212 219
-324.916 -224.277 -1181 207 204 210
-322.09 -224.002 -1180 201 197 201
-319.814 -224.107 -1181 195 191 198
-317.267 -224.023 -1181 189 184 192
-314.723 -223.94 -1181 184 179 187
-312.183 -223.858 -1181 181 176 184
-310.169 -224.155 -1183 180 175 183
-307.889 -224.263 -1184 176 171 179
-305.35 -224.182 -1184 170 165 173
-303.581 -224.67 -1187 169 164 172
-301.295 -224.78 -1188 170 165 173
-299.006 -224.891 -1189 172 167 175
-296.717 -225.002 -1190 178 173 181
-294.425 -225.113 -1191 187 182 190
-292.132 -225.226 -1192 192 187 195
-289.838 -225.338 -1193 198 193 201
-287.301 -225.263 -1193 201 196 204
-285.005 -225.377 -1194 201 196 204
-282.707 -225.492 -1195 202 197 205
-279.704 -225.041 -1193 207 202 210
-277.409 -225.157 -1194 210 205 213
-274.883 -225.085 -1194 217 212 220
-272.13 -224.825 -1193 220 215 223
-269.384 -224.567 -1192 222 217 226
-266.868 -224.497 -1192 226 223 229
-263.468 -223.675 -1188 224 221 227
-260.087 -222.854 -1184 221 218 223
-256.725 -222.034 -1180 220 215 222
-253.167 -221.027 -1175 219 214 222
-249.632 -220.022 -1170 217 213 218
-246.542 -219.393 -1167 216 212 217
-243.676 -218.954 -1165 216 212 217
-240.614 -218.327 -1162 217 212 220
-237.772 -217.89 -1160 220 215 223
-234.534 -217.078 -1156 223 218 226
-231.315 -216.266 -1152 215 210 218
-227.915 -215.269 -1147 211 206 214
-224.932 -214.647 -1144 213 208 216
-221.964 -214.027 -1141 212 207 215
-219.394 -213.782 -1140 209 204 212
-216.831 -213.539 -1139 199 195 210
-214.462 -213.483 -1139 183 180 196
-212.095 -213.428 -1139 171 171 191
-209.914 -213.561 -1140 169 168 189
-207.73 -213.695 -1141 169 167 189
-205.545 -213.829 -1142 172 170 192
-203.534 -214.151 -1144 176 174 196
-201.517 -214.473 -1146 177 175 197
-199.146 -214.422 -1146 177 175 197
-196.949 -214.558 -1147 180 178 200
-194.748 -214.695 -1148 181 179 200
-192.378 -214.645 -1148 176 173 194
-190.341 -214.97 -1150 174 171 192
-188.297 -215.295 -1152 173 171 192
-186.085 -215.434 -1153 170 168 189
-183.87 -215.574 -1154 167 165 186
-181.653 -215.714 -1155 166 164 186
-179.433 -215.855 -1156 166 164 186
-177.21 -215.996 -1157 162 161 184
-175.288 -216.511 -1160 157 157 180
-173.354 -217.026 -1163 157 157 181
-171.262 -217.355 -1165 157 157 184
-169.164 -217.685 -1167 155 155 183
-166.916 -217.829 -1168 150 151 179
-164.665 -217.973 -1169 148 149 176
-162.551 -218.304 -1171 148 149 176
-160.429 -218.636 -1173 148 148 174
-158.301 -218.968 -1175 148 148 174
-156.432 -219.673 -1179 146 146 172
-154.286 -220.006 -1181 144 144 170
-152.261 -220.526 -1184 142 142 168
-150.353 -221.233 -1188 139 139 165
-148.055 -221.381 -1189 137 137 164
-146 -221.902 -1192 138 138 166
-143.813 -222.238 -1194 137 137 165
-141.501 -222.388 -1195 133 133 161
-139.186 -222.538 -1196 133 133 161
-137.097 -223.061 -1199 134 134 162
-134.66 -223.027 -1199 135 135 163
-132.335 -223.179 -1200 135 135 161
-130.114 -223.518 -1202 133 133 158
-127.887 -223.857 -1204 131 131 155
-125.652 -224.197 -1206 127 127 151
-123.615 -224.909 -1210 128 128 152
-121.262 -225.063 -1211 131 129 155
-119.102 -225.591 -1214 130 129 155
-116.931 -226.118 -1217 128 128 154
-114.655 -226.461 -1219 128 128 154
-112.28 -226.618 -1220 129 129 155
-109.992 -226.961 -1222 127 127 153
-107.696 -227.305 -1224 129 128 154
-105.221 -227.278 -1224 129 127 154
-103.083 -227.995 -1228 128 125 154
-100.766 -228.34 -1230 127 125 152
-98.5215 -228.872 -1233 127 127 151
-96.1876 -229.218 -1235 130 130 156
-93.7707 -229.38 -1236 130 130 156
-91.3505 -229.542 -1237 125 125 151
-89.1425 -230.262 -1241 122 122 148
-86.9191 -230.982 -1245 118 118 144
-84.816 -232.073 -1251 117 117 141
-82.8208 -233.536 -1259 117 117 141
-81.0493 -235.741 -1271 113 113 137
-79.1064 -237.576 -1281 113 111 135
-77.6019 -240.894 -1299 115 113 136
-75.5637 -242.729 -1309 113 112 134
-73.4302 -244.379 -1318 112 112 133
-71.1536 -245.659 -1325 115 116 136
-69.1595 -248.051 -1338 115 116 136
-332.679 -227.03 -1181 217 215 223
-329.838 -226.749 -1180 216 213 221
-327.281 -226.662 -1180 211 208 215
-324.727 -226.574 -1180 206 203 209
-321.903 -226.296 -1179 202 198 203
-319.899 -226.594 -1181 196 191 199
-317.351 -226.509 -1181 188 183 191
-314.807 -226.425 -1181 184 179 187
-312.53 -226.533 -1182 182 177 185
-310.251 -226.642 -1183 183 178 186
-307.71 -226.56 -1183 179 174 182
-305.431 -226.67 -1184 172 167 175
-303.405 -226.972 -1186 169 164 172
-301.12 -227.083 -1187 168 163 171
-299.085 -227.386 -1189 170 165 173
-296.546 -227.307 -1189 178 173 181
-294.008 -227.229 -1189 189 184 192
-291.474 -227.152 -1189 195 190 198
-289.428 -227.457 -1191 197 192 200
-286.894 -227.38 -1191 201 196 204
-284.602 -227.496 -1192 203 198 206
-282.544 -227.803 -1194 205 200 208
-279.778 -227.538 -1193 209 204 212
-277.482 -227.655 -1194 211 206 214
-274.724 -227.392 -1193 218 213 221
-271.973 -227.129 -1192 221 216 224
-269.454 -227.058 -1192 223 218 227
-266.938 -226.987 -1192 225 222 227
-263.759 -226.346 -1189 223 220 225
-260.155 -225.326 -1184 221 218 223
-256.574 -224.307 -1179 220 215 222
-253.017 -223.289 -1174 219 214 222
-249.483 -222.272 -1169 220 216 221
-246.395 -221.637 -1166 220 216 221
-243.321 -221.003 -1163 219 215 220
-240.47 -220.559 -1161 220 215 223
-237.628 -220.117 -1159 222 217 225
-234.392 -219.296 -1155 214 209 217
-231.174 -218.475 -1151 210 205 213
-227.776 -217.467 -1146 212 207 215
-224.794 -216.838 -1143 212 207 215
-222.021 -216.401 -1141 209 204 212
-219.451 -216.153 -1140 202 197 205
-216.887 -215.907 -1139 195 191 205
-214.518 -215.851 -1139 183 180 196
-211.964 -215.606 -1138 171 172 192
-209.784 -215.74 -1139 169 168 190
-207.602 -215.875 -1140 170 168 190
-205.598 -216.201 -1142 173 171 193
-203.765 -216.715 -1145 176 174 196
-201.569 -216.852 -1146 179 177 199
-199.371 -216.989 -1147 178 176 198
-196.999 -216.938 -1147 178 176 198
-194.629 -216.887 -1147 179 177 198
-192.26 -216.837 -1147 174 172 193
-190.224 -217.165 -1149 171 169 190
-188.345 -217.683 -1152 171 169 191
-186.294 -218.012 -1154 170 168 190
-184.236 -218.342 -1156 168 166 187
-181.857 -218.295 -1156 166 164 186
-179.789 -218.626 -1158 163 161 183
-177.562 -218.768 -1159 155 155 177
-175.332 -218.912 -1160 153 153 176
-173.398 -219.433 -1163 155 155 179
-171.453 -219.954 -1166 155 155 181
-169.207 -220.099 -1167 149 149 176
-167.102 -220.433 -1169 143 144 172
-164.989 -220.767 -1171 141 142 170
-162.87 -221.102 -1173 143 144 172
-160.744 -221.437 -1175 146 146 172
-158.611 -221.773 -1177 145 145 171
-156.472 -222.109 -1179 142 142 168
-154.325 -222.446 -1181 143 143 169
-152.3 -222.972 -1184 140 140 166
-150.391 -223.686 -1188 138 138 164
-148.218 -224.024 -1190 138 138 165
-146.16 -224.551 -1193 135 135 163
-143.85 -224.702 -1194 135 135 163
-141.656 -225.042 -1196 136 136 164
-139.222 -225.006 -1196 135 135 163
-136.789 -224.97 -1196 135 135 163
-134.582 -225.312 -1198 133 133 161
-132.148 -225.277 -1198 134 134 160
-129.822 -225.432 -1199 136 136 161
-127.707 -225.963 -1202 136 136 162
-125.58 -226.494 -1205 132 132 156
-123.442 -227.026 -1208 132 131 156
-121.193 -227.371 -1210 134 132 158
-119.133 -228.092 -1214 132 132 158
-116.865 -228.437 -1216 131 131 157
-114.59 -228.783 -1218 133 133 159
-112.309 -229.13 -1220 131 131 157
-110.11 -229.665 -1223 131 130 156
-107.635 -229.637 -1223 134 132 158
-105.248 -229.798 -1224 133 130 157
-103.109 -230.522 -1228 132 129 158
-100.792 -230.871 -1230 131 129 156
-98.5464 -231.409 -1233 131 131 157
-96.1341 -231.572 -1234 133 133 159
-93.7945 -231.923 -1236 133 133 159
-91.3737 -232.087 -1237 132 132 158
-89.0933 -232.627 -1240 128 128 153
-86.7317 -232.98 -1242 123 123 147
-84.634 -234.083 -1248 119 119 142
-82.6444 -235.562 -1256 118 118 141
-80.6233 -237.042 -1264 117 117 141
-78.9411 -239.647 -1278 115 115 140
-77.4423 -243.002 -1296 114 113 138
-75.4096 -244.858 -1306 114 114 136
-73.2259 -246.339 -1314 113 114 134
-70.9567 -247.632 -1321 113 114 134
-69.0219 -250.239 -1335 112 113 133
-338.174 -231.559 -1191 218 217 225
-332.205 -229.136 -1179 218 217 225
-329.926 -229.24 -1180 215 212 220
-326.814 -228.763 -1178 211 208 215
-324.539 -228.869 -1179 205 202 208
-321.989 -228.782 -1179 200 196 201
-319.984 -229.083 -1181 196 191 199
-317.436 -228.997 -1181 192 187 195
-315.158 -229.106 -1182 188 183 191
-312.613 -229.022 -1182 182 177 185
-310.596 -229.325 -1184 179 174 182
-308.313 -229.436 -1185 178 173 181
-305.77 -229.353 -1185 172 167 175
-303.998 -229.852 -1188 168 163 171
-301.454 -229.771 -1188 169 164 172
-299.165 -229.883 -1189 172 167 175
-296.874 -229.997 -1190 179 173 181
-294.334 -229.918 -1190 187 182 190
-291.551 -229.646 -1189 192 187 195
-289.262 -229.762 -1190 196 191 199
-286.971 -229.878 -1191 200 195 203
-284.439 -229.801 -1191 204 199 207
-282.619 -230.304 -1194 204 199 207
-279.852 -230.037 -1193 206 201 209
-277.323 -229.962 -1193 208 203 211
-274.797 -229.889 -1193 214 209 217
-272.273 -229.816 -1193 220 215 223
-269.3 -229.359 -1191 223 218 226
-266.785 -229.287 -1191 225 221 227
-263.607 -228.639 -1188 222 219 224
-260.004 -227.608 -1183 223 220 225
-256.424 -226.577 -1178 222 218 224
-252.868 -225.548 -1173 222 217 225
-249.549 -224.713 -1169 223 219 224
-246.248 -223.878 -1165 222 218 223
-243.595 -223.621 -1164 221 217 222
-240.74 -223.173 -1162 223 218 226
-237.691 -222.533 -1159 225 220 228
-234.453 -221.703 -1155 209 204 212
-231.234 -220.874 -1151 209 204 212
-227.836 -219.854 -1146 213 208 216
-224.853 -219.219 -1143 212 207 215
-222.08 -218.776 -1141 207 202 210
-219.701 -218.718 -1141 198 193 201
-216.944 -218.277 -1139 193 188 202
-214.574 -218.22 -1139 184 180 196
-212.019 -217.973 -1138 173 174 194
-209.839 -218.109 -1139 171 170 191
-207.474 -218.054 -1139 173 171 193
-205.471 -218.382 -1141 175 173 195
-203.64 -218.903 -1144 175 173 195
-201.622 -219.232 -1146 178 176 198
-199.25 -219.18 -1146 180 178 200
-197.051 -219.319 -1147 180 178 200
-194.849 -219.459 -1148 180 178 200
-192.478 -219.408 -1148 176 174 195
-190.439 -219.74 -1150 174 172 193
-188.558 -220.263 -1153 175 173 195
-186.665 -220.787 -1156 173 171 193
-184.443 -220.93 -1157 170 168 189
-182.219 -221.073 -1158 167 165 187
-179.991 -221.216 -1159 163 161 183
-177.762 -221.36 -1160 157 157 179
-175.529 -221.505 -1161 153 153 175
-173.443 -221.841 -1163 153 153 177
-171.351 -222.178 -1165 153 153 179
-169.251 -222.515 -1167 145 146 172
-167.145 -222.852 -1169 140 141 168
-165.032 -223.19 -1171 140 141 168
-162.912 -223.529 -1173 143 144 172
-160.786 -223.867 -1175 145 145 171
-158.652 -224.207 -1177 143 143 169
-156.512 -224.547 -1179 140 140 166
-154.496 -225.078 -1182 141 141 167
-152.34 -225.419 -1184 139 139 165
-150.43 -226.141 -1188 140 140 166
-148.256 -226.483 -1190 143 143 169
-146.198 -227.015 -1193 141 141 168
-143.887 -227.168 -1194 142 142 169
-141.574 -227.321 -1195 144 144 171
-139.141 -227.285 -1195 141 141 168
-136.825 -227.439 -1196 139 139 166
-134.392 -227.404 -1196 138 138 165
-132.071 -227.56 -1197 142 142 168
-129.856 -227.906 -1199 143 143 169
-127.633 -228.253 -1201 148 148 174
-125.508 -228.79 -1204 149 149 174
-123.371 -229.328 -1207 147 146 172
-121.024 -229.486 -1208 147 145 171
-118.869 -230.025 -1211 144 144 170
-116.607 -230.374 -1213 143 143 169
-114.338 -230.724 -1215 144 144 170
-112.153 -231.265 -1218 140 139 165
-109.958 -231.805 -1221 140 138 164
-107.487 -231.777 -1221 143 141 167
-105.189 -232.129 -1223 139 137 163
-103.052 -232.862 -1227 138 135 164
-100.736 -233.215 -1229 138 136 164
-98.5717 -233.948 -1233 136 136 162
-96.3146 -234.492 -1236 135 135 161
-93.8945 -234.657 -1237 135 135 161
-91.5449 -235.013 -1239 135 135 161
-89.188 -235.369 -1241 134 134 158
-86.8936 -235.915 -1244 130 130 154
-84.6557 -236.652 -1248 122 122 144
-82.5998 -237.957 -1255 118 118 141
-80.5163 -239.264 -1262 120 120 144
-78.9614 -242.276 -1278 121 121 147
-76.9839 -244.152 -1288 117 117 142
-75.0824 -246.407 -1300 115 115 137
-72.9102 -247.904 -1308 116 117 137
-70.7063 -249.402 -1316 115 116 136
-68.7294 -251.848 -1329 113 114 134
-333.987 -232.806 -1185 219 218 227
-330.016 -231.733 -1180 214 213 221
-327.18 -231.447 -1179 213 210 217
-324.902 -231.554 -1180 205 202 209
-322.077 -231.27 -1179 200 196 201
-319.8 -231.378 -1180 197 193 200
-317.522 -231.488 -1181 197 192 200
-315.243 -231.597 -1182 190 185 193
-312.698 -231.512 -1182 181 176 184
-310.418 -231.623 -1183 177 172 180
-307.876 -231.539 -1183 174 169 177
-305.595 -231.651 -1184 171 166 174
-303.568 -231.96 -1186 170 165 173
-301.028 -231.878 -1186 172 167 175
-298.994 -232.187 -1188 173 168 176
-296.954 -232.497 -1190 177 172 180
-294.413 -232.417 -1190 187 182 190
-291.875 -232.338 -1190 193 188 196
-289.583 -232.455 -1191 199 194 202
-287.289 -232.572 -1192 202 197 205
-284.754 -232.495 -1192 206 201 209
-282.932 -233.003 -1195 207 202 210
-279.927 -232.537 -1193 206 201 209
-277.63 -232.657 -1194 206 201 209
-274.871 -232.388 -1193 210 205 213
-272.118 -232.119 -1192 220 215 223
-269.372 -231.852 -1191 223 218 226
-267.08 -231.974 -1192 224 220 226
-263.899 -231.319 -1189 221 218 223
-260.513 -230.471 -1185 223 220 225
-257.146 -229.623 -1181 224 220 227
-253.367 -228.389 -1175 225 220 228
-249.829 -227.349 -1170 224 220 225
-246.525 -226.506 -1166 222 218 223
-243.66 -226.052 -1164 222 218 223
-240.804 -225.598 -1162 224 219 226
-237.754 -224.952 -1159 223 218 226
-234.719 -224.307 -1156 209 205 213
-231.296 -223.275 -1151 213 208 216
-227.896 -222.243 -1146 214 209 217
-224.913 -221.601 -1143 213 208 216
-222.333 -221.348 -1142 214 209 217
-219.76 -221.095 -1141 209 204 212
-217.002 -220.649 -1139 193 190 204
-214.442 -220.398 -1138 179 177 192
-211.889 -220.148 -1137 170 171 191
-209.71 -220.285 -1138 169 168 190
-207.529 -220.423 -1139 168 166 188
-205.706 -220.949 -1142 168 167 189
-203.694 -221.282 -1144 170 170 192
-201.851 -221.808 -1147 175 175 197
-199.476 -221.755 -1147 179 177 199
-197.275 -221.895 -1148 180 178 200
-194.901 -221.843 -1148 178 176 198
-192.696 -221.985 -1149 175 173 195
-190.49 -222.128 -1150 175 173 194
-188.771 -222.85 -1154 175 173 194
-186.714 -223.186 -1156 169 167 188
-184.492 -223.33 -1157 165 163 184
-182.424 -223.668 -1159 161 160 181
-180.194 -223.813 -1160 158 157 179
-177.808 -223.766 -1160 152 152 175
-175.878 -224.298 -1163 148 148 171
-173.787 -224.637 -1165 148 148 172
-171.69 -224.977 -1167 148 148 174
-169.586 -225.318 -1169 144 144 170
-167.475 -225.659 -1171 142 143 169
-165.357 -226 -1173 143 144 170
-163.233 -226.342 -1175 144 145 172
-161.102 -226.685 -1177 143 143 169
-158.829 -226.835 -1178 141 141 167
-156.553 -226.986 -1179 137 137 163
-154.405 -227.33 -1181 137 137 163
-152.251 -227.675 -1183 136 136 162
-150.469 -228.597 -1188 136 136 162
-148.295 -228.943 -1190 139 139 165
-146.236 -229.481 -1193 142 142 168
-143.804 -229.443 -1193 144 144 170
-141.492 -229.598 -1194 146 146 172
-139.061 -229.561 -1194 147 147 173
-136.746 -229.718 -1195 147 147 173
-134.315 -229.682 -1195 147 147 173
-132.106 -230.031 -1197 146 146 172
-129.89 -230.381 -1199 147 147 173
-127.667 -230.732 -1201 151 151 177
-125.436 -231.083 -1203 150 150 176
-123.301 -231.627 -1206 147 147 173
-120.955 -231.787 -1207 148 146 172
-118.703 -232.139 -1209 148 147 173
-116.541 -232.685 -1212 149 149 175
-114.273 -233.038 -1214 151 151 177
-111.998 -233.393 -1216 148 148 174
-109.806 -233.94 -1219 144 142 168
-107.515 -234.295 -1221 140 138 164
-105.302 -234.843 -1224 137 134 161
-103.079 -235.391 -1227 139 136 165
-100.762 -235.748 -1229 139 137 165
-98.5173 -236.298 -1232 137 137 163
-96.2617 -236.848 -1235 136 136 162
-93.9188 -237.206 -1237 135 135 161
-91.5686 -237.566 -1239 137 137 163
-89.2112 -237.925 -1241 135 135 159
-86.9162 -238.478 -1244 131 131 155
-84.6098 -239.03 -1247 125 125 147
-82.4895 -240.159 -1253 121 121 144
-80.4096 -241.479 -1260 122 122 146
-78.5492 -243.566 -1271 120 120 146
-76.705 -245.846 -1283 114 114 139
-75.0441 -248.892 -1299 114 114 136
-73.0405 -250.98 -1310 117 117 138
-70.8321 -252.494 -1318 117 118 138
-68.5919 -254.008 -1326 114 115 135
-66.6185 -256.672 -1340 113 114 133
-336.655 -235.406 -1185 222 221 231
-333.515 -234.916 -1183 218 217 227
-330.107 -234.228 -1180 213 212 221
-327.27 -233.939 -1179 211 209 216
-324.716 -233.849 -1179 208 205 212
-322.165 -233.76 -1179 200 196 201
-319.888 -233.869 -1180 194 190 197
-317.878 -234.178 -1182 193 188 196
-315.596 -234.289 -1183 187 182 190
-313.048 -234.202 -1183 182 177 185
-310.765 -234.314 -1184 179 174 182
-308.22 -234.229 -1184 174 169 177
-305.936 -234.343 -1185 171 166 174
-303.651 -234.457 -1186 170 165 173
-301.364 -234.571 -1187 172 167 175
-299.327 -234.884 -1189 173 168 176
-297.035 -235 -1190 177 172 180
-294.493 -234.919 -1190 187 182 190
-292.2 -235.036 -1191 192 187 195
-289.661 -234.957 -1191 195 190 198
-287.367 -235.075 -1192 199 194 202
-284.831 -234.997 -1192 203 198 206
-282.772 -235.314 -1194 206 201 209
-279.768 -234.843 -1192 206 201 209
-277.24 -234.767 -1192 208 203 211
-274.714 -234.692 -1192 210 205 213
-271.963 -234.421 -1191 220 215 223
-269.444 -234.347 -1191 224 219 227
-266.704 -234.077 -1190 223 219 225
-263.748 -233.612 -1188 220 217 222
-260.363 -232.754 -1184 221 218 223
-256.998 -231.898 -1180 222 218 224
-253.22 -230.65 -1174 224 219 227
-249.896 -229.796 -1170 223 219 224
-246.803 -229.139 -1167 223 219 224
-243.725 -228.484 -1164 225 221 226
-240.869 -228.026 -1162 225 220 228
-238.023 -227.569 -1160 224 219 227
-234.985 -226.916 -1157 215 210 218
-231.559 -225.873 -1152 216 211 219
-228.156 -224.831 -1147 216 211 219
-224.973 -223.986 -1143 213 208 216
-222.393 -223.729 -1142 212 207 215
-219.626 -223.278 -1140 209 204 212
-216.869 -222.828 -1138 192 190 203
-214.688 -222.965 -1139 177 176 190
-211.946 -222.516 -1137 170 171 191
-209.766 -222.655 -1138 170 169 190
-207.584 -222.795 -1139 168 166 188
-205.761 -223.326 -1142 168 168 190
-203.57 -223.467 -1143 172 172 194
-201.729 -223.999 -1146 174 174 196
-199.355 -223.945 -1146 176 175 197
-197.327 -224.283 -1148 178 176 199
-194.953 -224.23 -1148 177 175 197
-192.748 -224.373 -1149 175 173 195
-190.706 -224.712 -1151 175 173 195
-188.821 -225.247 -1154 174 172 193
-186.764 -225.587 -1156 167 165 186
-184.541 -225.733 -1157 163 161 182
-182.315 -225.879 -1158 158 158 179
-180.242 -226.221 -1160 155 155 177
-177.856 -226.173 -1160 149 149 173
-175.622 -226.321 -1161 142 142 166
-173.684 -226.859 -1164 141 141 165
-171.588 -227.202 -1166 143 143 169
-169.341 -227.352 -1167 143 143 169
-167.519 -228.086 -1171 143 144 170
-165.401 -228.431 -1173 143 144 170
-163.276 -228.777 -1175 144 145 171
-161.007 -228.928 -1176 144 144 170
-158.871 -229.275 -1178 141 141 167
-156.594 -229.428 -1179 136 136 162
-154.446 -229.776 -1181 136 136 162
-152.291 -230.124 -1183 139 139 165
-150.382 -230.862 -1187 139 139 165
-148.209 -231.211 -1189 138 138 164
-146.152 -231.755 -1192 142 142 168
-143.842 -231.911 -1193 147 147 173
-141.53 -232.068 -1194 147 147 173
-139.098 -232.031 -1194 151 151 177
-136.667 -231.994 -1194 153 153 179
-134.35 -232.152 -1195 152 152 178
-132.141 -232.505 -1197 153 153 179
-129.816 -232.665 -1198 151 151 177
-127.594 -233.019 -1200 153 152 178
-125.469 -233.568 -1203 150 150 176
-123.129 -233.73 -1204 149 148 174
-120.886 -234.085 -1206 150 148 174
-118.538 -234.248 -1207 147 146 172
-116.379 -234.799 -1210 145 145 171
-114.115 -235.157 -1212 147 147 173
-111.936 -235.709 -1215 147 146 172
-109.745 -236.261 -1218 142 140 166
-107.543 -236.815 -1221 139 137 163
-105.33 -237.368 -1224 139 137 163
-103.106 -237.923 -1227 139 136 164
-100.87 -238.477 -1230 139 137 164
-98.5432 -238.839 -1232 140 140 166
-96.2869 -239.395 -1235 141 141 167
-93.8675 -239.563 -1236 138 138 164
-91.6666 -240.314 -1240 138 138 164
-89.3064 -240.678 -1242 138 138 163
-86.9389 -241.042 -1244 135 135 159
-84.6319 -241.601 -1247 127 127 150
-82.4453 -242.548 -1252 122 122 146
-80.1114 -243.107 -1255 121 121 145
-78.1989 -245.023 -1265 117 117 142
-76.426 -247.521 -1278 113 113 138
-74.8326 -250.794 -1295 112 112 135
-72.5577 -251.936 -1301 114 114 135
-70.4743 -253.854 -1311 115 116 136
-68.6099 -256.74 -1326 114 115 135
-337.032 -238.116 -1186 222 221 231
-333.608 -237.42 -1183 217 216 226
-330.199 -236.725 -1180 213 212 222
-327.361 -236.433 -1179 210 207 215
-324.531 -236.141 -1178 204 201 208
-321.981 -236.051 -1178 199 195 200
-319.705 -236.162 -1179 193 188 195
-317.697 -236.474 -1181 188 183 191
-315.417 -236.586 -1182 185 180 188
-313.135 -236.698 -1183 181 176 184
-310.851 -236.812 -1184 174 169 177
-308.305 -236.726 -1184 172 167 175
-305.763 -236.64 -1184 172 167 175
-303.735 -236.956 -1186 171 166 174
-301.447 -237.072 -1187 169 164 172
-299.158 -237.188 -1188 172 167 175
-297.117 -237.505 -1190 177 172 180
-294.574 -237.423 -1190 186 181 189
-292.525 -237.74 -1192 192 187 195
-290.228 -237.859 -1193 195 190 198
-287.687 -237.78 -1193 197 192 200
-285.148 -237.701 -1193 202 197 205
-282.85 -237.821 -1194 207 202 210
-280.079 -237.545 -1193 207 202 210
-277.316 -237.269 -1192 209 204 212
-274.79 -237.193 -1192 213 208 216
-272.266 -237.118 -1192 216 211 219
-269.518 -236.844 -1191 221 216 224
-266.777 -236.572 -1190 224 220 226
-263.82 -236.101 -1188 219 216 221
-260.434 -235.234 -1184 219 216 221
-257.068 -234.369 -1180 219 215 222
-253.504 -233.306 -1175 222 217 225
-249.964 -232.244 -1170 222 218 224
-246.87 -231.581 -1167 224 220 225
-243.791 -230.919 -1164 227 223 228
-240.934 -230.456 -1162 227 223 230
-237.883 -229.795 -1159 224 219 227
-234.845 -229.136 -1156 218 213 221
-231.421 -228.081 -1151 218 213 221
-228.218 -227.226 -1147 217 212 220
-224.837 -226.174 -1142 213 208 216
-222.258 -225.915 -1141 210 205 213
-219.493 -225.459 -1139 206 201 209
-216.928 -225.201 -1138 193 191 203
-214.746 -225.341 -1139 179 178 192
-212.376 -225.283 -1139 170 171 191
-209.823 -225.027 -1138 169 169 189
-207.823 -225.366 -1140 170 168 189
-205.816 -225.705 -1142 171 171 193
-203.803 -226.045 -1144 175 175 197
-201.783 -226.385 -1146 176 176 198
-199.757 -226.725 -1148 177 175 198
-197.552 -226.869 -1149 176 174 198
-195.345 -227.013 -1150 179 177 199
-193.135 -227.158 -1151 180 178 200
-190.923 -227.303 -1152 176 174 196
-188.872 -227.647 -1154 170 168 189
-186.814 -227.99 -1156 166 164 185
-184.59 -228.137 -1157 165 163 184
-182.364 -228.285 -1158 162 161 183
-180.29 -228.63 -1160 157 157 179
-178.057 -228.779 -1161 151 151 175
-175.82 -228.928 -1162 145 145 169
-173.731 -229.275 -1164 143 143 167
-171.634 -229.622 -1166 143 143 169
-169.386 -229.773 -1167 143 143 169
-167.421 -230.318 -1170 141 142 168
-165.304 -230.667 -1172 144 145 171
-163.32 -231.213 -1175 143 144 170
-161.187 -231.563 -1177 144 144 170
-159.048 -231.914 -1179 140 140 166
-156.769 -232.068 -1180 139 139 165
-154.618 -232.419 -1182 142 142 168
-152.46 -232.771 -1184 146 146 172
-150.296 -233.124 -1186 147 147 173
-148.249 -233.673 -1189 146 146 172
-146.068 -234.027 -1191 151 151 177
-143.76 -234.184 -1192 154 154 180
-141.568 -234.539 -1194 151 151 177
-139.252 -234.698 -1195 151 151 177
-136.704 -234.464 -1194 153 153 179
-134.386 -234.624 -1195 154 154 180
-132.176 -234.981 -1197 153 153 179
-129.85 -235.143 -1198 154 153 179
-127.521 -235.304 -1199 155 153 179
-125.399 -235.859 -1202 153 152 178
-123.162 -236.218 -1204 152 151 177
-120.818 -236.382 -1205 151 149 175
-118.57 -236.742 -1207 147 146 172
-116.314 -237.103 -1209 146 145 171
-114.051 -237.465 -1211 147 147 173
-111.873 -238.023 -1214 143 142 168
-109.684 -238.581 -1217 139 137 163
-107.395 -238.944 -1219 137 135 161
-105.186 -239.504 -1222 141 139 165
-103.049 -240.26 -1226 142 140 166
-100.815 -240.821 -1229 139 138 164
-98.5693 -241.382 -1232 139 139 165
-96.3124 -241.944 -1235 143 143 169
-93.8924 -242.114 -1236 141 140 166
-91.6169 -242.677 -1239 138 138 164
-89.3301 -243.241 -1242 140 140 165
-86.8921 -243.413 -1243 136 136 160
-84.5865 -243.977 -1246 130 130 154
-82.3354 -244.739 -1250 127 127 151
-79.9411 -245.108 -1252 124 124 148
-77.8486 -246.458 -1259 118 118 142
-76.0275 -248.786 -1271 116 116 140
-74.7946 -253.268 -1294 114 114 138
-72.5769 -254.619 -1301 115 116 137
-70.4392 -256.361 -1310 116 117 137
-68.4728 -258.886 -1323 116 117 137
-337.412 -240.833 -1187 221 220 230
-333.983 -240.129 -1184 214 213 223
-330.012 -239.022 -1179 212 211 219
-327.175 -238.726 -1178 210 208 216
-324.346 -238.432 -1177 202 199 207
-321.798 -238.341 -1177 198 193 200
-319.795 -238.655 -1179 194 189 197
-317.786 -238.97 -1181 186 181 189
-315.772 -239.285 -1183 181 176 184
-313.222 -239.197 -1183 178 173 181
-311.2 -239.514 -1185 172 167 175
-308.652 -239.427 -1185 169 164 172
-306.106 -239.34 -1185 170 165 173
-304.076 -239.659 -1187 170 165 173
-301.785 -239.776 -1188 171 166 174
-299.493 -239.893 -1189 173 168 176
-297.449 -240.213 -1191 175 170 178
-294.904 -240.13 -1191 179 174 182
-292.852 -240.451 -1193 185 180 188
-290.308 -240.37 -1193 192 187 195
-287.767 -240.289 -1193 197 192 200
-285.228 -240.209 -1193 201 196 204
-282.928 -240.331 -1194 205 200 208
-280.157 -240.051 -1193 207 202 210
-277.858 -240.175 -1194 211 206 214
-275.327 -240.098 -1194 215 210 218
-272.57 -239.821 -1193 216 211 219
-270.045 -239.745 -1193 219 214 222
-267.075 -239.269 -1191 224 220 227
-263.893 -238.593 -1188 220 217 222
-260.506 -237.717 -1184 219 216 221
-257.139 -236.842 -1180 221 217 223
-253.574 -235.768 -1175 223 218 226
-250.247 -234.895 -1171 221 217 222
-247.15 -234.225 -1168 222 218 223
-244.068 -233.555 -1165 225 221 226
-241.415 -233.288 -1164 227 222 229
-238.359 -232.62 -1161 225 220 228
-235.316 -231.954 -1158 220 215 223
-231.887 -230.888 -1153 216 211 219
-228.48 -229.824 -1148 215 210 218
-225.096 -228.76 -1143 213 208 216
-222.319 -228.298 -1141 210 205 213
-219.36 -227.637 -1138 205 200 208
-216.987 -227.577 -1138 199 197 209
-214.616 -227.518 -1138 188 187 201
-212.247 -227.459 -1138 175 176 194
-210.065 -227.601 -1139 169 168 188
-208.062 -227.943 -1141 169 167 188
-206.053 -228.286 -1143 171 171 193
-203.859 -228.429 -1144 173 173 195
-201.838 -228.773 -1146 175 175 197
-199.811 -229.117 -1148 176 175 198
-197.606 -229.262 -1149 172 170 194
-195.568 -229.607 -1151 174 172 194
-193.356 -229.754 -1152 181 179 201
-191.141 -229.9 -1153 177 175 197
-189.087 -230.247 -1155 169 167 188
-186.865 -230.395 -1156 164 162 183
-184.641 -230.544 -1157 164 162 183
-182.414 -230.693 -1158 161 160 182
-180.184 -230.842 -1159 153 153 175
-178.105 -231.192 -1161 150 150 174
-176.019 -231.542 -1163 151 151 175
-173.927 -231.892 -1165 149 149 173
-171.681 -232.044 -1166 146 146 172
-169.432 -232.196 -1167 144 144 170
-167.323 -232.549 -1169 141 142 168
-165.208 -232.901 -1171 143 144 171
-163.086 -233.254 -1173 145 146 173
-161.094 -233.807 -1176 145 146 172
-159.091 -234.36 -1179 141 142 168
-156.944 -234.714 -1181 141 142 168
-154.66 -234.87 -1182 146 146 172
-152.501 -235.226 -1184 149 149 175
-150.463 -235.781 -1187 150 150 176
-148.164 -235.939 -1188 151 151 177
-145.985 -236.296 -1190 154 154 180
-143.678 -236.456 -1191 156 156 182
-141.487 -236.814 -1193 154 154 180
-139.173 -236.974 -1194 154 154 180
-136.626 -236.738 -1193 153 153 179
-134.31 -236.9 -1194 153 153 179
-132.101 -237.261 -1196 152 152 178
-129.885 -237.622 -1198 152 151 177
-127.556 -237.786 -1199 151 149 175
-125.432 -238.346 -1202 150 148 174
-123.093 -238.511 -1203 149 147 173
-120.75 -238.676 -1204 146 144 170
-118.405 -238.842 -1205 147 145 171
-116.249 -239.405 -1208 149 147 173
-114.082 -239.968 -1211 148 146 172
-111.903 -240.533 -1214 143 141 167
-109.623 -240.899 -1216 141 139 165
-107.336 -241.266 -1218 140 138 164
-105.214 -242.029 -1222 146 144 170
-102.993 -242.595 -1225 143 141 167
-100.678 -242.964 -1227 139 138 164
-98.5157 -243.729 -1231 137 137 163
-96.2603 -244.297 -1234 143 141 167
-93.9175 -244.667 -1236 141 140 166
-91.5675 -245.038 -1238 139 139 165
-89.2821 -245.607 -1241 140 141 165
-86.9153 -245.979 -1243 134 136 159
-84.6091 -246.55 -1246 130 130 154
-82.2257 -246.923 -1248 128 128 152
-79.8986 -247.495 -1251 125 125 149
-77.8694 -249.056 -1259 118 118 142
-75.7487 -250.42 -1266 116 116 140
-73.9473 -252.972 -1279 116 116 140
-72.1499 -255.721 -1293 113 114 135
-70.2429 -258.273 -1306 113 114 134
-338.361 -243.966 -1190 217 216 226
-334.925 -243.255 -1187 212 211 221
-330.385 -241.726 -1180 212 211 220
-327.268 -241.222 -1178 212 210 218
-324.438 -240.925 -1177 206 203 211
-321.889 -240.832 -1177 201 196 204
-319.614 -240.946 -1178 195 190 198
-317.876 -241.468 -1181 188 183 191
-315.861 -241.787 -1183 184 179 187
-313.311 -241.698 -1183 180 175 183
-311.026 -241.813 -1184 173 168 176
-308.479 -241.725 -1184 171 166 174
-306.193 -241.842 -1185 173 168 176
-303.905 -241.96 -1186 173 168 176
-301.87 -242.282 -1188 172 167 175
-299.577 -242.401 -1189 173 168 176
-297.533 -242.724 -1191 177 172 180
-295.234 -242.844 -1192 185 180 188
-292.935 -242.965 -1193 193 188 196
-290.39 -242.882 -1193 193 188 196
-288.089 -243.004 -1194 198 193 201
-285.547 -242.923 -1194 202 197 205
-283.007 -242.843 -1194 205 200 208
-280.235 -242.56 -1193 206 201 209
-277.936 -242.685 -1194 211 206 214
-275.635 -242.81 -1195 215 210 218
-272.874 -242.53 -1194 217 212 220
-270.347 -242.454 -1194 219 214 222
-267.598 -242.175 -1193 225 221 227
-264.411 -241.492 -1190 219 216 221
-261.019 -240.607 -1186 216 213 218
-257.428 -239.52 -1181 218 214 220
-253.645 -238.231 -1175 220 215 223
-250.53 -237.553 -1172 219 215 220
-247.219 -236.672 -1168 219 215 220
-244.136 -235.996 -1165 222 218 223
-241.275 -235.523 -1163 228 223 230
-238.014 -234.646 -1159 228 223 231
-235.178 -234.175 -1157 221 216 224
-231.75 -233.098 -1152 213 208 216
-228.543 -232.225 -1148 209 204 212
-225.158 -231.15 -1143 209 204 212
-222.186 -230.482 -1140 209 204 212
-219.421 -230.016 -1138 205 200 208
-216.856 -229.753 -1137 196 194 206
-214.676 -229.895 -1138 187 187 201
-212.493 -230.038 -1139 175 176 194
-210.307 -230.181 -1140 170 170 189
-208.302 -230.527 -1142 171 169 190
-206.29 -230.873 -1144 170 169 191
-204.093 -231.017 -1145 168 168 190
-201.894 -231.163 -1146 169 169 191
-199.867 -231.511 -1148 167 165 189
-197.833 -231.859 -1150 171 169 193
-195.622 -232.006 -1151 174 172 194
-193.577 -232.355 -1153 178 176 198
-191.359 -232.504 -1154 175 173 195
-189.139 -232.652 -1155 170 168 190
-186.755 -232.6 -1155 163 161 183
-184.532 -232.751 -1156 160 158 180
-182.306 -232.901 -1157 159 158 180
-180.078 -233.052 -1158 151 151 173
-178.154 -233.607 -1161 146 146 170
-176.219 -234.161 -1164 147 147 171
-174.124 -234.516 -1166 150 150 174
-171.875 -234.669 -1167 148 148 172
-169.769 -235.024 -1169 147 147 171
-167.512 -235.179 -1170 144 145 171
-165.253 -235.334 -1171 144 145 172
-163.131 -235.691 -1173 145 146 173
-161.138 -236.249 -1176 149 150 176
-159.135 -236.807 -1179 147 148 174
-156.987 -237.166 -1181 148 149 175
-154.702 -237.324 -1182 150 151 177
-152.414 -237.482 -1183 152 152 178
-150.25 -237.842 -1185 155 155 181
-147.955 -238.002 -1186 155 155 181
-145.779 -238.363 -1188 154 154 180
-143.476 -238.524 -1189 154 154 180
-141.288 -238.886 -1191 155 155 181
-138.977 -239.048 -1192 156 156 182
-136.549 -239.01 -1192 154 154 180
-134.121 -238.973 -1192 155 155 181
-132.026 -239.538 -1195 154 154 180
-129.812 -239.903 -1197 153 152 178
-127.484 -240.069 -1198 152 150 176
-125.362 -240.635 -1201 149 147 173
-123.126 -241.002 -1203 148 146 172
-120.783 -241.169 -1204 147 145 171
-118.536 -241.537 -1206 148 146 172
-116.377 -242.106 -1209 148 146 172
-114.301 -242.875 -1213 147 145 171
-111.934 -243.044 -1214 144 142 168
-109.653 -243.414 -1216 143 141 167
-107.453 -243.985 -1219 143 141 167
-105.329 -244.757 -1223 147 145 171
-103.021 -245.129 -1225 144 142 168
-100.869 -245.901 -1229 141 139 165
-98.5424 -246.274 -1231 139 138 164
-96.2864 -246.848 -1234 142 140 166
-93.943 -247.222 -1236 139 138 164
-91.5184 -247.397 -1237 138 138 164
-89.1623 -247.772 -1239 139 140 163
-86.799 -248.148 -1241 134 136 157
-84.5642 -248.925 -1245 132 133 155
-82.1821 -249.302 -1247 132 132 155
-79.7925 -249.679 -1249 128 128 152
-77.7049 -251.057 -1256 122 122 146
-75.5897 -252.436 -1263 119 119 143
-73.736 -254.814 -1275 117 117 141
-72.0578 -257.991 -1291 114 115 136
-70.1005 -260.37 -1303 112 113 133
-68.9239 -265.946 -1331 115 116 136
-337.605 -245.871 -1187 218 217 227
-334.174 -245.153 -1184 214 213 223
-330.48 -244.229 -1180 214 213 223
-327.362 -243.72 -1178 212 209 218
-324.256 -243.213 -1176 207 204 212
-321.981 -243.326 -1177 201 196 204
-319.706 -243.441 -1178 192 187 195
-317.698 -243.762 -1180 186 181 189
-315.684 -244.084 -1182 186 181 189
-313.4 -244.2 -1183 181 176 184
-311.377 -244.523 -1185 173 168 176
-308.827 -244.434 -1185 171 166 174
-306.538 -244.552 -1186 170 165 173
-304.248 -244.671 -1187 168 163 171
-302.21 -244.996 -1189 166 161 169
-299.662 -244.91 -1189 169 164 172
