ply
format ascii 1.0
comment Created by Open3D
element vertex 1462
property double x
property double y
property double z
property uchar red
property uchar green
property uchar blue
end_header
120.848 64.9633 -2232 255 233 224
125.065 64.8516 -2228 253 231 221
129.501 64.8566 -2228 254 230 218
134.057 64.92 -2230 254 230 218
-441.648 61.0789 -2225 251 232 225
-436.469 60.9801 -2222 240 224 217
-431.111 60.8541 -2218 138 124 121
-426.542 60.838 -2218 64 54 52
-421.407 60.74 -2215 57 49 47
-417.228 60.7792 -2217 50 42 43
-411.369 60.5718 -2210 51 42 43
-405.91 60.4196 -2205 49 41 42
-401.568 60.4319 -2206 49 40 43
-396.505 60.3348 -2203 48 39 42
-392.347 60.3749 -2205 40 36 43
-387.305 60.2784 -2202 39 35 42
-383.496 60.3734 -2206 38 35 42
-378.47 60.2771 -2203 39 36 43
-373.63 60.2084 -2201 38 35 43
-368.465 60.0854 -2197 39 37 45
-363.817 60.0444 -2196 38 36 44
-359.013 59.9762 -2194 36 35 43
-355.027 60.045 -2197 34 33 41
-350.235 59.9773 -2195 32 31 39
-346.398 60.0737 -2199 36 36 46
-341.616 60.0064 -2197 36 36 46
-336.844 59.9392 -2195 31 32 42
-332.537 59.9541 -2196 32 31 41
-327.781 59.8872 -2194 30 29 39
-322.741 59.766 -2190 30 29 39
-317.72 59.6451 -2186 38 37 47
-312.144 59.4151 -2178 43 42 52
-307.734 59.4037 -2178 45 44 54
-302.769 59.2834 -2174 47 46 56
-298.647 59.3268 -2176 47 47 57
-294.383 59.3432 -2177 53 52 62
-289.851 59.3051 -2176 61 60 70
-285.457 59.2945 -2176 61 60 68
-280.678 59.2023 -2173 64 63 70
-275.914 59.1103 -2170 64 62 70
-270.788 58.9369 -2164 56 55 63
-266.181 58.8725 -2162 55 54 62
-261.1 58.6995 -2156 53 50 53
-256.64 58.6627 -2155 55 51 50
-252.07 58.5989 -2153 59 54 49
-246.934 58.3992 -2146 76 68 65
-242.733 58.4174 -2147 66 57 55
-237.864 58.2726 -2142 54 45 45
-232.145 57.9103 -2129 40 33 30
-228.191 57.9835 -2132 32 27 22
-224.333 58.084 -2136 31 27 24
-219.225 57.8583 -2128 30 26 22
-214.756 57.796 -2126 67 64 57
-210.693 57.8425 -2128 84 79 73
-206.43 57.8348 -2128 72 66 60
-202.358 57.8818 -2130 54 47 41
-198.373 57.956 -2133 37 30 24
-193.559 57.7857 -2127 41 34 30
-188.949 57.6701 -2123 41 34 32
-184.529 57.6089 -2121 49 41 40
-179.694 57.4121 -2114 66 58 58
-175.885 57.5414 -2119 61 53 54
-172.462 57.8066 -2129 54 46 48
-168.29 57.8275 -2130 47 39 41
-164.423 57.9571 -2135 40 32 33
-160.762 58.1684 -2143 37 29 31
-156.56 58.1898 -2144 41 34 35
-152.923 58.4283 -2153 40 34 35
-148.906 58.5314 -2157 41 34 38
-144.607 58.526 -2157 43 36 40
-140.308 58.5208 -2157 44 37 42
-135.948 58.4886 -2156 42 36 41
-131.531 58.4295 -2154 42 38 43
-127.36 58.4791 -2156 46 42 47
-123.125 58.5016 -2157 46 42 47
-118.777 58.47 -2156 47 44 49
-114.433 58.4387 -2155 49 46 52
-110.453 58.5973 -2161 50 47 54
-106.007 58.512 -2158 48 47 55
-101.81 58.5625 -2160 46 45 53
-97.4695 58.5317 -2159 50 49 57
-93.307 58.6096 -2162 51 50 58
-88.8451 58.4979 -2158 52 51 59
-84.7133 58.6031 -2162 49 48 57
-80.4919 58.6542 -2164 47 45 55
-76.263 58.7056 -2166 48 45 55
-71.9937 58.73 -2167 47 44 53
-67.7523 58.7817 -2169 43 40 48
-63.5619 58.8877 -2173 40 37 46
-59.3561 58.9938 -2177 44 41 51
-55.0339 58.9918 -2177 44 43 53
-50.6887 58.9628 -2176 41 40 50
-46.4545 59.0694 -2180 41 40 50
-42.1855 59.1491 -2183 43 40 50
-37.9049 59.2289 -2186 40 38 47
-33.6434 59.3631 -2191 39 38 45
-29.3489 59.4703 -2195 37 36 43
-24.9933 59.4693 -2195 37 36 43
-20.6378 59.4685 -2195 37 36 44
-16.3048 59.5491 -2198 35 35 43
-11.9328 59.4944 -2196 33 35 42
-7.58266 59.5482 -2198 28 29 36
-3.22463 59.6022 -2200 31 32 40
1.14078 59.6293 -2201 37 36 45
5.51769 59.7378 -2205 36 35 45
9.89704 59.7652 -2206 35 34 43
14.3063 59.901 -2211 36 35 43
18.6848 59.8746 -2210 37 36 44
23.1013 59.9566 -2213 39 38 45
27.4677 59.9033 -2211 39 38 46
31.8409 59.8773 -2210 36 35 43
36.2102 59.8515 -2209 36 35 42
40.5944 59.8529 -2209 38 39 47
44.9788 59.8544 -2209 40 43 52
49.4083 59.9103 -2211 46 42 49
53.8947 60.0206 -2215 48 43 50
58.3975 60.131 -2219 51 46 53
62.8883 60.2145 -2222 60 50 52
67.4825 60.3795 -2228 180 168 167
71.9396 60.4092 -2229 248 230 222
76.4012 60.439 -2230 251 230 221
80.795 60.4147 -2229 255 230 220
85.1854 60.3906 -2228 254 231 220
89.6127 60.3939 -2228 254 232 221
93.9564 60.3431 -2226 254 232 222
98.5583 60.455 -2230 255 233 223
103.084 60.5129 -2232 255 234 224
107.571 60.5438 -2233 255 235 223
111.962 60.5207 -2232 255 234 223
116.298 60.4706 -2230 255 233 221
120.843 60.5292 -2232 255 233 221
125.117 60.4523 -2229 255 232 220
129.496 60.4299 -2228 255 231 217
133.932 60.4347 -2228 255 231 217
138.493 60.4939 -2230 255 231 216
218.66 60.6116 -2230 250 233 222
223.229 60.6469 -2231 251 231 222
227.905 60.7094 -2233 252 229 222
232.28 60.6907 -2232 250 227 219
-477.631 56.631 -2221 247 228 220
-472.805 56.5891 -2220 250 229 220
-467.355 56.4708 -2216 253 230 219
-463.178 56.5054 -2218 253 230 219
-458.997 56.5404 -2220 253 229 218
-449.608 56.4834 -2219 254 231 218
-445.424 56.5187 -2221 253 230 218
-440.839 56.5034 -2221 254 231 219
-436.257 56.4881 -2221 250 230 219
-431.679 56.4731 -2221 172 153 146
-427.104 56.4583 -2221 73 60 58
-421.392 56.2911 -2215 55 46 45
-416.272 56.2004 -2212 49 42 43
-411.354 56.1352 -2210 46 40 42
-406.264 56.0449 -2207 46 39 42
-401.19 55.9547 -2204 45 38 42
-396.851 55.9664 -2205 44 37 41
-392.511 55.9782 -2206 39 35 40
-387.819 55.9393 -2205 39 34 41
-383.482 55.9514 -2206 37 33 41
-378.457 55.8621 -2203 36 33 40
-373.956 55.8493 -2203 36 33 40
-368.62 55.7097 -2198 37 34 42
-364.467 55.7478 -2200 35 34 42
-359.818 55.71 -2199 32 31 39
-355.176 55.6723 -2198 33 30 37
-350.541 55.6349 -2197 32 29 37
-345.756 55.5722 -2195 37 36 44
-341.292 55.5606 -2195 36 36 46
-336.525 55.4983 -2193 30 31 41
-332.374 55.5374 -2195 30 29 39
-328.517 55.6273 -2199 28 27 37
-322.73 55.3884 -2190 30 29 39
-318.435 55.4028 -2191 39 38 48
-312.85 55.1897 -2183 42 41 51
-307.582 55.0274 -2177 45 44 54
-302.619 54.9159 -2173 49 48 58
-298.499 54.9562 -2175 52 51 61
-294.102 54.946 -2175 54 53 63
-289.841 54.9613 -2176 52 51 61
-285.316 54.9262 -2175 53 52 60
-280.539 54.8407 -2172 59 57 65
-275.395 54.6798 -2166 55 52 60
-270.778 54.62 -2164 49 47 59
-266.048 54.5351 -2161 52 51 61
-261.09 54.3999 -2156 52 49 50
-256.512 54.3407 -2154 58 53 51
-251.827 54.2563 -2151 72 66 61
-247.041 54.147 -2147 88 79 71
-242.612 54.1135 -2146 78 68 61
-237.078 53.8278 -2135 63 53 50
-232.027 53.6434 -2128 46 39 34
-227.969 53.6861 -2130 36 30 24
-224.22 53.8044 -2135 29 24 21
-219.423 53.6709 -2130 29 25 21
-215.456 53.739 -2133 68 65 58
-211.181 53.7318 -2133 87 83 76
-206.617 53.6491 -2130 71 65 59
-202.351 53.6422 -2130 57 50 44
-198.273 53.6857 -2132 39 32 27
-193.006 53.4021 -2121 43 36 31
-188.853 53.4208 -2122 42 34 32
-184.61 53.4145 -2122 46 38 36
-179.943 53.2825 -2117 59 51 51
-175.879 53.3267 -2119 63 55 56
-172.456 53.5725 -2129 57 49 50
-168.205 53.5667 -2129 50 42 43
-164.263 53.6617 -2133 45 37 37
-160.682 53.8827 -2142 36 28 30
-156.774 54.003 -2147 38 31 33
-152.989 54.1739 -2154 41 35 36
-149.039 54.2945 -2159 43 36 39
-144.669 54.2643 -2158 42 35 39
-140.433 54.2847 -2159 42 35 41
-136.006 54.2297 -2157 41 35 41
-131.71 54.2252 -2157 42 38 43
-127.415 54.2209 -2157 45 41 46
-123.064 54.1914 -2156 46 42 47
-118.773 54.1873 -2156 48 45 50
-114.535 54.2086 -2157 48 45 51
-110.346 54.255 -2159 47 44 51
-105.856 54.1509 -2155 46 45 53
-101.664 54.1976 -2157 48 47 55
-97.3306 54.1692 -2156 50 49 57
-93.0448 54.166 -2156 49 48 56
-88.9243 54.2633 -2160 49 48 56
-84.632 54.2603 -2160 47 46 54
-80.3031 54.2325 -2159 45 44 52
-76.2251 54.3805 -2165 46 43 53
-71.8915 54.3529 -2164 45 42 51
-67.7499 54.4761 -2169 42 39 47
-63.6474 54.6497 -2176 41 38 46
-59.3541 54.6728 -2177 43 41 49
-55.0067 54.6458 -2176 43 42 52
-50.7103 54.6691 -2177 41 40 50
-46.4316 54.7177 -2179 43 42 52
-42.1454 54.7664 -2181 43 40 50
-37.8862 54.8655 -2185 39 37 46
-33.6268 54.9899 -2190 38 37 44
-29.3613 55.1394 -2196 37 36 43
-25.0152 55.1636 -2197 37 36 43
-20.6465 55.1378 -2196 38 37 45
-16.3042 55.1874 -2198 34 35 42
-11.9378 55.1618 -2197 29 31 38
-7.5824 55.1866 -2198 25 24 32
-3.22306 55.2115 -2199 28 27 35
1.14074 55.2617 -2201 34 33 41
5.51248 55.312 -2203 34 33 41
9.89221 55.3625 -2205 34 33 41
14.3058 55.5135 -2211 34 33 41
18.7011 55.5392 -2212 37 36 44
23.1005 55.565 -2213 39 38 45
27.4792 55.5408 -2212 37 36 43
31.8685 55.5418 -2212 33 32 39
36.2418 55.5178 -2211 35 34 41
40.6297 55.5191 -2211 39 40 47
45.0383 55.5457 -2212 37 40 47
49.4065 55.5222 -2211 42 39 44
53.8928 55.6243 -2215 43 39 44
58.3165 55.6514 -2216 45 38 45
62.8861 55.8041 -2222 81 69 69
67.4195 55.9067 -2226 205 190 187
71.9048 55.9593 -2228 245 224 215
76.2273 55.8865 -2225 248 225 215
80.7559 55.9645 -2228 255 226 215
85.2207 55.9924 -2229 252 227 215
89.6096 55.9702 -2228 252 229 216
94.0375 55.9735 -2228 253 229 219
98.6874 56.1023 -2233 255 231 219
102.942 56.0052 -2229 254 231 218
107.663 56.1595 -2235 254 232 219
112.108 56.1632 -2235 255 233 219
116.294 56.0414 -2230 255 233 218
120.676 56.0203 -2229 255 232 217
124.776 55.8736 -2223 254 231 216
129.375 55.9534 -2226 255 230 216
133.566 55.8573 -2222 255 230 216
138.302 55.9876 -2227 255 231 217
142.61 55.942 -2225 255 232 218
147.308 56.0475 -2229 255 231 216
160.855 56.1386 -2232 255 230 218
174.372 56.2059 -2234 255 231 219
178.752 56.1869 -2233 255 230 218
183.212 56.1929 -2233 255 229 217
187.337 56.0986 -2229 255 229 217
191.448 56.0043 -2225 255 229 218
208.875 55.9307 -2221 255 234 222
213.61 56.0135 -2224 254 232 211
218.456 56.1217 -2228 255 230 212
222.821 56.104 -2227 255 228 212
227.387 56.1367 -2228 255 228 213
231.855 56.1446 -2228 254 226 212
236.007 56.0769 -2225 255 225 212
-491.256 52.1791 -2220 254 230 224
-486.633 52.1633 -2220 254 232 225
-482.666 52.2182 -2223 255 232 224
-477.83 52.1794 -2222 255 231 222
-473.641 52.2109 -2224 255 230 219
-467.55 52.0316 -2217 255 230 217
-463.371 52.0636 -2219 255 230 216
-458.568 52.0253 -2218 255 230 216
-453.773 51.9873 -2217 254 229 218
-449.391 51.9963 -2218 254 231 220
-446.011 52.1226 -2224 254 230 219
-440.625 52.0147 -2220 255 233 221
-436.242 52.0242 -2221 254 229 218
-431.859 52.0337 -2222 206 183 175
-426.705 51.9497 -2219 83 70 69
-421.568 51.8661 -2216 54 45 46
-416.446 51.7824 -2213 49 42 46
-411.341 51.6991 -2210 44 37 42
-406.251 51.6159 -2207 43 37 42
-401.904 51.6265 -2208 45 39 43
-397.378 51.6137 -2208 43 38 41
-393.21 51.6479 -2210 39 35 40
-388.158 51.5653 -2207 39 35 40
-383.469 51.5298 -2206 37 33 39
-378.616 51.4709 -2204 36 33 40
-374.453 51.5057 -2206 36 33 40
-369.279 51.4006 -2202 37 34 42
-364.786 51.389 -2202 36 34 42
-360.297 51.3775 -2202 33 32 40
-355.649 51.3428 -2201 33 30 37
-350.689 51.2616 -2198 31 29 36
-345.745 51.1806 -2195 36 35 43
-340.97 51.1232 -2193 35 36 44
-336.667 51.1357 -2194 28 30 38
-332.212 51.1252 -2194 28 27 37
-328.207 51.1847 -2197 26 25 35
-322.866 51.0346 -2191 31 29 39
-317.989 50.9546 -2188 41 40 50
-312.41 50.7584 -2180 46 45 55
-307.572 50.6787 -2177 48 47 57
-302.192 50.5062 -2170 50 49 60
-298.626 50.6365 -2176 52 51 62
-293.957 50.5806 -2174 51 50 61
-289.432 50.5481 -2173 52 51 62
-285.176 50.5624 -2174 51 50 58
-280.272 50.4604 -2170 51 49 57
-275.64 50.4052 -2168 52 49 56
-270.769 50.3036 -2164 41 40 49
-265.793 50.179 -2159 47 46 54
-261.203 50.1242 -2157 51 49 47
-256.623 50.0695 -2155 57 53 50
-251.585 49.9222 -2149 79 73 69
-246.687 49.7982 -2144 93 82 67
-242.039 49.7209 -2141 90 79 65
-236.182 49.3883 -2127 73 63 55
-231.147 49.2184 -2120 49 41 34
-226.999 49.2345 -2121 39 33 26
-223.268 49.3434 -2126 36 30 27
-219.004 49.3366 -2126 36 30 27
-215.145 49.4226 -2130 69 64 59
-211.174 49.4855 -2133 98 93 86
-206.804 49.4557 -2132 77 71 63
-202.535 49.4494 -2132 61 54 47
-198.546 49.5127 -2135 44 37 30
-193.728 49.3675 -2129 46 39 34
-189.292 49.3151 -2127 43 35 32
-184.778 49.2397 -2124 40 32 30
-180.192 49.1412 -2120 55 45 45
-176.039 49.1589 -2121 69 61 61
-172.289 49.2924 -2127 65 57 58
-168.121 49.3104 -2128 50 42 42
-164.335 49.4442 -2134 44 36 36
-160.526 49.5781 -2140 38 30 32
-156.695 49.7122 -2146 37 29 31
-152.913 49.8696 -2153 41 33 35
-148.965 49.9805 -2158 44 37 41
-144.731 49.9992 -2159 43 36 40
-140.429 49.9947 -2159 42 37 42
-136.064 49.9673 -2158 44 39 44
-131.767 49.9632 -2158 45 41 46
-127.47 49.959 -2158 44 41 46
-123.06 49.9088 -2156 43 40 45
-118.879 49.9514 -2158 44 41 46
-114.479 49.9015 -2156 46 43 49
-110.19 49.898 -2156 47 44 51
-106 49.9409 -2158 47 45 53
-101.614 49.8915 -2156 49 47 55
-97.2372 49.8421 -2154 49 48 56
-93.0849 49.9085 -2157 48 47 55
-88.8391 49.9287 -2158 48 47 55
-84.6292 49.9723 -2160 46 44 52
-80.4491 50.0392 -2163 44 41 50
-76.2931 50.1293 -2167 42 39 49
-71.9889 50.127 -2167 40 38 47
-67.7789 50.1942 -2170 39 37 45
-63.4991 50.2153 -2171 40 37 45
-59.2704 50.2828 -2174 43 40 49
-54.9796 50.3041 -2175 45 43 51
-50.7086 50.3488 -2177 45 43 53
-46.4301 50.3935 -2179 45 43 53
-42.1247 50.4153 -2180 42 39 49
-37.9197 50.5759 -2187 40 37 46
-33.6411 50.6673 -2191 39 37 44
-29.3068 50.6894 -2192 37 36 43
-24.9802 50.7349 -2194 36 35 42
-20.6364 50.7573 -2195 37 36 44
-16.3037 50.8261 -2198 34 35 42
-11.9483 50.8488 -2199 29 31 38
-7.58905 50.8716 -2200 26 25 33
-3.22882 50.9408 -2203 30 29 37
1.14226 50.9639 -2204 33 32 40
5.52481 51.0565 -2208 32 31 39
9.90983 51.0799 -2209 33 32 40
14.3248 51.1958 -2214 32 31 39
18.6836 51.1039 -2210 35 34 42
23.0789 51.1276 -2211 37 36 43
27.4286 51.0591 -2208 35 34 41
31.8099 51.06 -2208 34 33 40
36.2078 51.0842 -2209 37 36 43
40.5549 51.0391 -2207 38 39 45
44.9757 51.0867 -2209 37 39 45
49.3602 51.0882 -2209 40 36 42
53.8181 51.1591 -2212 43 38 44
58.3673 51.2997 -2218 47 39 44
62.9407 51.4403 -2224 122 108 106
67.4779 51.5349 -2228 220 203 197
71.8702 51.5139 -2227 237 216 209
76.2248 51.4699 -2225 242 219 210
80.7533 51.5418 -2228 248 220 209
85.1797 51.5444 -2228 248 223 212
89.6469 51.5702 -2229 249 224 213
94.1611 51.6193 -2231 251 225 215
98.7281 51.6917 -2234 253 226 214
103.123 51.6719 -2233 254 225 212
107.66 51.7214 -2235 251 226 213
112.004 51.6785 -2233 254 229 216
116.238 51.5895 -2229 255 229 217
120.618 51.57 -2228 254 230 217
124.94 51.5276 -2226 254 230 217
129.371 51.5315 -2226 255 228 212
133.622 51.4662 -2223 255 228 212
138.298 51.5631 -2227 255 229 214
142.67 51.5443 -2226 255 230 216
147.171 51.5719 -2227 255 229 214
151.677 51.5997 -2228 255 229 214
156.259 51.6509 -2230 255 227 214
160.634 51.6327 -2229 255 229 216
165.08 51.6377 -2229 255 230 217
169.679 51.6894 -2231 255 230 217
174.054 51.6716 -2230 255 231 217
178.586 51.7002 -2231 255 231 218
182.96 51.6827 -2230 255 229 215
187.247 51.6421 -2228 255 229 213
191.614 51.6248 -2227 255 229 212
195.802 51.5614 -2224 255 229 212
200.16 51.5443 -2223 255 227 209
204.515 51.5275 -2222 255 224 206
208.962 51.534 -2222 255 225 206
213.699 51.6101 -2225 255 225 201
218.253 51.6401 -2226 255 223 201
222.613 51.6239 -2225 255 222 203
227.38 51.7004 -2228 255 223 206
231.743 51.6845 -2227 255 222 206
235.681 51.5758 -2222 255 223 209
239.816 51.5136 -2219 251 225 210
-516.272 47.9484 -2228 254 229 219
-510.922 47.8687 -2225 254 229 219
-504.679 47.7032 -2218 254 228 218
-500.724 47.7529 -2221 253 228 220
-494.974 47.6308 -2216 254 229 221
-490.356 47.6162 -2216 255 229 221
-486.18 47.6449 -2218 255 229 222
-482.651 47.738 -2223 254 229 222
-478.03 47.7239 -2223 255 229 221
-473.413 47.7099 -2223 255 230 220
-467.957 47.6103 -2219 255 231 217
-462.731 47.5323 -2216 255 230 216
-458.14 47.5188 -2216 254 229 216
-453.145 47.4626 -2214 253 229 221
-449.377 47.5351 -2218 253 229 221
-444.593 47.5006 -2217 252 228 219
-440.215 47.5091 -2218 254 229 217
-435.836 47.5178 -2219 251 224 213
-430.874 47.4622 -2217 232 206 198
-425.538 47.3642 -2213 110 97 96
-420.414 47.2877 -2210 54 46 48
-415.869 47.2755 -2210 48 40 46
-410.956 47.2207 -2208 43 37 43
-406.606 47.2301 -2209 39 35 40
-402.438 47.2611 -2211 43 39 42
-397.905 47.2495 -2211 41 37 40
-393.02 47.1952 -2209 39 35 40
-388.498 47.1839 -2209 38 34 39
-383.631 47.13 -2207 37 32 37
-378.948 47.0976 -2206 37 32 39
-374.272 47.0653 -2205 36 32 39
-369.77 47.0545 -2205 36 33 40
-365.107 47.0225 -2204 35 33 41
-360.613 47.012 -2204 31 30 38
-355.639 46.9377 -2201 32 29 36
-350.36 46.8208 -2196 31 28 35
-345.577 46.768 -2194 34 33 41
-340.649 46.6942 -2191 33 34 41
-335.89 46.6418 -2189 27 29 36
-331.899 46.6961 -2192 28 27 37
-327.898 46.7505 -2195 28 26 36
-323.004 46.6772 -2192 34 31 41
-318.706 46.6893 -2193 42 41 51
-312.257 46.3821 -2179 49 48 58
-307.845 46.3732 -2179 49 48 58
-301.765 46.109 -2167 49 48 59
-297.931 46.1855 -2171 50 49 61
-293.408 46.1557 -2170 50 49 61
-289.024 46.1474 -2170 49 47 59
-284.38 46.0965 -2168 52 51 59
-279.488 46.0034 -2164 52 50 57
-274.869 45.9529 -2162 44 41 49
-270.136 45.8813 -2159 44 42 50
-265.416 45.8099 -2156 44 43 50
-261.195 45.8236 -2157 47 45 44
-256.496 45.7524 -2154 56 52 49
-251.46 45.6177 -2148 84 78 73
-246.565 45.5044 -2143 103 91 70
-241.692 45.3912 -2138 108 96 76
-236.508 45.2145 -2130 85 76 62
-231.577 45.0805 -2124 53 46 35
-227.741 45.1587 -2128 45 39 31
-224.206 45.3008 -2135 43 37 34
-220.13 45.3368 -2137 39 33 30
-215.745 45.3095 -2136 66 59 55
-211.563 45.3245 -2137 109 103 96
-206.992 45.255 -2134 88 83 74
-202.529 45.2067 -2132 61 54 46
-198.261 45.2009 -2132 44 37 29
-193.904 45.1741 -2131 46 39 34
-189.375 45.105 -2128 46 38 35
-184.685 44.9937 -2123 42 34 32
-179.847 44.8402 -2116 48 38 38
-175.536 44.8139 -2115 64 55 55
-171.393 44.8302 -2116 73 65 65
-167.167 44.8253 -2116 65 57 57
-163.714 45.0324 -2126 49 41 41
-159.997 45.1761 -2133 38 30 32
-156.399 45.3622 -2142 38 30 32
-152.837 45.5695 -2152 42 34 36
-149.099 45.7346 -2160 43 36 40
-144.727 45.7093 -2159 41 34 38
-140.555 45.7476 -2161 39 35 40
-136.124 45.7013 -2159 39 35 40
-131.885 45.7186 -2160 41 37 42
-127.525 45.6937 -2159 43 40 45
-123.17 45.669 -2158 42 39 44
-118.765 45.6233 -2156 42 39 44
-114.316 45.5565 -2153 43 40 45
-110.237 45.6379 -2157 45 42 49
-105.751 45.5502 -2153 49 46 53
-101.47 45.5473 -2153 50 48 55
-97.1892 45.5444 -2153 47 46 54
-93.1685 45.6686 -2159 49 48 56
-88.8777 45.666 -2159 50 49 57
-84.7051 45.727 -2162 45 42 50
-80.4469 45.7458 -2163 41 38 46
-76.1852 45.7647 -2164 39 36 46
-72.02 45.8472 -2168 37 35 44
-67.7769 45.8875 -2170 37 36 44
-63.585 45.9703 -2174 40 37 45
-59.3231 46.0108 -2176 42 39 47
-55.0285 46.0303 -2177 45 42 50
-50.7304 46.05 -2178 47 44 54
-46.45 46.0909 -2180 44 41 51
-42.2007 46.1742 -2184 43 39 50
-37.8839 46.1942 -2185 40 37 46
-33.6094 46.2778 -2189 39 36 43
-29.3728 46.446 -2197 36 35 42
-25.0022 46.4241 -2196 35 34 41
-20.664 46.4657 -2198 36 35 43
-16.3106 46.4863 -2199 34 35 42
-11.9588 46.5282 -2201 29 31 38
-7.59918 46.5702 -2203 27 26 33
-3.23019 46.5912 -2204 28 27 34
1.14326 46.6335 -2206 31 30 38
5.52715 46.697 -2209 32 31 39
9.9185 46.7395 -2211 33 32 40
14.3114 46.761 -2212 31 30 38
18.6999 46.7614 -2212 32 31 38
23.0886 46.762 -2212 34 33 40
27.4402 46.6993 -2209 35 34 41
31.8233 46.7002 -2209 35 34 41
36.2231 46.7223 -2210 37 36 43
40.6272 46.7445 -2211 39 38 43
44.9948 46.7246 -2210 38 37 41
49.4035 46.7471 -2211 42 37 45
53.8895 46.8331 -2215 46 41 48
58.4182 46.9404 -2220 61 53 57
62.9388 47.0267 -2224 153 137 134
67.4153 47.0709 -2226 225 204 197
71.9649 47.1574 -2230 234 213 207
76.291 47.0961 -2227 239 216 208
80.7871 47.1406 -2229 245 217 206
85.2918 47.1853 -2231 244 218 207
89.8453 47.2512 -2234 245 219 208
94.3271 47.275 -2235 248 220 207
98.6813 47.2354 -2233 252 221 208
103.305 47.3229 -2237 254 221 208
107.753 47.3261 -2237 251 222 210
112.001 47.2446 -2233 252 223 211
116.338 47.2055 -2231 253 223 214
120.615 47.1453 -2228 252 224 214
124.824 47.0642 -2224 252 225 214
129.309 47.089 -2225 253 223 204
133.558 47.0292 -2222 253 224 206
138.231 47.1177 -2226 252 223 206
142.729 47.143 -2227 250 223 208
147.166 47.1471 -2227 251 224 209
151.809 47.2149 -2230 252 225 210
156.324 47.2404 -2231 253 223 209
160.845 47.2662 -2232 254 224 209
165.075 47.2073 -2229 252 223 208
169.598 47.2332 -2230 251 223 208
173.893 47.1957 -2228 251 223 207
178.501 47.2432 -2230 249 223 208
182.873 47.2271 -2229 249 222 204
187.242 47.2112 -2228 249 218 197
191.78 47.2379 -2229 249 215 193
196.148 47.2221 -2228 249 213 191
200.424 47.1855 -2226 250 212 188
204.969 47.2124 -2227 245 208 183
209.238 47.176 -2225 241 205 179
213.788 47.2032 -2226 236 199 173
218.149 47.1882 -2225 237 201 176
222.707 47.2158 -2226 239 203 181
227.169 47.2222 -2226 242 205 188
231.32 47.1651 -2223 243 208 191
235.674 47.1506 -2222 242 212 197
239.593 47.0512 -2217 247 217 201
243.934 47.0369 -2216 251 222 205
247.937 46.9591 -2212 253 224 208
252.383 46.9663 -2212 252 227 213
261.516 47.0235 -2214 253 228 218
270.063 46.975 -2211 253 227 215
274.517 46.983 -2211 254 228 215
-597.821 43.1664 -2199 251 230 219
-594.209 43.2288 -2203 252 230 220
-588.177 43.1146 -2198 252 230 220
-584.826 43.1969 -2203 254 230 220
-579.615 43.1419 -2201 253 231 222
-570.012 43.0912 -2200 254 234 226
-565.863 43.1152 -2202 254 235 227
-561.201 43.0999 -2202 254 235 225
-556.797 43.1045 -2203 253 235 227
-553.646 43.207 -2209 253 235 227
-549.73 43.2508 -2212 253 235 227
-546.544 43.3533 -2218 254 233 227
-540.896 43.2605 -2214 253 232 225
-536.722 43.2852 -2216 253 231 223
-531.583 43.2318 -2214 253 231 222
-526.934 43.2177 -2214 253 230 219
-522.997 43.2621 -2217 253 230 218
-519.519 43.3457 -2222 253 231 219
-515.562 43.3903 -2225 254 229 219
-510.678 43.3571 -2224 254 229 218
-504.892 43.2461 -2219 254 229 218
-500.034 43.2133 -2218 254 230 220
-495.184 43.1805 -2217 253 229 219
-490.342 43.1478 -2216 254 228 219
-486.385 43.1932 -2219 253 228 217
-482.854 43.2777 -2224 254 229 217
-478.232 43.2649 -2224 254 229 216
-473.826 43.2716 -2225 254 228 217
-468.155 43.1619 -2220 254 228 216
-462.927 43.0912 -2217 253 226 217
-457.921 43.0402 -2215 251 224 215
-453.746 43.0669 -2217 251 224 215
-448.756 43.0161 -2215 250 224 214
-444.982 43.0819 -2219 249 224 214
-440.997 43.1284 -2222 249 219 206
-436.02 43.078 -2220 247 218 206
-430.667 42.989 -2216 243 216 207
-426.296 42.997 -2217 164 148 146
-420.402 42.85 -2210 57 47 48
-415.858 42.839 -2210 52 44 49
-411.317 42.8281 -2210 45 38 42
-407.147 42.856 -2212 38 34 37
-402.791 42.8647 -2213 40 36 39
-398.794 42.9123 -2216 39 35 38
-394.077 42.8825 -2215 37 33 37
-389.015 42.8141 -2212 34 29 33
-383.968 42.7459 -2209 32 26 32
-379.281 42.7165 -2208 33 29 34
-374.601 42.6872 -2207 33 29 35
-370.263 42.6968 -2208 32 29 36
-365.428 42.6484 -2206 31 30 37
-360.931 42.639 -2206 29 28 35
-355.79 42.5522 -2202 30 27 32
-350.829 42.485 -2199 28 25 31
-345.882 42.4179 -2196 32 31 38
-340.795 42.3317 -2192 32 33 40
-336.188 42.3035 -2191 29 31 38
-331.738 42.2947 -2191 28 27 37
-328.039 42.3826 -2196 30 28 38
-323.142 42.3162 -2193 34 31 41
-318.843 42.327 -2194 39 38 48
-312.678 42.0873 -2182 46 45 55
-307.695 42.0021 -2178 47 46 56
-302.453 41.8784 -2172 48 47 58
-298.472 41.9284 -2175 49 48 60
-293.67 41.8628 -2172 51 48 60
-289.149 41.836 -2171 52 49 61
-284.241 41.7515 -2167 52 51 59
-279.61 41.7055 -2165 47 45 53
-274.862 41.6405 -2162 40 37 45
-270.003 41.5564 -2158 40 39 46
-265.655 41.5494 -2158 43 42 49
-261.188 41.5233 -2157 51 49 49
-256.727 41.4973 -2156 65 60 55
-251.804 41.3945 -2151 90 83 75
-247.134 41.3303 -2148 112 99 74
-242.138 41.2084 -2142 124 111 87
-237.057 41.0675 -2135 98 90 71
-231.897 40.9077 -2127 61 54 42
-228.27 41.017 -2133 50 44 36
-223.885 40.9919 -2132 45 39 36
-220.124 41.0824 -2137 37 30 28
-215.537 41.019 -2134 58 50 48
-211.855 41.1287 -2140 107 102 95
-207.471 41.1041 -2139 98 95 86
-202.903 41.0411 -2136 65 58 50
-198.907 41.0936 -2139 50 43 36
-194.445 41.05 -2137 48 41 36
-190.082 41.0259 -2136 48 40 37
-185.028 40.8481 -2127 43 35 33
-180.267 40.7282 -2121 43 33 33
-175.365 40.57 -2113 56 46 46
-171.226 40.5847 -2114 64 56 56
-166.847 40.5419 -2112 78 70 70
-163.324 40.7104 -2121 74 66 66
-159.692 40.8598 -2129 47 39 41
-156.394 41.1052 -2142 41 33 35
-152.762 41.2739 -2151 41 33 37
-148.957 41.4043 -2158 43 36 40
-144.79 41.4389 -2160 39 32 36
-140.681 41.4928 -2163 36 32 37
-136.246 41.4508 -2161 36 32 37
-131.82 41.409 -2159 40 36 41
-127.521 41.4056 -2159 44 40 45
-123.11 41.3641 -2157 43 40 45
-118.652 41.3034 -2154 42 39 44
-114.366 41.3004 -2154 42 39 44
-109.979 41.2592 -2152 45 42 47
-105.699 41.2564 -2152 48 45 52
-101.42 41.2538 -2152 48 45 53
-97.1866 41.2703 -2153 47 46 54
-92.9502 41.287 -2154 47 46 54
-88.8341 41.3613 -2158 47 44 52
-84.5851 41.3783 -2159 42 39 47
-80.4074 41.4336 -2162 41 38 47
-76.148 41.4508 -2163 39 36 46
-71.9848 41.5255 -2167 36 35 44
-67.6502 41.5046 -2166 36 35 45
-63.437 41.5604 -2169 39 36 44
-59.2125 41.6163 -2172 39 36 44
-54.9765 41.6723 -2175 43 40 48
-50.7523 41.7476 -2179 46 43 53
-46.4914 41.8038 -2182 44 41 51
-42.2189 41.8601 -2185 43 38 49
-37.9522 41.9357 -2189 39 35 44
-33.6392 41.9731 -2191 37 34 41
-29.372 42.0873 -2197 36 34 39
-24.9902 42.0483 -2195 36 34 40
-20.6635 42.1051 -2198 35 34 42
-16.3102 42.1238 -2199 33 34 41
-11.9694 42.2001 -2203 30 32 39
-7.60242 42.219 -2204 28 27 34
-3.2345 42.2763 -2207 27 26 34
1.14633 42.3721 -2212 30 29 37
5.53951 42.4105 -2214 32 31 39
9.92272 42.3724 -2212 34 33 41
14.324 42.411 -2214 31 30 38
18.7163 42.4114 -2214 31 30 38
23.0671 42.3353 -2210 34 33 40
27.4643 42.3552 -2211 37 36 43
31.8369 42.3368 -2210 36 35 42
36.2221 42.3376 -2210 35 34 41
40.6077 42.3386 -2210 38 37 42
45.0343 42.3781 -2212 38 36 39
49.4691 42.4176 -2214 40 37 44
53.9367 42.4764 -2217 44 40 46
58.5218 42.612 -2224 74 65 66
63.0786 42.7093 -2229 174 157 151
67.5347 42.7302 -2230 225 204 194
71.9306 42.7128 -2229 235 208 196
76.3575 42.7147 -2229 241 211 198
80.8574 42.7551 -2231 246 211 197
85.3277 42.7764 -2232 245 212 197
89.8429 42.817 -2234 245 211 196
94.1979 42.781 -2232 248 213 197
98.7667 42.841 -2235 251 217 202
103.21 42.8436 -2235 253 219 206
107.557 42.808 -2233 250 220 207
111.898 42.7726 -2231 250 220 208
116.231 42.7372 -2229 251 221 210
120.611 42.721 -2228 249 222 210
124.933 42.6858 -2226 247 220 208
129.363 42.6891 -2226 249 220 201
133.675 42.6541 -2224 250 221 202
138.165 42.6768 -2225 249 220 202
142.661 42.6996 -2226 247 220 205
147.295 42.761 -2229 247 220 205
151.873 42.8032 -2231 246 219 204
156.25 42.788 -2230 253 217 199
160.769 42.8112 -2231 254 216 197
164.848 42.7195 -2226 252 214 194
169.289 42.7239 -2226 250 213 192
173.576 42.6899 -2224 247 210 189
178.016 42.6944 -2224 243 207 187
182.539 42.7184 -2225 243 207 186
186.9 42.7039 -2224 240 205 184
191.517 42.7472 -2226 236 198 175
196.055 42.7715 -2227 231 192 169
200.508 42.7766 -2227 229 187 161
205.055 42.8011 -2228 220 179 153
209.42 42.7872 -2227 214 174 148
213.782 42.7736 -2226 214 174 148
218.143 42.7599 -2225 219 179 155
222.601 42.7656 -2225 223 184 162
226.856 42.733 -2223 228 191 174
231.002 42.6813 -2220 234 199 183
235.455 42.6874 -2220 236 207 192
239.586 42.6358 -2217 241 212 197
244.148 42.6613 -2218 246 217 202
248.379 42.6293 -2216 248 220 206
252.832 42.6358 -2216 249 224 210
257.52 42.6809 -2218 251 227 213
261.745 42.6491 -2216 252 228 214
266.084 42.6367 -2215 252 228 214
270.422 42.6245 -2214 252 229 214
274.385 42.5547 -2210 253 228 213
278.839 42.5619 -2210 254 228 213
283.168 42.5499 -2209 255 228 212
287.494 42.538 -2208 254 227 214
-611.076 38.6878 -2196 251 226 218
-605.271 38.6026 -2192 253 226 218
-600.858 38.6056 -2193 253 227 218
-596.175 38.591 -2193 254 228 217
-592.845 38.6646 -2198 253 228 216
-587.091 38.5799 -2194 253 227 215
-583.483 38.6359 -2198 255 227 215
-579.863 38.6922 -2202 255 227 216
-575.448 38.6958 -2203 255 227 216
-570.256 38.6468 -2201 255 227 215
-566.876 38.7208 -2206 255 229 217
-562.206 38.7072 -2206 255 231 217
-557.035 38.6586 -2204 255 232 218
-553.632 38.7329 -2209 255 232 219
-548.97 38.7196 -2209 255 231 218
-545.791 38.8116 -2215 254 231 222
-540.393 38.7459 -2212 253 230 223
-537.192 38.838 -2218 252 230 221
-531.57 38.7551 -2214 252 229 219
-527.635 38.7948 -2217 252 229 217
-523.219 38.7997 -2218 253 230 218
-519.272 38.8397 -2221 253 230 218
-515.086 38.8622 -2223 253 228 217
-510.435 38.8501 -2223 252 227 215
-505.562 38.8204 -2222 251 227 213
-500.472 38.7735 -2220 250 227 213
-495.171 38.7091 -2217 251 226 213
-490.993 38.7322 -2219 253 226 213
-485.496 38.6507 -2215 253 226 211
-481.974 38.7264 -2220 253 226 210
-478.005 38.7672 -2223 252 225 209
-473.175 38.7385 -2222 253 224 210
-468.354 38.7098 -2221 252 222 210
-463.124 38.6465 -2218 251 220 210
-458.736 38.653 -2219 249 219 209
-453.325 38.5724 -2215 247 218 206
-449.556 38.6313 -2219 246 216 204
-445.172 38.6381 -2220 246 216 204
-440.39 38.6102 -2219 246 213 199
-435.617 38.5824 -2218 242 211 198
-430.851 38.5547 -2217 238 210 200
-425.516 38.475 -2213 205 188 185
-420.581 38.4302 -2211 83 70 69
-416.035 38.4203 -2211 53 44 47
-411.306 38.3931 -2210 45 38 41
-407.689 38.4703 -2215 40 35 37
-403.327 38.4781 -2216 39 35 37
-399.324 38.5207 -2219 39 34 37
-393.889 38.4245 -2214 35 31 34
-389.357 38.4153 -2214 32 26 30
-384.306 38.3541 -2211 30 23 29
-379.959 38.3624 -2212 29 24 30
-375.44 38.3535 -2212 29 24 30
-370.925 38.3448 -2212 29 26 32
-365.916 38.284 -2209 28 26 33
-360.922 38.2235 -2206 26 25 32
-356.105 38.1804 -2204 27 24 29
-351.298 38.1375 -2202 26 23 29
-346.189 38.06 -2198 29 28 35
-340.942 37.9653 -2193 31 32 39
-336.486 37.9574 -2193 31 33 40
-331.881 37.9322 -2192 29 28 38
-327.433 37.9245 -2192 28 27 37
-322.84 37.8995 -2191 30 27 37
-318.399 37.8921 -2191 34 32 42
-313.244 37.7982 -2186 41 40 50
-308.112 37.7045 -2181 42 41 51
-302.445 37.5417 -2172 44 43 54
-298.19 37.552 -2173 50 49 60
-293.527 37.5105 -2171 58 54 67
-288.876 37.4691 -2169 51 47 60
-283.972 37.3933 -2165 46 45 54
-279.345 37.3522 -2163 46 44 52
-274.474 37.2767 -2159 46 43 51
-269.996 37.253 -2158 40 39 47
-265.525 37.2295 -2157 49 48 55
-261.182 37.2234 -2157 56 53 55
-256.959 37.2346 -2158 71 67 58
-252.032 37.1424 -2153 91 85 68
-247.588 37.1194 -2152 118 105 77
-242.697 37.0274 -2147 134 121 94
-237.828 36.9355 -2142 106 97 74
-232.328 36.7404 -2131 64 57 42
-228.05 36.7351 -2131 49 44 34
-223.67 36.7125 -2130 49 43 40
-220.119 36.8281 -2137 40 33 31
-215.835 36.823 -2137 51 44 42
-212.048 36.9041 -2142 99 94 88
-206.981 36.7614 -2134 112 109 100
-201.758 36.5845 -2124 75 68 60
-197.414 36.5626 -2123 59 52 45
-193.166 36.5581 -2123 49 42 37
-189.009 36.5708 -2124 46 39 35
-184.589 36.5321 -2122 46 39 36
-180.178 36.4934 -2120 44 34 34
-175.361 36.3687 -2113 45 36 36
-171.303 36.3992 -2115 48 40 40
-167.001 36.3781 -2114 73 65 65
-163.551 36.5462 -2124 104 96 96
-159.913 36.6801 -2132 85 77 79
-156.61 36.9002 -2145 58 50 53
-152.758 36.9998 -2151 46 38 42
-148.746 37.0651 -2155 44 38 42
-144.719 37.1305 -2159 39 34 37
-140.482 37.1443 -2160 40 36 41
-135.99 37.0896 -2157 40 36 41
-131.817 37.1209 -2159 40 36 41
-127.282 37.0491 -2155 44 41 46
-122.878 37.0119 -2153 43 40 45
-118.704 37.0435 -2155 42 39 44
-114.257 36.9892 -2152 44 41 46
-109.976 36.9865 -2152 46 43 48
-105.745 37.0012 -2153 45 43 51
-101.606 37.0504 -2156 43 41 49
-97.1391 36.9793 -2152 46 45 53
-93.0774 37.0631 -2157 44 42 50
-88.7496 37.0438 -2156 41 38 46
-84.5831 37.0933 -2159 39 36 44
-80.2938 37.0914 -2159 41 38 46
-76.1109 37.1412 -2162 39 36 45
-71.8502 37.1566 -2163 37 35 44
-67.6797 37.2237 -2167 37 35 45
-63.5232 37.3081 -2172 36 33 41
-59.3746 37.4098 -2178 36 33 41
-55.0763 37.4256 -2179 40 37 45
-50.7977 37.4587 -2181 45 42 51
-46.5542 37.5263 -2185 47 44 54
-42.2565 37.5596 -2187 43 39 50
-37.9686 37.6102 -2190 37 34 43
-33.6691 37.6609 -2193 36 33 40
-29.3312 37.6774 -2194 36 33 38
-25.0123 37.7283 -2197 37 34 39
-20.6536 37.7278 -2197 35 34 42
-16.3246 37.796 -2201 33 33 40
-11.9745 37.8472 -2204 29 31 38
-7.60914 37.8813 -2206 26 25 32
-3.23882 37.9499 -2210 26 25 32
1.1463 37.9842 -2212 29 27 35
5.53687 38.0015 -2213 29 28 36
9.93593 38.036 -2215 30 29 37
14.3171 38.0019 -2213 30 29 37
18.7159 38.0195 -2214 32 31 39
23.077 37.9685 -2211 35 34 41
27.4885 38.0034 -2213 38 37 44
31.8793 38.0041 -2213 38 37 44
36.2704 38.0049 -2213 35 34 41
40.6618 38.0058 -2213 35 33 38
45.0739 38.0239 -2214 38 35 38
49.5573 38.0937 -2218 37 35 42
54.057 38.1636 -2222 40 36 42
58.5204 38.1993 -2224 97 86 85
63.0205 38.2522 -2227 193 175 168
67.5027 38.288 -2229 221 199 188
71.9289 38.2897 -2229 233 201 184
76.3556 38.2914 -2229 237 201 184
80.8555 38.3276 -2231 243 202 184
85.4021 38.381 -2234 243 205 186
89.8005 38.3659 -2233 244 206 187
94.2378 38.368 -2233 246 207 187
98.6759 38.3702 -2233 246 208 190
103.069 38.3554 -2232 249 212 196
107.507 38.3578 -2232 250 216 200
111.895 38.3433 -2231 250 216 201
116.228 38.3115 -2229 249 216 201
120.608 38.2971 -2228 248 216 200
124.986 38.2827 -2227 247 215 199
129.709 38.3716 -2232 249 215 195
133.912 38.3059 -2228 250 216 196
138.348 38.309 -2228 250 216 196
142.914 38.3466 -2230 246 214 197
147.225 38.3156 -2228 245 213 196
151.801 38.3536 -2230 242 211 193
156.527 38.4259 -2234 247 208 187
160.765 38.378 -2231 247 206 184
164.992 38.3301 -2228 244 203 179
169.437 38.3339 -2228 241 202 177
173.65 38.2864 -2225 237 198 173
178.092 38.2905 -2225 232 194 169
182.453 38.2774 -2224 229 190 165
186.98 38.2989 -2225 228 187 161
191.426 38.3033 -2225 221 180 153
195.962 38.325 -2226 212 170 143
200.503 38.3469 -2227 205 162 131
205.234 38.4033 -2230 198 156 126
209.227 38.3219 -2225 199 157 128
213.873 38.3613 -2227 212 169 141
217.941 38.2974 -2223 224 181 156
222.395 38.3026 -2223 233 191 168
226.545 38.256 -2220 236 198 180
231.412 38.3304 -2224 237 201 184
235.237 38.2323 -2218 235 206 189
239.905 38.2724 -2220 242 212 198
244.252 38.2608 -2219 246 215 202
248.373 38.2147 -2216 247 219 205
253.054 38.2551 -2218 247 221 206
257.513 38.2611 -2218 248 224 209
261.975 38.2672 -2218 249 225 209
265.958 38.2043 -2214 251 226 211
270.538 38.2279 -2215 252 227 213
274.751 38.1997 -2213 252 228 212
278.832 38.1544 -2210 254 229 214
283.289 38.161 -2210 255 229 214
287.617 38.1504 -2209 255 228 214
292.208 38.1744 -2210 254 227 213
296.403 38.1467 -2208 253 229 214
300.865 38.1537 -2208 254 227 214
305.191 38.1436 -2207 252 226 214
-621.043 34.2771 -2198 254 229 221
-615.207 34.2015 -2194 253 228 220
-610.505 34.1882 -2194 251 226 220
-604.981 34.1284 -2191 251 226 220
-600.57 34.1309 -2192 252 226 219
-595.617 34.1025 -2191 251 224 214
-592.562 34.1832 -2197 249 223 211
-586.81 34.1083 -2193 248 221 209
-583.735 34.189 -2199 249 218 205
-579.587 34.2076 -2201 249 217 204
-575.957 34.2574 -2205 249 216 203
-570.761 34.2141 -2203 252 216 201
-567.12 34.264 -2207 254 219 203
-562.193 34.2364 -2206 255 223 205
-557.781 34.2399 -2207 255 225 209
-554.371 34.3056 -2212 255 225 209
-549.455 34.2784 -2211 255 225 209
-545.533 34.3131 -2214 252 225 213
-540.87 34.3015 -2214 250 225 216
-536.696 34.3212 -2216 249 226 213
-531.077 34.2478 -2212 248 223 210
-527.147 34.283 -2215 250 223 210
-522.028 34.2409 -2213 249 223 209
-518.092 34.2763 -2216 247 221 207
-514.379 34.3271 -2220 246 222 210
-509.735 34.3163 -2220 248 222 208
-504.413 34.2591 -2217 248 221 206
-500.235 34.2795 -2219 247 222 204
-495.383 34.2535 -2218 249 222 204
-490.982 34.2584 -2219 251 219 202
-486.362 34.2482 -2219 251 218 201
-481.963 34.2533 -2220 250 218 200
-477.564 34.2586 -2221 250 216 197
-472.739 34.2332 -2220 250 216 197
-468.133 34.2232 -2220 249 213 195
-463.531 34.2134 -2220 248 211 195
-459.14 34.2192 -2221 247 211 194
-454.338 34.1941 -2220 243 210 193
-449.951 34.2 -2221 244 209 192
-445.563 34.206 -2222 241 205 189
-440.976 34.1966 -2222 242 204 188
-436 34.1567 -2220 237 202 186
-430.841 34.1014 -2217 231 203 191
-425.891 34.0617 -2215 218 199 193
-420.572 33.9913 -2211 131 116 113
-416.214 33.9979 -2212 49 39 41
-411.111 33.9431 -2209 48 40 41
-407.68 34.0267 -2215 41 35 36
-402.772 33.9876 -2213 41 35 36
-398.775 34.0252 -2216 39 33 34
-393.702 33.9709 -2213 36 30 33
-389.524 33.9933 -2215 34 27 31
-384.298 33.9239 -2211 31 24 29
-379.778 33.916 -2211 31 25 31
-375.262 33.9081 -2211 32 26 32
-370.749 33.9004 -2211 30 26 32
-365.908 33.862 -2209 25 23 30
-361.241 33.8391 -2208 23 22 29
-356.42 33.801 -2206 27 24 29
-351.61 33.7629 -2204 25 23 28
-346.653 33.7097 -2201 28 27 34
-341.867 33.672 -2199 30 31 38
-336.939 33.619 -2196 31 33 40
-332.328 33.5966 -2195 29 28 38
-327.874 33.5898 -2195 28 26 36
-322.833 33.5218 -2191 28 25 35
-318.246 33.4999 -2190 29 28 38
-313.38 33.4475 -2187 35 34 44
-308.246 33.3646 -2182 35 34 44
-302.996 33.2665 -2176 41 40 50
-298.595 33.2603 -2176 47 46 56
-293.521 33.1777 -2171 51 47 60
-288.869 33.1411 -2169 45 41 54
-283.965 33.0741 -2165 43 42 52
-279.209 33.0225 -2162 45 43 52
-274.468 32.9709 -2159 50 47 55
-269.99 32.95 -2158 51 50 60
-265.396 32.9139 -2156 56 55 64
-261.176 32.9237 -2157 57 54 57
-256.715 32.9032 -2156 78 74 61
-252.027 32.8522 -2153 99 94 69
-247.697 32.847 -2153 124 111 82
-243.144 32.8113 -2151 135 122 93
-238.489 32.7607 -2148 106 97 71
-233.522 32.6643 -2142 63 56 39
-228.58 32.5681 -2136 49 44 32
-223.875 32.5024 -2132 52 46 43
-220.32 32.6046 -2139 46 40 37
-215.729 32.5543 -2136 50 44 42
-197.782 32.4001 -2127 68 61 54
-193.617 32.4114 -2128 50 43 38
-189.094 32.3618 -2125 45 38 34
-184.411 32.2817 -2120 47 41 38
-180.089 32.2628 -2119 49 39 39
-175.523 32.1983 -2115 41 32 32
-171.218 32.1795 -2114 43 35 35
-166.997 32.176 -2114 40 32 32
-163.933 32.4009 -2129 58 50 50
-160.135 32.4889 -2135 81 73 75
-156.752 32.6683 -2147 80 72 75
-152.755 32.726 -2151 67 60 64
-148.812 32.7989 -2156 49 44 48
-144.582 32.8111 -2157 33 29 32
-140.414 32.8386 -2159 39 35 40
-135.924 32.7902 -2156 44 40 45
-131.509 32.757 -2154 41 37 43
-126.984 32.6936 -2150 43 39 45
-122.647 32.6758 -2149 44 40 45
-118.536 32.719 -2152 45 42 47
-114.255 32.7166 -2152 46 43 48
-110.025 32.7294 -2153 46 43 48
-105.694 32.712 -2152 43 42 50
-101.509 32.7403 -2154 41 40 48
-97.2724 32.7535 -2155 43 42 50
-93.0322 32.7667 -2156 43 41 49
-88.8299 32.7953 -2158 40 37 45
-84.5029 32.7783 -2157 37 34 42
-80.2177 32.7766 -2157 38 35 43
-76.0388 32.8206 -2160 38 35 43
-71.915 32.8951 -2165 39 36 45
-67.647 32.9088 -2166 38 35 45
-63.6096 33.0442 -2175 38 33 42
-59.237 33.0126 -2173 36 31 40
-55.1003 33.1178 -2180 36 33 41
-50.8199 33.1471 -2182 40 37 46
-46.5958 33.222 -2187 48 45 55
-42.3329 33.2819 -2191 43 40 50
-38.0371 33.3266 -2194 36 34 43
-33.7144 33.3563 -2196 34 33 40
-29.3707 33.3708 -2197 36 33 38
-25.0459 33.4158 -2200 37 34 39
-20.6813 33.4154 -2200 36 33 41
-16.3465 33.4758 -2204 31 31 38
-11.9905 33.521 -2207 27 29 36
-7.61932 33.5512 -2209 23 22 29
-3.24608 33.6422 -2215 25 24 31
1.14783 33.6422 -2215 29 27 35
5.54675 33.6727 -2217 28 26 34
9.94917 33.688 -2218 30 29 37
14.3103 33.5971 -2212 30 29 37
18.7155 33.6278 -2214 34 33 41
23.1287 33.6587 -2216 36 35 42
27.55 33.6895 -2218 37 36 43
31.9074 33.6446 -2215 36 35 42
36.3188 33.6605 -2216 34 33 40
40.6793 33.6309 -2214 35 33 38
45.0729 33.6318 -2214 37 33 36
49.5562 33.6935 -2218 34 33 41
54.1288 33.8009 -2225 46 43 49
58.5981 33.8324 -2227 130 119 117
63.104 33.8793 -2230 201 182 174
67.5315 33.8806 -2230 216 193 182
71.9273 33.8668 -2229 229 192 173
76.3882 33.8835 -2230 232 192 172
80.8537 33.9003 -2231 240 195 173
85.362 33.9324 -2233 241 198 178
89.8388 33.9494 -2234 243 201 181
94.4046 33.9969 -2237 243 200 180
98.6738 33.9381 -2233 241 199 178
103.251 33.9857 -2236 245 202 180
107.552 33.9423 -2233 248 208 186
111.943 33.9293 -2232 249 209 187
116.278 33.9014 -2230 250 209 187
120.714 33.9038 -2230 250 209 186
125.32 33.9519 -2233 251 210 187
129.706 33.9393 -2232 252 209 187
134.089 33.9268 -2231 252 209 188
138.532 33.9296 -2231 251 208 188
142.911 33.9172 -2230 248 206 186
147.288 33.905 -2229 245 204 183
151.662 33.8928 -2228 243 202 179
156.313 33.9417 -2231 240 202 177
160.689 33.9298 -2230 237 199 174
164.989 33.9026 -2228 233 196 169
169.358 33.8908 -2227 230 193 165
173.802 33.8943 -2227 229 192 163
178.088 33.8675 -2225 224 187 160
182.367 33.8408 -2223 221 182 152
186.639 33.8141 -2221 221 177 141
191.422 33.8789 -2225 212 167 131
196.045 33.9134 -2227 200 155 120
200.319 33.887 -2225 196 154 115
205.138 33.952 -2229 207 164 128
209.598 33.9564 -2229 227 185 149
213.773 33.915 -2226 244 197 168
218.035 33.889 -2224 249 203 176
222.69 33.924 -2226 250 204 180
226.642 33.8524 -2221 246 206 185
231.095 33.8571 -2221 242 206 185
235.55 33.8619 -2221 238 209 190
239.791 33.8363 -2219 242 210 196
244.246 33.8414 -2219 244 211 198
248.704 33.8464 -2219 245 215 200
253.049 33.8364 -2218 244 216 201
257.856 33.8874 -2221 245 218 203
261.733 33.8164 -2216 247 221 203
266.312 33.8372 -2217 250 222 207
270.654 33.8275 -2216 253 224 212
274.869 33.8026 -2214 252 225 213
279.079 33.7778 -2212 253 227 215
283.154 33.7377 -2209 252 228 215
287.481 33.7283 -2208 251 228 215
291.937 33.7343 -2208 251 228 214
296.665 33.7711 -2210 252 229 213
300.586 33.7162 -2206 255 229 215
305.046 33.7224 -2206 255 229 216
310.069 33.7899 -2210 255 229 219
314.258 33.7658 -2208 255 227 221
318.441 33.7418 -2206 255 225 220
322.765 33.7331 -2205 252 222 215
-638.201 29.7674 -2192 252 226 220
-634.632 29.8097 -2196 255 226 221
-629.618 29.7843 -2195 255 228 220
-625.182 29.786 -2196 253 227 218
-620.183 29.7607 -2195 252 227 217
-615.194 29.7355 -2194 251 226 217
-610.493 29.7241 -2194 249 224 216
-605.245 29.6857 -2192 247 221 212
-600.011 29.6472 -2190 245 218 209
-595.877 29.6631 -2192 243 213 204
-592.281 29.7062 -2196 237 209 196
-587.334 29.6816 -2195 230 202 189
-583.458 29.7112 -2198 227 195 180
-579.575 29.7409 -2201 225 190 174
-575.162 29.7437 -2202 228 190 174
-571.009 29.7601 -2204 233 194 174
-566.852 29.7765 -2206 234 195 175
-562.437 29.7794 -2207 238 199 179
-558.275 29.796 -2209 242 203 184
-554.36 29.826 -2212 248 208 190
-549.444 29.8024 -2211 248 209 190
-545.768 29.8462 -2215 247 211 193
-541.103 29.836 -2215 245 210 194
-536.443 29.826 -2215 243 211 193
-531.307 29.7892 -2213 244 212 193
-526.898 29.7929 -2214 245 212 192
-522.254 29.7833 -2214 246 212 192
-517.38 29.7602 -2213 248 214 194
-512.978 29.764 -2214 244 213 193
-508.807 29.7815 -2216 243 211 191
-504.403 29.7857 -2217 240 209 188
-500.451 29.8168 -2220 239 208 187
-496.267 29.8344 -2222 241 209 189
-492.079 29.8522 -2224 242 208 188
-487.01 29.8163 -2222 242 208 186
-481.953 29.7806 -2220 242 208 186
-476.694 29.7315 -2217 243 207 185
-471.452 29.6826 -2214 240 204 181
-467.913 29.7409 -2219 239 202 180
-462.269 29.6655 -2214 239 201 181
-459.13 29.7508 -2221 238 200 181
-454.33 29.729 -2220 235 201 182
-450.144 29.7475 -2222 235 200 181
-445.353 29.7259 -2221 233 197 178
-441.364 29.7579 -2224 233 195 177
-435.991 29.6964 -2220 231 195 178
-431.027 29.6618 -2218 224 192 178
-426.075 29.6272 -2216 212 191 184
-421.135 29.5927 -2214 183 167 163
-416.206 29.5584 -2212 65 54 52
-411.475 29.5374 -2211 47 38 37
-407.488 29.5701 -2214 41 35 35
-402.582 29.536 -2212 39 33 33
-397.868 29.5154 -2211 37 31 31
-393.339 29.5083 -2211 37 30 34
-388.637 29.4877 -2210 36 30 34
-383.769 29.4541 -2208 34 28 33
-379.771 29.4871 -2211 29 25 31
-375.424 29.4937 -2212 30 26 32
-370.574 29.4602 -2210 28 26 30
-365.569 29.4135 -2207 24 23 28
-360.743 29.3802 -2205 22 21 27
-356.413 29.3871 -2206 22 20 25
-351.922 29.3807 -2206 22 21 26
-347.277 29.3611 -2205 25 24 30
-342.327 29.3149 -2202 29 30 37
-337.546 29.2821 -2200 30 32 39
-332.625 29.2361 -2197 31 30 40
-327.867 29.2035 -2195 26 25 35
-323.121 29.1711 -2193 26 23 33
-318.386 29.1387 -2191 27 26 34
-313.517 29.0931 -2188 28 27 35
-307.675 28.9545 -2178 33 30 39
-302.99 28.9224 -2176 36 34 43
-298.589 28.917 -2176 41 39 49
-293.651 28.8585 -2172 43 40 50
-288.997 28.8266 -2170 45 42 51
-283.829 28.7419 -2164 48 46 54
-278.946 28.6837 -2160 55 52 61
-274.462 28.6654 -2159 57 54 62
-269.86 28.6339 -2157 54 51 61
-265.391 28.6158 -2156 46 44 52
-261.05 28.6112 -2156 50 48 42
-256.829 28.6198 -2157 83 78 61
-252.49 28.6151 -2157 105 97 70
-248.153 28.6107 -2157 128 117 84
-243.591 28.5797 -2155 132 120 88
-239.373 28.5887 -2156 102 93 63
-234.499 28.5181 -2151 65 57 37
-229.539 28.4345 -2145 57 49 37
-225.13 28.4171 -2144 54 48 42
-221.346 28.4794 -2149 60 54 47
-216.634 28.4224 -2145 60 55 46
-184.32 28.053 -2119 45 38 33
-179.405 27.9439 -2111 52 43 43
-175.105 27.9274 -2110 47 38 38
-171.458 28.017 -2117 45 35 35
-167.31 28.0272 -2118 43 34 36
-164.238 28.2228 -2133 39 31 32
-160.657 28.339 -2142 49 42 45
-157.041 28.4551 -2151 61 53 57
-152.894 28.4788 -2153 60 52 56
-148.809 28.5158 -2156 46 39 43
-144.512 28.5132 -2156 34 27 31
-140.216 28.5107 -2156 38 35 40
-135.67 28.4553 -2152 43 39 45
-131.201 28.4133 -2149 44 40 46
-126.627 28.3449 -2144 43 39 46
-122.36 28.3427 -2144 45 41 48
-118.093 28.3404 -2144 45 42 47
-113.934 28.3648 -2146 48 45 50
-109.869 28.4157 -2150 48 45 51
-105.496 28.3874 -2148 43 42 50
-101.319 28.412 -2150 42 41 49
-97.1351 28.4366 -2152 39 38 46
-93.0305 28.4878 -2156 39 38 46
-88.787 28.4994 -2157 38 36 44
-84.5013 28.4979 -2157 35 32 40
-80.3278 28.536 -2160 34 31 39
-76.0726 28.5479 -2161 36 33 42
-71.9469 28.6126 -2166 37 34 43
-67.7707 28.6642 -2170 38 35 43
-63.5499 28.7027 -2173 37 34 42
-59.3995 28.7808 -2179 36 33 41
-55.074 28.7798 -2179 36 33 41
-50.8888 28.8581 -2185 36 33 43
-46.6162 28.8969 -2188 44 41 51
-42.3707 28.9621 -2193 44 40 49
-38.0711 29.001 -2196 38 34 43
-33.7138 29.0004 -2196 33 31 38
-29.3968 29.0394 -2199 33 32 37
-25.0455 29.0522 -2200 34 32 38
-20.6997 29.0782 -2202 32 30 38
-16.3314 29.0778 -2202 29 29 36
-11.9958 29.1568 -2208 26 28 35
-7.62952 29.2095 -2212 24 24 32
-3.24309 29.2226 -2213 24 24 32
1.14936 29.2886 -2218 26 24 32
5.54665 29.2754 -2217 27 26 34
9.93104 29.236 -2214 29 29 37
14.3295 29.2494 -2215 33 32 40
18.7236 29.2497 -2215 33 32 40
23.1178 29.2501 -2215 31 31 39
27.5495 29.2901 -2218 32 33 40
31.9644 29.3039 -2219 33 34 40
36.3837 29.3177 -2220 34 35 40
40.752 29.292 -2218 33 33 39
45.1942 29.3191 -2220 35 33 41
49.667 29.3596 -2223 42 38 46
54.1278 29.3869 -2225 63 58 63
58.6759 29.454 -2230 166 149 146
63.1594 29.4815 -2232 202 177 168
67.5908 29.4826 -2232 213 184 171
72.0228 29.4839 -2232 224 183 163
76.558 29.5248 -2235 225 183 162
80.9971 29.5262 -2235 229 184 162
85.4751 29.5409 -2236 231 187 165
89.9979 29.5689 -2238 232 189 167
94.4028 29.5573 -2237 234 191 170
98.8044 29.5458 -2236 235 192 169
103.341 29.5741 -2238 236 194 169
107.743 29.5627 -2237 237 196 171
112.091 29.5382 -2235 238 197 172
116.432 29.5138 -2233 240 198 173
120.982 29.5424 -2235 241 199 174
125.43 29.5447 -2235 241 199 174
129.994 29.5734 -2237 241 196 173
134.447 29.5758 -2237 240 195 173
138.653 29.5253 -2233 242 198 175
142.908 29.4881 -2230 239 196 175
147.351 29.4907 -2230 237 194 172
151.659 29.4669 -2228 235 193 169
156.45 29.5358 -2233 230 192 166
160.83 29.5253 -2232 228 191 165
165.134 29.5019 -2230 228 191 164
169.583 29.5049 -2230 226 189 160
174.189 29.5344 -2232 226 188 158
178.484 29.5111 -2230 226 186 157
182.527 29.4481 -2225 221 181 151
186.888 29.4382 -2224 218 177 146
191.418 29.4548 -2225 217 174 141
195.954 29.4715 -2226 216 173 139
200.315 29.4618 -2225 225 181 144
205.226 29.5317 -2230 238 193 158
209.5 29.5089 -2228 246 201 167
214.057 29.5259 -2229 247 204 179
217.736 29.4239 -2221 244 202 179
222.486 29.4675 -2224 245 204 182
226.841 29.4582 -2223 240 202 182
231.195 29.4491 -2222 239 204 184
235.334 29.4135 -2219 237 206 186
240.219 29.4709 -2223 240 206 188
244.242 29.4221 -2219 240 206 187
248.923 29.4531 -2221 243 206 187
253.386 29.4577 -2221 242 206 187
257.619 29.4357 -2219 246 210 190
261.964 29.4271 -2218 247 212 192
266.427 29.4318 -2218 245 213 195
270.038 29.3437 -2211 246 216 198
274.367 29.3354 -2210 249 219 202
278.569 29.3138 -2208 250 222 205
282.764 29.2922 -2206 250 225 209
286.824 29.2575 -2203 251 227 211
291.535 29.2893 -2205 251 227 212
295.854 29.2814 -2204 254 229 215
300.443 29.3 -2205 255 229 215
304.625 29.2789 -2203 255 229 216
309.362 29.311 -2205 255 230 217
313.682 29.3033 -2204 255 228 217
318.723 29.3622 -2208 255 229 218
323.051 29.3547 -2207 255 228 214
327.526 29.3606 -2207 255 226 213
331.402 29.3134 -2203 255 226 213
