ply
format ascii 1.0
comment Created by Open3D
element vertex 1459
property double x
property double y
property double z
property uchar red
property uchar green
property uchar blue
end_header
-185.764 -321.047 -2071 49 52 49
-181.502 -320.853 -2070 52 56 53
-177.418 -320.971 -2071 49 53 50
-173.163 -320.779 -2070 49 53 50
-169.158 -321.053 -2072 50 54 51
-164.988 -321.018 -2072 51 55 52
-161.13 -321.603 -2076 51 55 52
-157.105 -321.88 -2078 51 55 52
-153.368 -322.776 -2084 53 57 54
-149.394 -323.209 -2087 53 56 53
-145.408 -323.643 -2090 53 56 53
-141.48 -324.232 -2094 53 56 53
-137.602 -324.977 -2099 53 57 54
-133.641 -325.568 -2103 52 56 53
-129.789 -326.469 -2109 51 55 52
-126.032 -327.681 -2117 54 58 54
-122.187 -328.738 -2124 57 61 57
-118.815 -331.189 -2140 57 61 58
-115.433 -333.796 -2157 73 77 76
-313.523 -342.282 -2170 50 58 58
-306.101 -338.904 -2149 50 57 58
-299.75 -336.631 -2135 48 54 55
-294.427 -335.464 -2128 47 52 53
-289.135 -334.298 -2121 47 51 52
-284.009 -333.291 -2115 49 53 54
-279.041 -332.442 -2110 51 55 56
-274.487 -332.068 -2108 52 58 57
-269.046 -330.592 -2099 54 60 59
-263.77 -329.275 -2091 55 61 60
-259.274 -328.904 -2089 59 63 62
-254.543 -328.22 -2085 60 64 63
-250.071 -327.851 -2083 60 64 63
-245.845 -327.798 -2083 56 60 59
-241.157 -327.116 -2079 59 63 62
-236.829 -326.908 -2078 61 65 64
-232.396 -326.543 -2076 61 64 64
-227.972 -326.179 -2074 60 62 62
-223.451 -325.659 -2071 60 62 62
-219.155 -325.455 -2070 61 63 63
-214.761 -325.094 -2068 59 61 61
-210.377 -324.734 -2066 61 61 61
-206.302 -324.847 -2067 57 57 57
-202.225 -324.961 -2068 52 52 52
-197.954 -324.761 -2067 54 54 54
-193.783 -324.719 -2067 55 55 55
-189.796 -324.993 -2069 50 53 50
-185.624 -324.953 -2069 48 51 48
-181.453 -324.914 -2069 49 53 50
-177.541 -325.347 -2072 48 52 49
-173.283 -325.152 -2071 49 53 50
-169.194 -325.273 -2072 50 54 51
-165.182 -325.551 -2074 51 55 52
-161.008 -325.516 -2074 51 55 52
-157.214 -326.267 -2079 52 56 53
-153.253 -326.705 -2082 53 57 54
-149.354 -327.3 -2086 52 55 52
-145.3 -327.583 -2088 53 57 54
-141.442 -328.337 -2093 52 56 53
-137.434 -328.778 -2096 52 56 53
-133.669 -329.847 -2103 52 56 53
-129.755 -330.603 -2108 51 55 52
-125.999 -331.831 -2116 53 57 54
-122.156 -332.902 -2123 52 56 53
-118.618 -334.915 -2136 58 62 59
-115.083 -337.085 -2150 68 72 71
-111.698 -339.883 -2168 89 93 94
-306.452 -343.623 -2151 48 56 56
-300.096 -341.321 -2137 48 54 55
-294.352 -339.66 -2127 47 52 53
-289.198 -338.638 -2121 46 51 52
-284.339 -337.937 -2117 49 53 54
-278.969 -336.599 -2109 51 55 56
-273.765 -335.422 -2102 51 57 56
-268.848 -334.565 -2097 53 59 58
-264.079 -333.869 -2093 55 61 60
-259.205 -333.015 -2088 59 62 61
-254.72 -332.64 -2086 60 63 62
-250.125 -332.107 -2083 60 64 63
-245.898 -332.053 -2083 53 57 56
-241.325 -331.522 -2080 57 62 61
-236.994 -331.311 -2079 59 64 63
-232.446 -330.782 -2076 61 64 64
-228.021 -330.414 -2074 60 62 62
-223.499 -329.887 -2071 59 61 61
-219.096 -329.521 -2069 60 62 62
-214.807 -329.315 -2068 59 61 61
-210.32 -328.791 -2065 58 59 59
-206.047 -328.587 -2064 55 55 55
-201.975 -328.702 -2065 52 52 52
-197.709 -328.5 -2064 53 53 53
-193.918 -329.094 -2068 55 55 55
-189.654 -328.893 -2067 53 56 53
-185.484 -328.853 -2067 50 53 50
-181.316 -328.813 -2067 50 54 51
-177.322 -329.093 -2069 48 52 49
-173.32 -329.373 -2071 49 53 50
-168.985 -329.018 -2069 51 55 52
-164.899 -329.141 -2070 50 54 51
-161.276 -330.219 -2077 50 54 51
-157.096 -330.185 -2077 51 55 52
-153.065 -330.469 -2079 51 55 52
-149.314 -331.39 -2085 53 56 53
-145.261 -331.676 -2087 53 57 54
-141.405 -332.44 -2092 51 55 52
-137.463 -333.046 -2096 51 55 52
-133.571 -333.811 -2101 52 56 53
-129.598 -334.418 -2105 50 54 51
-125.848 -335.662 -2113 49 53 51
-121.836 -336.27 -2117 48 52 51
-118.199 -337.992 -2128 56 60 57
-114.786 -340.508 -2144 65 69 67
-111.258 -342.866 -2159 73 77 77
-307.232 -348.84 -2156 48 55 55
-300.302 -345.86 -2138 50 54 55
-294.555 -344.177 -2128 48 54 55
-289.398 -343.143 -2122 47 53 54
-283.595 -341.301 -2111 49 54 55
-278.766 -340.593 -2107 50 55 55
-273.564 -339.401 -2100 51 57 56
-268.265 -338.048 -2092 53 59 58
-263.506 -337.343 -2088 53 59 58
-258.889 -336.801 -2085 55 58 57
-254.409 -336.422 -2083 56 60 59
-249.699 -335.72 -2079 59 63 62
-245.597 -335.828 -2080 54 58 57
-241.029 -335.29 -2077 59 63 62
-236.59 -334.915 -2075 59 65 64
-232.384 -334.863 -2075 60 63 63
-228.181 -334.813 -2075 60 62 62
-223.655 -334.279 -2072 61 63 63
-219.25 -333.908 -2070 61 63 63
-214.958 -333.699 -2069 59 61 61
-210.264 -332.846 -2064 58 58 58
-205.892 -332.478 -2062 59 59 59
-202.019 -332.917 -2065 55 55 55
-197.848 -332.874 -2065 55 55 55
-193.773 -332.992 -2066 57 57 57
-189.695 -333.111 -2067 55 57 55
-185.525 -333.07 -2067 53 56 53
-181.444 -333.191 -2068 54 58 55
-177.446 -333.474 -2070 50 54 51
-173.441 -333.758 -2072 48 52 49
-169.267 -333.721 -2072 49 53 50
-165.333 -334.167 -2075 49 54 51
-161.155 -334.131 -2075 49 54 51
-157.282 -334.741 -2079 50 54 51
-153.025 -334.546 -2078 51 55 52
-149.346 -335.64 -2085 53 57 54
-145.154 -335.608 -2085 53 57 54
-141.3 -336.381 -2090 50 55 52
-137.165 -336.512 -2091 49 53 50
-133.345 -337.448 -2097 49 53 50
-129.503 -338.385 -2103 48 52 49
-125.637 -339.322 -2109 51 55 53
-121.633 -339.939 -2113 49 53 52
-117.891 -341.361 -2122 58 62 59
-114.329 -343.427 -2135 64 68 66
-110.612 -345.172 -2146 78 82 81
-107.447 -348.847 -2169 77 81 82
-307.727 -353.752 -2159 48 56 56
-300.509 -350.407 -2139 52 56 57
-295.036 -349.03 -2131 48 55 55
-289.325 -347.327 -2121 46 54 54
-283.658 -345.626 -2111 47 53 54
-278.033 -343.926 -2101 48 53 54
-273.104 -343.046 -2096 51 57 56
-268.068 -342.004 -2090 54 60 59
-263.69 -341.781 -2089 51 57 56
-259.195 -341.396 -2087 53 57 56
-254.465 -340.685 -2083 54 58 57
-249.994 -340.301 -2081 57 61 60
-245.888 -340.41 -2082 57 61 60
-241.083 -339.538 -2077 58 62 61
-236.528 -338.995 -2074 57 63 62
-232.324 -338.943 -2074 59 63 62
-228.011 -338.728 -2073 59 61 61
-223.597 -338.351 -2071 62 64 64
-219.298 -338.139 -2070 63 65 65
-214.797 -337.6 -2067 61 63 63
-210.209 -336.9 -2063 60 60 60
-205.838 -336.527 -2061 60 60 60
-201.77 -336.645 -2062 56 56 56
-197.604 -336.601 -2062 55 55 55
-193.628 -336.884 -2064 56 56 56
-189.645 -337.168 -2066 53 56 53
-185.386 -336.964 -2065 52 56 53
-181.308 -337.086 -2066 52 56 53
-177.485 -337.699 -2070 51 55 52
-173.396 -337.823 -2071 49 53 50
-169.386 -338.112 -2073 48 52 49
-165.449 -338.564 -2076 49 54 50
-160.88 -337.712 -2071 48 54 51
-157.089 -338.493 -2076 49 53 50
-153.206 -339.11 -2080 50 54 51
-149.164 -339.403 -2082 51 55 52
-145.116 -339.697 -2084 50 55 52
-141.196 -340.317 -2088 48 55 51
-137.261 -340.938 -2092 47 54 50
-133.438 -341.886 -2098 48 54 51
-129.408 -342.346 -2101 49 53 50
-125.426 -342.97 -2105 52 56 54
-121.429 -343.594 -2109 52 56 55
-117.695 -345.034 -2118 59 63 60
-113.979 -346.637 -2128 66 70 67
-110.379 -348.73 -2141 77 81 79
-106.925 -351.475 -2158 78 82 81
-308.082 -358.513 -2161 50 57 57
-300.858 -355.126 -2141 51 55 56
-295.241 -353.566 -2132 47 54 54
-289.117 -351.344 -2119 47 54 55
-283.856 -350.119 -2112 49 54 55
-278.361 -348.564 -2103 49 54 54
-273.556 -347.839 -2099 50 56 55
-268 -346.121 -2089 51 59 57
-263.75 -346.061 -2089 50 58 56
-259.129 -345.505 -2086 53 57 56
-254.522 -344.95 -2083 54 58 57
-249.93 -344.396 -2080 59 63 62
-245.352 -343.844 -2077 60 64 63
-241.021 -343.624 -2076 51 55 54
-236.581 -343.239 -2074 53 58 57
-232.263 -343.021 -2073 60 63 62
-228.172 -343.134 -2074 58 60 60
-223.755 -342.753 -2072 63 65 65
-219.453 -342.538 -2071 65 67 67
-214.949 -341.993 -2068 62 64 64
-210.256 -341.118 -2063 60 61 61
-205.984 -340.906 -2062 58 58 58
-201.815 -340.86 -2062 57 57 57
-197.553 -340.65 -2061 55 55 55
-193.577 -340.937 -2063 56 56 56
-189.503 -341.059 -2064 52 55 52
-185.427 -341.182 -2065 50 53 50
-181.173 -340.976 -2064 50 54 51
-177.353 -341.596 -2068 50 54 51
-173.434 -342.053 -2071 49 53 50
-169.26 -342.014 -2071 48 53 50
-165.247 -342.307 -2073 48 53 50
-161.304 -342.766 -2076 47 54 50
-157.2 -342.895 -2077 48 52 49
-153.166 -343.191 -2079 49 53 50
-149.197 -343.652 -2082 49 53 50
-145.218 -344.114 -2085 49 53 50
-141.16 -344.413 -2087 47 51 48
-137.291 -345.206 -2092 47 54 50
-133.277 -345.671 -2095 49 56 52
-129.621 -347.127 -2104 50 55 52
-125.633 -347.758 -2108 53 57 54
-121.629 -348.39 -2112 55 59 57
-117.665 -349.188 -2117 55 59 55
-113.736 -350.152 -2123 60 64 61
-110.094 -352.106 -2135 75 79 76
-106.404 -354.061 -2147 81 85 84
-103 -357.171 -2166 81 85 84
-309.293 -364.293 -2169 50 57 58
-302.05 -360.864 -2149 47 53 54
-295.723 -358.445 -2135 46 52 53
-289.729 -356.364 -2123 48 54 55
-283.786 -354.284 -2111 51 55 56
-278.291 -352.71 -2102 51 55 56
-273.227 -351.64 -2096 51 57 56
-268.446 -350.907 -2092 50 58 56
-263.557 -350.007 -2087 49 57 55
-259.063 -349.612 -2085 53 57 56
-254.458 -349.051 -2082 53 57 56
-249.866 -348.49 -2079 56 60 59
-245.526 -348.266 -2078 64 68 67
-240.843 -347.54 -2074 49 53 52
-236.52 -347.319 -2073 53 57 56
-232.316 -347.265 -2073 57 60 59
-228.004 -347.045 -2072 58 61 60
-223.373 -346.324 -2068 66 68 68
-219.185 -346.274 -2068 65 67 67
-214.686 -345.722 -2065 60 61 61
-210.201 -345.171 -2062 59 60 60
-205.83 -344.789 -2060 60 60 60
-201.861 -345.078 -2062 59 59 59
-197.501 -344.697 -2060 55 55 55
-193.152 -344.318 -2058 56 56 56
-189.087 -344.443 -2059 53 56 53
-185.199 -344.902 -2062 51 54 51
-181.038 -344.86 -2062 50 54 51
-177.307 -345.656 -2067 49 53 50
-173.39 -346.118 -2070 49 53 50
-169.217 -346.079 -2070 48 54 51
-165.284 -346.542 -2073 48 54 51
-161.418 -347.174 -2077 48 54 50
-157.235 -347.138 -2077 50 54 51
-153.053 -347.103 -2077 50 54 51
-149.159 -347.737 -2081 50 54 51
-145.111 -348.038 -2083 49 53 50
-140.988 -348.172 -2084 47 51 48
-137.454 -349.811 -2094 47 53 50
-133.498 -350.449 -2098 48 54 51
-129.589 -351.254 -2103 47 53 49
-125.78 -352.395 -2110 50 54 51
-121.483 -352.2 -2109 51 55 52
-117.636 -353.341 -2116 56 60 55
-113.548 -353.816 -2119 59 63 59
-109.912 -355.794 -2131 71 75 72
-106.13 -357.44 -2141 79 83 82
-102.404 -359.42 -2153 80 84 83
-309.221 -368.579 -2168 51 58 58
-301.839 -364.938 -2147 48 54 55
-295.099 -361.98 -2130 46 52 53
-289.523 -360.383 -2121 46 52 53
-283.851 -358.617 -2111 48 53 54
-278.488 -357.194 -2103 49 55 55
-273.42 -356.111 -2097 51 57 56
-268.251 -354.859 -2090 51 58 57
-263.617 -354.289 -2087 50 57 55
-258.75 -353.379 -2082 50 56 55
-254.027 -352.641 -2078 51 56 55
-249.683 -352.414 -2077 54 58 57
-245.109 -351.847 -2074 64 68 67
-240.434 -351.113 -2070 47 51 50
-236.575 -351.566 -2073 51 55 54
-232.257 -351.343 -2072 57 61 59
-228.056 -351.29 -2072 62 65 63
-223.424 -350.56 -2068 64 66 64
-219.023 -350.17 -2066 61 63 61
-214.527 -349.611 -2063 60 60 58
-210.147 -349.224 -2061 57 57 57
-205.877 -349.006 -2060 54 54 54
-201.711 -348.959 -2060 54 54 54
-197.451 -348.744 -2059 54 54 54
-193.102 -348.36 -2057 56 56 56
-189.222 -348.824 -2060 54 57 54
-185.152 -348.951 -2061 52 55 52
-181.167 -349.247 -2063 50 54 51
-177.262 -349.714 -2066 50 54 51
-173.178 -349.843 -2067 50 54 51
-169.255 -350.311 -2070 50 54 51
-165.401 -350.95 -2074 50 54 51
-161.377 -351.251 -2076 50 54 51
-157.195 -351.214 -2076 52 56 53
-153.162 -351.517 -2078 51 55 52
-149.193 -351.99 -2081 52 56 51
-145.005 -351.956 -2081 50 54 51
-141.156 -352.769 -2086 48 52 49
-137.419 -353.92 -2093 47 52 49
-133.465 -354.566 -2097 45 49 46
-129.618 -355.55 -2103 44 49 46
-125.689 -356.366 -2108 46 50 46
-121.684 -357.014 -2112 49 53 49
-117.663 -357.663 -2116 53 57 54
-113.681 -358.481 -2121 57 61 58
-109.782 -359.639 -2128 65 69 66
-105.758 -360.459 -2133 73 77 74
-101.999 -362.294 -2144 75 79 76
-98.699 -365.989 -2166 82 86 89
-309.151 -372.864 -2167 51 57 57
-302.05 -369.523 -2148 49 55 56
-295.722 -367.045 -2134 46 52 53
-289.863 -365.085 -2123 46 52 53
-283.648 -362.61 -2109 47 53 54
-278.817 -361.856 -2105 49 55 55
-273.092 -359.901 -2094 51 57 56
-268.442 -359.322 -2091 51 57 56
-263.679 -358.573 -2087 50 56 55
-259.183 -358.168 -2085 48 54 53
-253.719 -356.39 -2075 50 55 54
-249.26 -355.988 -2073 52 56 55
-244.812 -355.587 -2071 59 63 62
-240.838 -355.873 -2073 49 53 52
-236.515 -355.646 -2072 53 57 56
-231.975 -355.076 -2069 63 67 64
-227.668 -354.851 -2068 62 66 63
-223.26 -354.455 -2066 58 61 58
-218.755 -353.889 -2063 56 58 56
-214.369 -353.496 -2061 53 54 53
-210.196 -353.446 -2061 49 49 49
-206.025 -353.397 -2061 47 47 47
-201.66 -353.007 -2059 49 49 49
-197.304 -352.618 -2057 52 52 52
-193.24 -352.744 -2058 55 55 55
-189.174 -352.871 -2059 53 56 53
-185.015 -352.827 -2059 53 56 53
-181.121 -353.299 -2062 51 55 52
-177.474 -354.285 -2068 50 54 51
-173.386 -354.415 -2069 51 55 52
-169.294 -354.547 -2070 50 54 51
-165.121 -354.508 -2070 50 54 51
-161.104 -354.812 -2072 51 55 52
-157.004 -354.947 -2073 52 56 53
-152.976 -355.253 -2075 53 57 54
-148.869 -355.389 -2076 50 54 49
-144.968 -356.04 -2080 50 54 49
-141.188 -357.034 -2086 48 52 49
-137.254 -357.686 -2090 50 54 51
-133.623 -359.195 -2099 49 53 50
-129.587 -359.677 -2102 48 52 49
-125.897 -361.188 -2111 48 52 48
-121.769 -361.501 -2113 50 54 49
-117.69 -361.987 -2116 53 57 54
-113.439 -361.96 -2116 56 60 57
-109.601 -363.302 -2124 61 65 62
-105.584 -364.133 -2129 68 72 69
-101.88 -366.161 -2141 75 79 76
-98.2204 -368.532 -2155 77 81 82
-309.224 -377.322 -2167 50 56 57
-302.684 -374.638 -2152 49 55 56
-295.098 -370.563 -2129 47 53 54
-289.658 -369.102 -2121 46 52 53
-283.984 -367.293 -2111 47 53 54
-278.618 -365.835 -2103 49 55 56
-273.026 -364.03 -2093 50 56 55
-268.12 -363.096 -2088 50 56 55
-263.362 -362.338 -2084 50 56 55
-258.249 -361.059 -2077 50 56 55
-253.412 -360.13 -2072 50 55 54
-248.958 -359.723 -2070 50 54 53
-244.633 -359.491 -2069 56 60 59
-240.546 -359.607 -2070 59 63 62
-236.229 -359.377 -2069 55 59 58
-232.254 -359.669 -2071 60 64 62
-227.942 -359.441 -2070 55 59 56
-223.42 -358.866 -2067 51 54 51
-218.913 -358.294 -2064 49 52 50
-214.523 -357.895 -2062 47 49 49
-210.245 -357.671 -2061 48 49 49
-205.973 -357.449 -2060 52 52 52
-201.805 -357.401 -2060 52 52 52
-197.638 -357.354 -2060 53 53 53
-193.38 -357.134 -2059 54 54 54
-189.402 -357.436 -2061 51 54 51
-185.238 -357.392 -2061 53 56 53
-181.252 -357.695 -2063 52 56 53
-177.087 -357.653 -2063 51 55 52
-173.091 -357.959 -2065 52 56 53
-169.088 -358.265 -2067 51 55 52
-165 -358.399 -2068 50 54 51
-161.141 -359.054 -2072 51 55 52
-157.041 -359.19 -2073 51 55 52
-153.012 -359.5 -2075 52 56 53
-149.047 -359.984 -2078 52 56 51
-145.142 -360.642 -2082 53 57 53
-141.221 -361.301 -2086 52 56 53
-137.286 -361.962 -2090 53 57 54
-133.463 -362.969 -2096 52 56 53
-129.555 -363.804 -2101 49 53 50
-125.748 -364.986 -2108 49 53 49
-121.74 -365.649 -2112 50 54 49
-117.662 -366.141 -2115 52 56 53
-113.626 -366.806 -2119 55 59 56
-109.627 -367.645 -2124 59 63 60
-105.509 -368.139 -2127 64 68 65
-101.666 -369.673 -2136 73 77 74
-97.9698 -371.899 -2149 78 82 82
-94.5272 -375.337 -2169 82 87 87
-309.155 -381.608 -2166 50 56 57
-301.771 -377.835 -2145 49 55 56
-295.308 -375.121 -2130 47 53 54
-289.318 -372.938 -2118 47 53 54
-283.783 -371.284 -2109 48 54 55
-278.817 -370.336 -2104 48 54 55
-272.83 -367.982 -2091 49 55 54
-268.183 -367.389 -2088 50 56 55
-263.045 -366.094 -2081 50 56 55
-258.311 -365.328 -2077 51 57 56
-253.228 -364.036 -2070 50 56 55
-248.777 -363.624 -2068 49 54 53
-244.336 -363.213 -2066 53 57 56
-240.371 -363.507 -2068 62 66 65
-236.17 -363.45 -2068 51 55 54
-232.084 -363.569 -2069 45 49 47
-227.666 -363.163 -2067 43 47 44
-223.257 -362.758 -2065 43 46 43
-218.859 -362.354 -2063 49 52 49
-214.574 -362.126 -2062 53 55 55
-210.295 -361.9 -2061 57 58 58
-206.022 -361.675 -2060 62 62 62
-201.951 -361.801 -2061 58 58 58
-197.685 -361.578 -2060 56 56 56
-193.425 -361.356 -2059 56 56 56
-189.263 -361.311 -2059 53 56 53
-185.282 -361.617 -2061 52 55 52
-181.207 -361.749 -2062 51 55 52
-177.472 -362.583 -2067 51 55 52
-173.216 -362.366 -2066 52 56 53
-169.047 -362.325 -2066 51 55 52
-165.118 -362.811 -2069 51 55 52
-161.102 -363.123 -2071 52 56 53
-157.078 -363.436 -2073 51 55 52
-153.195 -364.1 -2077 51 55 52
-149.154 -364.415 -2079 52 56 52
-145.106 -364.73 -2081 54 58 54
-141.052 -365.047 -2083 53 57 54
-137.187 -365.89 -2088 53 57 54
-133.367 -366.909 -2094 54 58 55
-129.401 -367.579 -2098 54 58 55
-125.718 -369.125 -2107 55 59 54
-121.538 -369.271 -2108 54 58 53
-117.578 -370.119 -2113 54 58 55
-113.385 -370.266 -2114 57 61 58
-109.653 -371.991 -2124 58 62 59
-105.385 -371.966 -2124 62 66 63
-101.69 -374.043 -2136 70 74 71
-97.8561 -375.77 -2146 74 78 78
-94.2007 -378.373 -2161 80 85 84
-308.944 -385.713 -2164 49 55 56
-301.281 -381.54 -2141 48 54 55
-294.824 -378.795 -2126 49 55 56
-289.251 -377.121 -2117 47 53 54
-283.851 -375.626 -2109 47 53 54
-278.354 -373.955 -2100 48 54 55
-272.766 -372.107 -2090 49 55 54
-268.12 -371.507 -2087 49 55 54
-262.603 -369.663 -2077 49 55 54
-258 -369.066 -2074 49 55 54
-253.289 -368.292 -2070 50 56 55
-248.717 -367.698 -2067 47 53 52
-244.277 -367.282 -2065 50 54 53
-240.312 -367.579 -2067 59 63 62
-236.227 -367.7 -2068 50 54 53
-232.14 -367.82 -2069 37 41 39
-227.721 -367.409 -2067 39 43 40
-223.527 -367.355 -2067 44 47 44
-218.911 -366.59 -2063 52 55 52
-214.626 -366.36 -2062 57 59 59
-210.346 -366.131 -2061 60 60 60
-206.272 -366.259 -2062 61 61 61
-201.901 -365.854 -2060 61 61 61
-197.733 -365.806 -2060 56 56 56
-193.566 -365.759 -2060 57 57 57
-189.584 -366.068 -2062 56 58 56
-185.326 -365.845 -2061 53 56 53
-181.514 -366.51 -2065 50 54 51
-177.343 -366.467 -2065 48 52 49
-173.173 -366.425 -2065 49 53 50
-168.842 -366.029 -2063 51 55 52
-164.998 -366.698 -2067 52 56 53
-161.062 -367.191 -2070 51 55 52
-157.192 -367.862 -2074 51 55 52
-153.232 -368.357 -2077 50 54 51
-149.19 -368.675 -2079 50 54 51
-145.141 -368.994 -2081 52 56 53
-141.085 -369.315 -2083 52 56 53
-137.088 -369.813 -2086 53 57 54
-133.208 -370.667 -2091 54 58 55
-129.247 -371.344 -2095 54 58 55
-125.509 -372.732 -2103 56 60 56
-121.452 -373.234 -2106 55 59 54
-117.551 -374.269 -2112 55 59 56
-113.519 -374.95 -2116 57 61 58
-109.576 -375.986 -2122 58 62 59
-105.41 -376.314 -2124 61 65 62
-101.619 -378.061 -2134 64 68 65
-97.6057 -379.1 -2140 68 72 71
-93.8745 -381.38 -2153 71 76 75
-90.2164 -384.192 -2169 77 83 82
-308.306 -389.274 -2159 49 55 56
-301.496 -386.134 -2142 47 53 54
-295.035 -383.357 -2127 49 55 56
-289.595 -381.843 -2119 47 53 54
-284.19 -380.331 -2111 46 52 53
-278.688 -378.64 -2102 48 54 55
-272.963 -376.591 -2091 49 55 54
-267.928 -375.444 -2085 49 55 54
-262.92 -374.299 -2079 49 55 54
-257.938 -373.155 -2073 50 56 55
-252.983 -372.012 -2067 50 56 55
-248.536 -371.591 -2065 47 53 52
-244.336 -371.53 -2065 46 51 50
-240.254 -371.651 -2066 55 59 58
-236.171 -371.772 -2067 57 61 60
-231.972 -371.715 -2067 42 46 44
-227.776 -371.659 -2067 48 52 49
-223.473 -371.424 -2066 57 61 58
-218.858 -370.65 -2062 61 65 62
-214.678 -370.598 -2062 61 63 63
-210.397 -370.366 -2061 62 63 63
-206.222 -370.315 -2061 63 63 63
-201.852 -369.906 -2059 61 61 61
-197.589 -369.677 -2058 57 57 57
-193.613 -369.989 -2060 57 57 57
-189.446 -369.942 -2060 55 57 55
-185.371 -370.076 -2061 51 54 51
-181.558 -370.749 -2065 49 53 50
-177.3 -370.526 -2064 50 54 51
-173.131 -370.483 -2064 49 53 50
-169.046 -370.621 -2065 51 55 52
-165.038 -370.939 -2067 51 55 52
-161.024 -371.258 -2069 50 54 51
-157.381 -372.475 -2076 49 53 50
-153.343 -372.796 -2078 47 51 48
-149.226 -372.939 -2079 45 49 46
-145.246 -373.441 -2082 51 55 52
-141.119 -373.586 -2083 53 57 54
-137.121 -374.09 -2086 52 56 53
-133.304 -375.133 -2092 52 56 53
-129.463 -376.177 -2098 53 57 54
-125.599 -377.222 -2104 54 58 54
-121.424 -377.371 -2105 57 61 56
-117.412 -378.059 -2109 58 62 59
-113.332 -378.568 -2112 56 60 57
-109.551 -380.155 -2121 56 60 57
-105.386 -380.487 -2123 60 64 61
-101.596 -382.254 -2133 61 65 62
-97.4925 -382.946 -2137 64 68 67
-93.5918 -384.536 -2146 68 73 72
-89.8221 -386.843 -2159 77 83 82
-308.811 -394.275 -2162 50 56 57
-301.289 -390.188 -2140 50 56 57
-294.831 -387.379 -2125 48 54 55
-288.983 -385.301 -2114 47 53 54
-283.318 -383.407 -2104 46 52 53
-277.961 -381.88 -2096 45 51 52
-272.639 -380.354 -2088 47 53 52
-267.48 -379.012 -2081 48 54 53
-262.479 -377.854 -2075 48 54 53
-257.629 -376.879 -2070 50 56 55
-252.923 -376.087 -2066 51 57 56
-248.718 -376.025 -2066 51 57 56
-244.515 -375.964 -2066 48 53 52
-240.314 -375.904 -2066 50 56 55
-236.229 -376.026 -2067 58 62 61
-232.142 -376.15 -2068 53 57 56
-227.722 -375.729 -2066 55 59 57
-223.312 -375.31 -2064 63 67 65
-218.912 -374.892 -2062 64 68 66
-214.731 -374.838 -2062 64 66 66
-210.244 -374.24 -2059 66 66 66
-206.172 -374.37 -2060 63 63 63
-201.902 -374.138 -2059 60 60 60
-197.541 -373.725 -2057 57 57 57
-193.378 -373.677 -2057 56 56 56
-189.493 -374.175 -2060 55 57 55
-185.327 -374.128 -2060 53 56 53
-181.338 -374.446 -2062 52 56 53
-177.086 -374.22 -2061 52 56 53
-173.006 -374.359 -2062 51 55 52
-168.924 -374.498 -2063 50 54 51
-164.999 -375.002 -2066 50 54 51
-160.985 -375.324 -2068 50 54 51
-157.344 -376.555 -2075 49 53 50
-153.454 -377.243 -2079 49 53 50
-149.406 -377.568 -2081 48 52 49
-145.351 -377.895 -2083 52 56 53
-141.29 -378.223 -2085 53 57 54
-137.155 -378.37 -2086 52 56 53
-133.209 -379.062 -2090 53 57 54
-129.371 -380.118 -2096 55 59 56
-125.331 -380.631 -2099 56 60 55
-121.338 -381.325 -2103 55 59 54
-117.33 -382.021 -2107 55 59 56
-113.467 -383.262 -2114 57 61 58
-109.422 -383.96 -2118 58 62 59
-105.362 -384.658 -2122 60 64 61
-101.478 -386.083 -2130 60 64 61
-97.4707 -387.146 -2136 65 69 66
-93.5274 -388.573 -2144 70 75 74
-89.6776 -390.544 -2155 74 80 79
-308.602 -398.371 -2160 50 56 57
-301.223 -394.421 -2139 49 55 56
-295.043 -391.949 -2126 46 52 53
-289.192 -389.848 -2115 45 51 52
-283.658 -388.117 -2106 45 51 52
-278.03 -386.204 -2096 47 53 54
-272.707 -384.661 -2088 49 55 54
-267.676 -383.487 -2082 49 55 54
-262.418 -381.947 -2074 47 53 52
-257.444 -380.777 -2068 47 53 52
-252.986 -380.345 -2066 52 58 57
-248.419 -379.73 -2063 52 58 57
-244.339 -379.852 -2064 50 56 55
-240.141 -379.791 -2064 51 57 56
-235.945 -379.732 -2064 59 63 62
-231.638 -379.489 -2063 56 60 59
-227.448 -379.431 -2063 56 60 59
-223.043 -379.007 -2061 63 67 66
-218.754 -378.768 -2060 63 66 66
-214.367 -378.346 -2058 61 63 63
-210.195 -378.293 -2058 61 61 61
-205.823 -377.873 -2056 58 58 58
-201.756 -378.006 -2057 59 59 59
-197.398 -377.589 -2055 58 58 58
-193.426 -377.907 -2057 58 58 58
-189.264 -377.859 -2057 55 58 56
-185.283 -378.18 -2059 54 58 55
-181.208 -378.318 -2060 54 58 55
-177.13 -378.457 -2061 51 55 52
-172.965 -378.413 -2061 50 54 51
-168.884 -378.554 -2062 51 55 52
-165.04 -379.247 -2066 51 55 52
-161.025 -379.573 -2068 50 54 51
-157.307 -380.635 -2074 50 54 51
-153.271 -380.963 -2076 51 55 52
-149.371 -381.659 -2080 50 54 51
-145.318 -381.989 -2082 52 56 53
-141.46 -382.871 -2087 51 55 52
-137.452 -383.386 -2090 51 55 51
-133.433 -383.903 -2093 52 56 52
-129.527 -384.787 -2098 53 57 54
-125.422 -385.122 -2100 55 59 55
-121.31 -385.459 -2102 56 60 55
-117.191 -385.795 -2104 56 60 57
-113.28 -386.867 -2110 57 61 58
-109.398 -388.123 -2117 58 62 59
-105.438 -389.196 -2123 60 64 61
-101.455 -390.27 -2129 62 66 63
-97.3579 -390.978 -2133 65 69 66
-93.3324 -392.055 -2139 69 73 71
-89.3253 -393.315 -2146 73 79 77
-85.7264 -396.592 -2164 74 78 78
-308.823 -403.021 -2161 49 55 57
-301.3 -398.84 -2139 47 53 54
-294.979 -396.154 -2125 46 52 53
-289.129 -394.029 -2114 47 53 54
-283.73 -392.465 -2106 47 53 54
-277.702 -389.972 -2093 48 54 55
-272.384 -388.411 -2085 50 56 55
-267.229 -387.039 -2078 49 55 54
-262.231 -385.854 -2072 45 51 50
-257.384 -384.857 -2067 45 51 50
-253.05 -384.606 -2066 52 58 57
-248.482 -383.984 -2063 52 58 57
-244.401 -384.107 -2064 52 58 57
-239.969 -383.674 -2062 53 59 58
-235.661 -383.427 -2061 57 61 60
-231.36 -383.182 -2060 57 61 60
-227.174 -383.124 -2060 57 61 60
-222.883 -382.881 -2059 63 67 66
-218.491 -382.453 -2057 64 68 67
-214.213 -382.213 -2056 62 64 64
-209.941 -381.973 -2055 61 62 62
-205.675 -381.734 -2054 58 58 58
-201.414 -381.497 -2053 58 58 58
-197.352 -381.633 -2054 57 57 57
-193.475 -382.14 -2057 59 59 59
-189.404 -382.278 -2058 57 60 57
-185.42 -382.602 -2060 55 59 56
-181.253 -382.556 -2060 54 58 55
-177.26 -382.882 -2062 51 55 52
-172.925 -382.466 -2060 51 55 52
-168.926 -382.794 -2062 51 55 52
-164.842 -382.938 -2063 51 55 52
-160.754 -383.082 -2064 51 55 52
-157.043 -384.156 -2070 53 57 54
-153.014 -384.488 -2072 53 57 54
-149.337 -385.749 -2079 50 54 51
-145.354 -386.268 -2082 52 56 53
-141.496 -387.16 -2087 50 54 51
-137.421 -387.495 -2089 50 54 49
-133.467 -388.203 -2093 51 55 50
-129.374 -388.541 -2095 51 55 52
-125.274 -388.88 -2097 54 58 54
-121.225 -389.405 -2100 56 60 55
-117.054 -389.561 -2101 56 60 57
-113.148 -390.644 -2107 58 62 59
-109.218 -391.728 -2113 59 63 60
-105.216 -392.629 -2118 61 65 62
-101.385 -394.271 -2127 63 67 64
-97.2909 -394.987 -2131 63 67 62
-93.2248 -395.89 -2136 66 70 66
-89.181 -396.979 -2142 75 79 76
-85.3515 -399.181 -2154 77 81 80
-309.474 -408.244 -2165 48 54 57
-301.94 -404.017 -2143 45 51 52
-295.332 -400.924 -2127 46 52 53
-289.203 -398.398 -2114 47 53 54
-283.667 -396.629 -2105 48 54 55
-277.641 -394.107 -2092 48 54 55
-272.192 -392.341 -2083 49 55 54
-267.04 -390.954 -2076 49 55 54
-262.045 -389.756 -2070 46 52 51
-257.326 -388.936 -2066 45 51 50
-252.87 -388.494 -2064 50 56 55
-248.545 -388.241 -2063 50 56 55
-244.226 -387.99 -2062 51 57 56
-239.797 -387.551 -2060 50 56 55
-235.492 -387.303 -2059 54 58 57
-231.194 -387.054 -2058 59 63 62
-227.122 -387.184 -2059 58 62 61
-222.723 -386.75 -2057 60 64 63
-218.44 -386.506 -2056 62 65 65
-214.163 -386.262 -2055 61 63 63
-209.79 -385.832 -2053 60 61 61
-205.527 -385.591 -2052 57 57 57
-201.564 -385.915 -2054 56 56 56
-197.21 -385.488 -2052 52 52 52
-193.43 -386.189 -2056 54 55 55
-189.176 -385.953 -2055 56 59 57
-185.287 -386.468 -2058 55 59 56
-181.299 -386.797 -2060 53 57 54
-177.133 -386.751 -2060 52 56 53
-172.969 -386.706 -2060 52 56 53
-168.887 -386.85 -2061 50 54 51
-164.963 -387.371 -2064 50 54 51
-160.717 -387.142 -2063 51 55 52
-157.159 -388.602 -2071 52 56 53
-152.905 -388.375 -2070 52 56 53
-149.231 -389.65 -2077 50 54 51
-145.391 -390.55 -2082 52 56 53
-141.464 -391.264 -2086 49 53 50
-137.456 -391.791 -2089 49 53 48
-133.628 -392.882 -2095 51 55 50
-129.345 -392.661 -2094 51 55 52
-125.186 -392.816 -2095 54 58 54
-121.198 -393.535 -2099 57 61 56
-117.083 -393.879 -2101 57 61 58
-113.123 -394.787 -2106 58 62 59
-109.298 -396.258 -2114 61 65 62
-105.243 -396.981 -2118 61 65 62
-101.411 -398.642 -2127 61 65 62
-97.2698 -399.178 -2130 60 64 59
-93.2483 -400.279 -2136 62 66 61
-88.9953 -400.443 -2137 69 73 70
-85.2939 -403.231 -2152 81 85 81
-310.269 -413.678 -2170 49 55 58
-302.16 -408.642 -2144 45 51 52
-295.27 -405.134 -2126 45 51 52
-288.867 -402.199 -2111 48 54 55
-282.797 -399.648 -2098 50 56 57
-276.916 -397.29 -2086 47 53 53
-271.74 -395.885 -2079 47 53 52
-266.98 -395.054 -2075 49 55 54
-262.366 -394.414 -2072 47 53 52
-257.641 -393.585 -2068 48 54 53
-253.303 -393.328 -2067 49 55 54
-248.489 -392.312 -2062 48 54 53
-244.052 -391.867 -2060 49 55 54
-239.393 -391.044 -2056 48 54 53
-235.096 -390.792 -2055 51 55 54
-231.029 -390.922 -2056 60 64 63
-226.739 -390.672 -2055 60 64 63
-222.564 -390.614 -2055 59 63 62
-218.39 -390.557 -2055 59 62 62
-214.218 -390.501 -2055 57 59 59
-210.048 -390.446 -2055 57 58 58
-205.68 -390.012 -2053 57 57 57
-201.419 -389.77 -2052 55 55 55
-197.261 -389.718 -2052 49 50 50
-193.198 -389.858 -2053 51 53 53
-189.04 -389.808 -2053 54 58 55
-185.154 -390.329 -2056 54 58 55
-181.258 -390.851 -2059 53 57 54
-177.179 -390.995 -2060 53 57 54
-173.013 -390.95 -2060 53 57 54
-168.849 -390.905 -2060 50 54 51
-164.606 -390.673 -2059 50 54 51
-160.524 -390.821 -2060 50 54 51
-156.592 -391.349 -2063 51 55 52
-152.796 -392.257 -2068 50 54 51
-149.054 -393.356 -2074 50 54 51
-145.288 -394.456 -2080 52 56 53
-141.568 -395.747 -2087 49 53 50
-137.491 -396.09 -2089 48 52 48
-133.343 -396.245 -2090 52 56 51
-129.193 -396.401 -2091 52 56 53
-124.92 -396.178 -2090 54 58 54
-120.94 -396.905 -2094 55 59 54
-116.946 -397.632 -2098 56 60 57
-112.937 -398.361 -2102 57 61 58
-109.067 -399.659 -2109 61 65 62
-105.17 -400.958 -2116 62 66 63
-101.246 -402.257 -2123 61 65 62
-97.0663 -402.611 -2125 61 65 60
-93.2286 -404.481 -2135 60 64 60
-88.9348 -404.458 -2135 65 69 66
-85.1174 -406.708 -2147 78 82 77
-81.3278 -409.339 -2161 87 91 88
-310.494 -418.365 -2171 50 56 59
-302.803 -413.852 -2148 47 53 54
-295.347 -409.535 -2126 47 53 54
-289.08 -406.761 -2112 48 54 55
-282.737 -403.798 -2097 48 54 55
-277.387 -402.184 -2089 45 51 51
-271.941 -400.379 -2080 45 51 50
-267.179 -399.538 -2076 48 54 53
-262.308 -398.506 -2071 47 53 52
-257.833 -398.053 -2069 49 55 54
-252.879 -396.832 -2063 50 56 55
-248.433 -396.381 -2061 49 55 54
-243.997 -395.932 -2059 49 55 54
-239.572 -395.484 -2057 48 54 53
-235.042 -394.845 -2054 50 54 53
-230.977 -394.976 -2055 58 62 61
-227.019 -395.3 -2057 59 63 62
-222.73 -395.049 -2056 56 60 59
-218.553 -394.992 -2056 53 57 56
-214.379 -394.935 -2056 50 52 52
-210.41 -395.263 -2058 50 51 51
-206.034 -394.825 -2056 52 52 52
-201.668 -394.388 -2054 53 53 53
-197.408 -394.143 -2053 50 51 51
-193.248 -394.092 -2053 51 53 53
-188.905 -393.658 -2051 54 57 55
-184.842 -393.802 -2052 55 59 56
-181.041 -394.521 -2056 53 57 54
-176.881 -394.474 -2056 53 57 54
-172.806 -394.621 -2057 54 58 55
-168.647 -394.576 -2057 52 56 53
-164.569 -394.725 -2058 49 53 50
-160.41 -394.682 -2058 49 53 50
-156.633 -395.599 -2063 49 53 50
-152.836 -396.518 -2068 48 52 49
-149.021 -397.437 -2073 49 53 50
-145.186 -398.358 -2078 51 55 52
-141.333 -399.279 -2083 50 54 51
-137.263 -399.626 -2085 50 54 50
-133.25 -400.165 -2088 53 57 52
-129.103 -400.323 -2089 54 58 55
-124.892 -400.29 -2089 54 58 54
-121.03 -401.407 -2095 54 58 53
-116.921 -401.76 -2097 55 59 56
-112.966 -402.688 -2102 57 61 58
-108.992 -403.617 -2107 59 63 60
-105.098 -404.929 -2114 61 65 62
-101.129 -406.052 -2120 60 64 61
-96.9544 -406.409 -2122 64 68 63
-93.1216 -408.3 -2132 56 60 56
-88.8327 -408.276 -2132 60 64 61
-85.1394 -411.126 -2147 74 78 73
-81.1606 -412.828 -2156 80 84 81
-311.577 -424.228 -2178 49 55 58
-303.87 -419.667 -2155 50 56 56
-295.842 -414.524 -2129 48 54 54
-289.019 -410.942 -2111 49 55 56
-283.351 -408.919 -2101 48 54 55
-277.593 -406.704 -2090 45 51 52
-271.883 -404.491 -2079 44 50 49
-267.249 -403.835 -2076 46 52 51
-262.504 -402.987 -2072 47 53 52
-257.901 -402.334 -2069 43 50 50
-253.068 -401.294 -2064 49 56 55
-248.378 -400.45 -2060 51 57 56
-243.943 -399.996 -2058 50 56 55
-239.519 -399.543 -2056 48 54 53
-235.104 -399.092 -2054 50 55 54
-230.813 -398.836 -2053 54 58 57
-227.079 -399.552 -2057 62 66 64
-222.68 -399.104 -2055 50 54 52
-218.611 -399.24 -2056 47 51 49
-214.435 -399.182 -2056 46 49 47
-210.465 -399.514 -2058 46 48 47
-206.088 -399.071 -2056 49 50 50
-201.819 -398.823 -2055 51 52 52
-197.268 -397.994 -2051 51 52 52
-193.016 -397.748 -2050 52 54 54
-188.862 -397.698 -2050 54 58 56
-184.8 -397.842 -2051 56 60 57
-181.176 -398.958 -2057 54 58 55
-177.013 -398.911 -2057 53 57 54
-172.767 -398.671 -2056 53 57 54
-168.773 -399.013 -2058 52 56 53
-164.452 -398.582 -2056 50 54 51
-160.374 -398.732 -2057 48 52 49
-156.37 -399.078 -2059 48 52 49
-152.507 -399.813 -2063 48 52 49
-148.988 -401.517 -2072 48 53 50
-145.434 -403.222 -2081 48 52 49
-141.302 -403.378 -2082 50 54 51
-137.431 -404.311 -2087 51 55 51
-133.157 -404.081 -2086 52 56 52
-129.075 -404.434 -2088 54 58 54
-124.805 -404.207 -2087 54 58 54
-120.946 -405.337 -2093 55 59 55
-116.951 -406.08 -2097 57 61 58
-112.888 -406.631 -2100 57 61 58
-108.917 -407.569 -2105 60 64 61
-104.827 -408.122 -2108 61 65 62
-100.822 -409.063 -2113 61 65 62
-96.8426 -410.199 -2119 60 65 61
-92.9712 -411.916 -2128 49 55 51
-88.731 -412.086 -2129 49 55 52
-84.8444 -413.998 -2139 66 70 68
-80.8806 -415.718 -2148 76 81 79
-312.806 -430.322 -2186 46 53 54
-304.516 -424.924 -2159 49 55 55
-296.199 -419.333 -2131 49 55 54
-289.233 -415.515 -2112 48 54 55
-283.292 -413.078 -2100 47 53 54
-277.534 -410.839 -2089 46 52 53
-272.217 -409.192 -2081 45 51 50
-267.578 -408.529 -2078 46 52 51
-262.447 -407.082 -2071 47 53 52
-257.721 -406.226 -2067 48 55 55
-252.89 -405.175 -2062 49 56 56
-248.324 -404.518 -2059 50 56 55
-244.008 -404.256 -2058 50 56 55
-239.466 -403.602 -2055 51 57 56
-235.282 -403.538 -2055 49 55 54
-230.874 -403.083 -2053 49 54 53
-226.918 -403.414 -2055 59 63 60
-222.523 -402.961 -2053 60 64 61
-218.563 -403.295 -2055 45 49 46
-214.283 -403.041 -2054 44 48 45
-210.521 -403.769 -2058 46 49 47
-206.043 -403.125 -2055 47 49 49
-201.775 -402.874 -2054 47 49 49
-197.32 -402.232 -2051 46 48 48
-193.161 -402.18 -2051 49 51 51
-188.728 -401.541 -2048 54 57 55
-184.669 -401.687 -2049 57 61 58
-180.696 -402.03 -2051 55 59 56
-176.716 -402.374 -2053 53 57 54
-172.561 -402.328 -2053 53 57 54
-168.572 -402.674 -2055 52 56 53
-164.336 -402.434 -2054 51 55 52
-160.417 -402.978 -2057 49 53 50
-156.563 -403.72 -2061 49 53 50
-152.769 -404.658 -2066 51 55 52
-149.099 -405.988 -2073 49 56 52
-145.263 -406.928 -2078 49 55 52
-141.136 -407.086 -2079 51 55 52
-137.006 -407.245 -2080 52 56 53
-133.001 -407.796 -2083 53 57 54
-128.985 -408.349 -2086 54 58 53
-124.958 -408.902 -2089 54 58 54
-121.093 -410.044 -2095 54 58 55
-117.038 -410.599 -2098 55 59 56
-112.972 -411.156 -2101 55 59 56
-108.946 -411.909 -2105 59 63 60
-104.855 -412.467 -2108 62 66 63
-100.848 -413.418 -2113 61 65 62
-96.7768 -414.175 -2117 59 66 62
-92.7773 -415.323 -2123 56 63 59
-88.7127 -416.277 -2128 47 54 50
-84.7875 -418.015 -2137 56 60 59
-80.7137 -419.166 -2143 73 77 76
-313.033 -435.059 -2187 45 53 53
-304.598 -429.405 -2159 44 50 49
-296.558 -424.153 -2133 48 54 53
-289.448 -420.096 -2113 47 53 54
-283.638 -417.832 -2102 47 53 54
-277.875 -415.569 -2091 47 53 54
-272.683 -414.103 -2084 47 53 52
-267.264 -412.242 -2075 46 52 51
-262.518 -411.375 -2071 47 53 52
-257.541 -410.113 -2065 46 53 53
-252.959 -409.448 -2062 47 55 55
-248.391 -408.784 -2059 50 56 55
-244.074 -408.519 -2058 51 57 56
-239.414 -407.659 -2054 50 56 55
-235.459 -407.992 -2056 49 55 54
-230.824 -407.135 -2052 49 54 52
-226.869 -407.47 -2054 54 58 55
-222.583 -407.211 -2053 61 65 62
-218.728 -407.746 -2056 38 42 39
-214.341 -407.291 -2054 36 40 37
-210.578 -408.027 -2058 44 47 46
-206.098 -407.375 -2055 48 50 50
-202.025 -407.518 -2056 46 48 48
-197.469 -406.672 -2052 45 47 47
-193.402 -406.817 -2053 49 51 51
-188.871 -405.973 -2049 54 58 55
-184.899 -406.319 -2051 56 60 57
-180.744 -406.269 -2051 54 58 55
-176.763 -406.617 -2053 53 57 54
-172.523 -406.372 -2052 52 56 53
-168.535 -406.722 -2054 52 56 53
-164.54 -407.073 -2056 52 56 53
-160.538 -407.425 -2058 52 56 53
-156.529 -407.778 -2060 52 56 53
-152.884 -409.122 -2067 54 58 55
-148.995 -409.873 -2071 53 60 55
-145.232 -411.021 -2077 51 57 52
-141.377 -411.972 -2082 51 55 52
-137.109 -411.736 -2081 52 56 53
-133.164 -412.492 -2085 54 58 55
-128.958 -412.456 -2085 52 56 53
-124.812 -412.62 -2086 53 57 54
-121.01 -413.971 -2093 55 59 56
-116.902 -414.335 -2095 55 59 56
-112.894 -415.095 -2099 54 58 55
-108.768 -415.461 -2101 57 61 58
-104.734 -416.223 -2105 60 64 61
-100.732 -417.184 -2110 61 65 62
-96.6655 -417.948 -2114 61 68 64
-92.7146 -419.307 -2121 62 69 65
-88.653 -420.271 -2126 55 62 58
-84.4926 -420.841 -2129 54 58 57
-80.5092 -422.4 -2137 63 68 67
-76.8151 -425.739 -2154 83 87 86
-304.681 -433.89 -2159 44 50 49
-297.056 -429.186 -2136 46 52 52
-289.939 -425.087 -2116 47 53 54
-283.986 -422.598 -2104 47 53 54
-278.35 -420.512 -2094 46 52 53
-272.627 -418.228 -2083 47 53 52
-267.208 -416.346 -2074 48 54 53
-262.209 -415.07 -2068 47 53 52
-257.237 -413.794 -2062 45 53 53
-252.782 -413.323 -2060 47 54 54
-248.096 -412.452 -2056 50 56 55
-243.903 -412.384 -2056 50 56 55
-239.596 -412.117 -2055 49 55 54
-235.294 -411.852 -2054 48 54 53
-230.999 -411.588 -2053 47 52 51
-226.71 -411.324 -2052 50 54 51
-222.426 -411.063 -2051 63 67 64
-218.468 -411.403 -2053 51 55 52
-214.19 -411.144 -2052 42 46 43
-210.328 -411.687 -2055 46 49 47
-206.254 -411.83 -2056 50 52 52
-201.884 -411.374 -2054 50 52 52
-197.523 -410.919 -2052 48 50 50
-193.454 -411.065 -2053 51 53 53
-189.107 -410.613 -2051 54 58 56
-185.039 -410.762 -2052 56 60 57
-180.705 -410.312 -2050 55 59 56
-176.725 -410.663 -2052 53 57 54
-172.486 -410.416 -2051 53 57 54
-168.58 -410.969 -2054 52 56 53
-164.504 -411.124 -2055 52 56 53
-160.581 -411.68 -2058 53 57 54
-156.876 -412.837 -2064 54 58 55
-152.851 -413.195 -2066 55 59 56
-149.18 -414.553 -2073 52 59 53
-144.991 -414.513 -2073 52 58 53
-141.076 -415.274 -2077 50 54 51
-136.948 -415.436 -2078 52 56 53
-132.881 -415.799 -2080 52 56 53
-128.807 -416.163 -2082 51 55 52
-124.786 -416.729 -2085 51 55 52
-120.869 -417.695 -2090 54 58 55
-116.878 -418.462 -2094 54 58 55
-112.817 -419.03 -2097 54 58 55
-108.745 -419.599 -2100 56 60 57
-104.762 -420.569 -2105 58 62 59
-100.712 -421.341 -2109 61 65 62
-96.783 -422.712 -2116 61 68 64
-92.6086 -423.086 -2118 61 68 64
-88.4267 -423.461 -2120 66 73 69
-84.4757 -425.035 -2128 62 67 65
-80.3801 -426.011 -2133 62 66 65
-76.5862 -428.786 -2147 74 78 77
-304.907 -438.582 -2160 47 53 53
-297.138 -433.626 -2136 45 51 52
-289.745 -429.079 -2114 47 53 54
-283.929 -426.767 -2103 47 53 54
-278.028 -424.254 -2091 45 51 52
-272.571 -422.351 -2082 46 52 51
-267.153 -420.451 -2073 49 55 54
-262.408 -419.566 -2069 48 54 53
-257.308 -418.075 -2062 49 56 56
-252.729 -417.396 -2059 48 56 56
-247.923 -416.313 -2054 50 56 55
-243.733 -416.245 -2054 51 57 56
-239.429 -415.975 -2053 51 57 56
-235.359 -416.112 -2054 49 55 54
-230.95 -415.643 -2052 48 53 51
-226.883 -415.782 -2053 49 53 50
-222.379 -415.112 -2050 56 60 57
-218.209 -415.051 -2050 58 62 59
-213.936 -414.789 -2049 51 55 52
-210.181 -415.54 -2053 50 53 52
-206.01 -415.483 -2053 55 57 57
-201.743 -415.224 -2052 55 57 57
-197.481 -414.967 -2051 53 55 55
-193.413 -415.115 -2052 54 56 56
-189.159 -414.86 -2051 54 57 55
-185.09 -415.011 -2052 54 58 55
-180.931 -414.96 -2052 53 57 54
-176.946 -415.315 -2054 53 57 54
-172.785 -415.267 -2054 53 57 54
-168.791 -415.624 -2056 51 55 52
-164.629 -415.578 -2056 50 54 51
-160.703 -416.14 -2059 52 56 53
-156.691 -416.5 -2061 54 58 55
-152.745 -417.064 -2064 54 58 55
-148.789 -417.629 -2067 50 57 52
-145.031 -418.8 -2073 51 57 52
-141.047 -419.367 -2076 51 55 52
-137.051 -419.935 -2079 52 56 53
-132.981 -420.302 -2081 52 56 53
-128.78 -420.266 -2081 51 55 52
-124.88 -421.241 -2086 50 54 51
-120.729 -421.409 -2087 52 56 53
-116.742 -422.184 -2091 54 58 55
-112.74 -422.96 -2095 55 59 56
-108.723 -423.737 -2099 55 59 56
-104.641 -424.313 -2102 57 61 58
-100.691 -425.496 -2108 60 64 61
-96.6723 -426.478 -2113 60 67 63
-92.5026 -426.856 -2115 63 69 65
-88.4091 -427.638 -2119 68 75 71
-84.1414 -427.615 -2119 65 69 68
-80.1383 -429.005 -2126 63 67 66
-76.3216 -431.607 -2139 74 78 77
-304.709 -442.667 -2158 48 54 55
-296.943 -437.66 -2134 49 55 56
-289.689 -433.271 -2113 48 54 55
-284.008 -431.14 -2103 47 53 54
-278.372 -429.011 -2093 46 52 53
-272.778 -426.884 -2083 47 53 52
-267.356 -424.964 -2074 49 55 54
-262.862 -424.48 -2072 49 55 54
-257.504 -422.564 -2063 47 54 54
-253.168 -422.287 -2062 48 55 55
-248.113 -420.784 -2055 50 56 55
-243.801 -420.51 -2054 51 57 56
-239.262 -419.829 -2051 50 56 55
-235.539 -420.581 -2055 48 54 53
-231.014 -419.902 -2052 47 53 51
-226.393 -419.019 -2048 49 53 50
-221.898 -418.343 -2045 51 55 52
-217.737 -418.282 -2045 58 62 59
-213.578 -418.221 -2045 59 63 60
-209.625 -418.571 -2047 55 59 57
-205.666 -418.922 -2049 56 59 58
-201.504 -418.865 -2049 56 58 58
-197.439 -419.014 -2050 54 56 56
-193.184 -418.755 -2049 54 56 56
-189.027 -418.702 -2049 54 58 56
-184.961 -418.854 -2050 53 57 54
-180.805 -418.803 -2050 52 56 53
-176.822 -419.162 -2052 54 58 55
-172.665 -419.113 -2052 53 57 54
-168.591 -419.27 -2053 49 53 50
-164.675 -419.836 -2056 49 53 50
-160.514 -419.791 -2056 50 54 51
-156.354 -419.747 -2056 52 56 53
-152.639 -420.929 -2062 53 57 54
-148.686 -421.499 -2065 51 58 54
-144.791 -422.275 -2069 52 58 54
-140.95 -423.256 -2074 52 56 53
-136.891 -423.625 -2076 51 55 52
-132.89 -424.2 -2079 53 57 54
-128.754 -424.368 -2080 54 58 53
-124.735 -424.944 -2083 52 56 52
-120.704 -425.522 -2086 52 56 53
-116.663 -426.101 -2089 53 57 54
-112.718 -427.089 -2094 54 58 55
-108.753 -428.078 -2099 55 59 56
-104.67 -428.66 -2102 57 61 58
-100.671 -429.652 -2107 58 62 59
-96.5159 -430.032 -2109 58 62 59
-92.4843 -431.025 -2114 62 66 63
-88.35 -431.612 -2117 67 71 68
-84.1249 -431.792 -2118 70 74 73
-80.085 -432.992 -2124 65 69 68
-76.3785 -436.232 -2140 71 75 74
-304.372 -446.54 -2155 46 52 54
-296.748 -441.689 -2132 47 53 54
-289.908 -437.877 -2114 48 54 55
-283.953 -435.31 -2102 47 53 54
-278.051 -432.746 -2090 47 53 54
-272.724 -431.011 -2082 47 53 52
-267.819 -429.9 -2077 48 54 53
-262.682 -428.376 -2070 47 53 52
-257.577 -426.854 -2063 46 53 53
-252.993 -426.161 -2060 47 55 54
-248.062 -424.849 -2054 49 55 54
-243.751 -424.572 -2053 51 57 56
-239.213 -423.884 -2050 50 56 55
-235.491 -424.644 -2054 47 53 51
-230.967 -423.958 -2051 47 53 51
-226.567 -423.48 -2049 48 53 49
-222.069 -422.796 -2046 50 54 52
-217.692 -422.321 -2044 55 59 57
-213.533 -422.26 -2044 59 63 61
-209.581 -422.614 -2046 57 61 60
-205.723 -423.175 -2049 57 61 60
-201.658 -423.324 -2050 57 59 59
-197.398 -423.061 -2049 52 54 54
-193.238 -423.006 -2049 53 55 55
-188.987 -422.746 -2048 55 59 57
-184.832 -422.693 -2048 53 57 54
-180.855 -423.054 -2050 53 57 54
-176.786 -423.21 -2051 52 56 53
-172.798 -423.574 -2053 52 56 53
-168.638 -423.526 -2053 51 55 52
-164.641 -423.892 -2055 50 54 51
-160.324 -423.433 -2053 51 55 52
-156.245 -423.595 -2054 52 56 53
-152.386 -424.377 -2058 53 57 54
-148.439 -424.953 -2061 52 59 55
-144.622 -425.943 -2066 53 60 56
-140.853 -427.139 -2072 53 57 54
-136.996 -428.131 -2077 51 55 52
-132.799 -428.093 -2077 52 56 53
-128.728 -428.469 -2079 54 58 53
-124.71 -429.051 -2082 53 57 53
-120.564 -429.223 -2083 55 59 56
-116.639 -430.22 -2088 56 60 57
-112.587 -430.806 -2091 57 61 58
-108.628 -431.805 -2096 56 60 57
-104.5 -432.187 -2098 55 59 56
-100.556 -433.394 -2104 54 58 55
-96.497 -434.191 -2108 60 63 60
-92.2914 -434.37 -2109 60 64 61
-88.2077 -435.169 -2113 63 67 64
-84.0689 -435.762 -2116 64 68 67
-80.145 -437.593 -2125 62 66 65
-76.364 -440.454 -2139 65 69 68
-304.6 -451.241 -2156 48 54 55
-296.415 -445.504 -2129 46 52 53
-289.441 -441.445 -2110 49 55 56
-283.629 -439.061 -2099 48 54 55
-277.598 -436.262 -2086 47 53 54
-272.67 -435.138 -2081 46 52 51
-267.637 -433.806 -2075 46 52 51
-262.884 -432.894 -2071 46 52 51
-257.775 -431.356 -2064 46 54 52
-253.188 -430.656 -2061 47 55 53
-248.253 -429.331 -2055 48 54 53
-243.939 -429.052 -2054 49 55 54
-239.164 -427.938 -2049 49 55 54
-235.214 -428.288 -2051 48 55 51
-230.807 -427.804 -2049 48 55 50
-226.521 -427.53 -2048 46 53 47
-221.915 -426.631 -2044 45 50 47
-217.54 -426.151 -2042 48 52 51
-213.28 -425.881 -2041 55 59 58
-209.231 -426.03 -2042 57 61 60
-205.48 -426.805 -2046 54 58 57
-201.42 -426.956 -2047 55 57 57
-197.261 -426.899 -2047 51 53 53
-193.104 -426.843 -2047 52 54 54
-188.856 -426.58 -2046 54 58 56
-184.704 -426.527 -2046 53 57 54
-180.642 -426.684 -2047 55 59 56
-176.75 -427.258 -2050 52 56 53
-172.678 -427.417 -2051 52 56 53
-168.604 -427.577 -2052 51 55 52
-164.367 -427.321 -2051 51 55 52
-160.213 -427.275 -2051 51 55 52
-156.213 -427.647 -2053 52 56 53
-152.132 -427.811 -2054 51 55 52
-148.337 -428.81 -2059 50 57 53
-144.593 -430.018 -2065 53 59 55
-140.757 -431.018 -2070 54 58 55
-136.902 -432.02 -2075 53 57 54
-132.773 -432.19 -2076 52 56 53
-128.826 -432.986 -2080 53 57 52
-124.924 -433.99 -2085 54 58 54
-120.714 -433.956 -2085 55 59 56
-116.672 -434.546 -2088 55 59 56
-112.619 -435.138 -2091 55 59 56
-108.607 -435.939 -2095 56 60 57
-104.48 -436.325 -2097 55 59 56
-100.393 -436.92 -2100 54 58 55
-96.3868 -437.933 -2105 56 59 56
-92.1423 -437.906 -2105 57 60 57
-88.1908 -439.337 -2112 58 62 59
-84.1323 -440.352 -2117 59 62 61
-80.2052 -442.201 -2126 57 61 60
-76.2783 -444.259 -2136 63 67 66
-304.546 -455.527 -2155 46 52 54
-296.222 -449.522 -2127 48 54 55
-288.839 -444.788 -2105 50 56 57
-283.17 -442.593 -2095 48 54 54
-277.411 -440.188 -2084 46 52 52
-272.225 -438.63 -2077 46 52 51
-267.456 -437.707 -2073 46 52 51
-262.96 -437.208 -2071 47 53 51
-257.849 -435.656 -2064 46 54 52
-253.507 -435.371 -2063 46 54 52
-248.808 -434.454 -2059 48 54 53
-244.247 -433.75 -2056 48 54 53
-239.583 -432.836 -2052 49 55 54
-235.396 -432.768 -2052 49 56 52
-230.873 -432.068 -2049 47 54 50
-226.254 -431.159 -2045 46 53 47
-222.087 -431.094 -2045 46 51 49
-217.603 -430.398 -2042 48 52 51
-213.237 -429.915 -2040 52 56 55
-209.291 -430.275 -2042 57 61 60
-205.338 -430.637 -2044 57 61 60
-201.281 -430.789 -2045 52 55 54
-197.125 -430.732 -2045 48 51 50
-193.065 -430.886 -2046 53 55 55
-188.726 -430.41 -2044 54 58 56
-184.576 -430.357 -2044 52 56 53
-180.34 -430.094 -2043 53 59 55
-176.455 -430.674 -2046 52 57 54
-172.475 -431.045 -2048 51 55 52
-168.406 -431.206 -2049 51 55 52
-164.414 -431.579 -2051 52 56 53
-160.259 -431.533 -2051 51 55 52
-156.334 -432.119 -2054 51 55 52
-152.324 -432.495 -2056 52 56 53
-148.451 -433.293 -2060 50 57 51
-144.494 -433.882 -2063 52 58 53
-140.593 -434.682 -2067 53 57 54
-136.743 -435.694 -2072 53 57 54
-132.683 -436.076 -2074 53 57 54
-128.739 -436.88 -2078 53 57 54
-124.84 -437.894 -2083 54 58 54
-120.748 -438.28 -2085 54 58 55
-116.761 -439.087 -2089 53 57 54
-112.651 -439.474 -2091 53 57 54
-108.69 -440.493 -2096 54 58 55
-104.46 -440.463 -2096 56 60 57
-100.326 -440.854 -2098 57 61 58
-96.231 -441.456 -2101 55 58 55
-92.1685 -442.269 -2105 56 60 57
-88.2576 -443.924 -2113 57 61 58
-84.1165 -444.53 -2116 57 60 59
-80.3036 -447.027 -2128 57 59 59
-76.1929 -448.055 -2133 62 65 64
-296.169 -453.749 -2126 49 55 56
-289.335 -449.822 -2108 50 56 57
-283.117 -446.751 -2094 49 55 55
-277.226 -444.109 -2082 46 52 51
-272.173 -442.749 -2076 46 52 51
-267.275 -441.604 -2071 46 52 51
-262.909 -441.314 -2070 47 54 50
-258.049 -440.172 -2065 47 54 52
-253.58 -439.671 -2063 45 53 51
-248.88 -438.745 -2059 48 54 52
-244.199 -437.821 -2055 48 54 53
-239.535 -436.898 -2051 49 55 54
-235.35 -436.829 -2051 49 56 52
-230.827 -436.122 -2048 47 54 50
-226.319 -435.417 -2045 45 52 46
-221.934 -434.926 -2043 49 54 51
-217.559 -434.436 -2041 49 53 52
-213.403 -434.373 -2041 47 51 50
-209.249 -434.312 -2041 49 53 52
-205.398 -434.89 -2044 54 58 57
-201.339 -435.044 -2045 50 54 53
-197.375 -435.411 -2047 43 47 46
-193.121 -435.142 -2046 51 53 53
-188.78 -434.661 -2044 55 58 56
-184.449 -434.182 -2042 54 58 55
-180.216 -433.916 -2041 52 59 55
-176.075 -433.864 -2041 50 57 53
-172.356 -434.877 -2046 51 55 52
-168.29 -435.04 -2047 52 56 53
-164.461 -435.841 -2051 51 55 52
-160.149 -435.369 -2049 50 54 51
-156.303 -436.173 -2053 51 55 52
-152.516 -437.191 -2058 53 57 54
-148.422 -437.36 -2059 51 58 52
-144.465 -437.954 -2062 53 59 54
-140.634 -438.975 -2067 52 56 53
-136.519 -439.147 -2068 51 55 52
-132.657 -440.17 -2073 53 57 54
-128.776 -441.194 -2078 54 58 55
-124.936 -442.431 -2084 55 59 56
-120.841 -442.82 -2086 54 58 55
-116.851 -443.635 -2090 54 58 55
-112.738 -444.026 -2092 54 58 55
-108.669 -444.631 -2095 54 58 55
-104.49 -444.812 -2096 55 59 56
-100.355 -445.207 -2098 56 60 57
-96.3045 -446.027 -2102 55 58 55
-92.195 -446.637 -2105 57 61 58
-88.3247 -448.52 -2114 56 60 57
-84.0213 -448.283 -2113 56 58 58
-80.3644 -451.654 -2129 57 59 59
-76.5363 -454.389 -2142 62 63 63
-296.814 -459.053 -2130 50 55 56
-289.557 -454.441 -2109 50 56 57
-283.2 -451.125 -2094 49 55 55
-277.307 -448.457 -2082 47 53 52
-271.99 -446.653 -2074 46 52 51
-267.354 -445.927 -2071 46 52 51
-262.859 -445.419 -2069 47 54 50
-258 -444.265 -2064 46 53 51
-253.655 -443.975 -2063 45 53 51
-248.832 -442.825 -2058 46 53 49
-244.151 -441.891 -2054 47 54 51
-239.606 -441.175 -2051 49 55 54
-235.189 -440.675 -2049 49 56 52
-230.895 -440.391 -2048 49 56 51
