ply
format ascii 1.0
comment Created by Open3D
element vertex 1446
property double x
property double y
property double z
property uchar red
property uchar green
property uchar blue
end_header
-182.68 152.375 -2146 127 90 66
-178.468 152.429 -2147 150 111 87
-174.011 152.27 -2145 176 134 108
-169.563 152.112 -2143 187 145 121
-165.279 152.096 -2143 195 153 130
-161.071 152.151 -2144 204 158 133
-156.933 152.278 -2146 210 164 139
-152.576 152.192 -2145 211 168 142
-148.293 152.178 -2145 212 167 142
-144.212 152.377 -2148 206 160 136
-139.795 152.221 -2146 200 150 127
-135.892 152.634 -2152 192 142 119
-131.477 152.479 -2150 186 136 113
-127.486 152.822 -2155 182 133 112
-122.903 152.455 -2150 183 135 114
-118.618 152.443 -2150 168 137 122
-113.908 151.865 -2142 190 172 161
-109.896 152.209 -2147 174 171 167
-105.472 151.986 -2144 161 168 163
-101.485 152.402 -2150 159 168 164
-97.2942 152.534 -2152 161 178 172
-93.2261 152.879 -2157 158 179 175
-88.8913 152.8 -2156 150 177 175
-84.7181 153.004 -2159 140 172 171
-80.3476 152.854 -2157 137 171 170
-76.0208 152.776 -2156 120 162 162
-71.8318 152.982 -2159 114 157 158
-67.6626 153.258 -2163 126 170 172
-63.5367 153.677 -2169 138 186 187
-222.746 146.344 -2118 30 28 35
-216.119 144.734 -2095 42 39 46
-212.722 145.267 -2103 71 66 69
-208.303 145.109 -2101 80 67 66
-204.38 145.297 -2104 100 79 74
-200.922 145.831 -2112 123 94 80
-197.34 146.296 -2119 141 110 94
-193.64 146.691 -2125 164 129 106
-189.829 147.019 -2130 170 133 109
-186 147.346 -2135 164 126 100
-181.641 147.26 -2134 127 90 65
-177.704 147.52 -2138 128 90 65
-173.589 147.641 -2140 157 115 89
-169.152 147.487 -2138 182 140 116
-165.032 147.61 -2140 196 154 131
-160.981 147.802 -2143 206 160 136
-156.699 147.787 -2143 211 165 142
-152.419 147.773 -2143 211 167 144
-148.21 147.828 -2144 212 167 144
-143.93 147.814 -2144 210 164 142
-139.977 148.146 -2149 206 156 133
-135.69 148.133 -2149 195 145 121
-131.526 148.258 -2151 185 135 111
-127.533 148.591 -2156 181 131 108
-123.178 148.51 -2155 181 131 109
-118.717 148.292 -2152 163 128 110
-114.269 148.075 -2149 180 160 146
-110.193 148.34 -2153 178 175 166
-105.708 148.054 -2149 162 167 159
-101.758 148.527 -2156 160 167 160
-97.5112 148.587 -2157 153 168 164
-93.3037 148.716 -2159 158 179 176
-88.9653 148.638 -2158 150 177 175
-84.828 148.906 -2162 141 172 171
-80.4518 148.76 -2160 142 175 174
-76.1548 148.753 -2160 132 174 172
-71.9581 148.953 -2163 117 159 159
-306.855 145.967 -2169 41 39 45
-300.228 144.863 -2153 35 34 39
-223.766 140.116 -2088 46 44 51
-219.15 139.827 -2084 20 18 24
-212.902 138.466 -2064 29 26 31
-209.365 138.849 -2070 55 52 57
-205.112 138.763 -2069 85 73 74
-201.447 139.08 -2074 115 95 92
-197.859 139.465 -2080 147 118 104
-194.342 139.916 -2087 174 144 128
-190.889 140.435 -2095 196 162 140
-187.228 140.82 -2101 195 162 139
-183.805 141.407 -2110 192 159 135
-179.837 141.591 -2113 163 126 103
-176.191 142.044 -2120 141 103 79
-172.276 142.296 -2124 152 111 85
-168.345 142.549 -2128 167 126 102
-164.708 143.07 -2136 189 147 124
-160.816 143.39 -2141 207 162 139
-156.539 143.376 -2141 211 167 143
-152.405 143.496 -2143 213 171 144
-148.058 143.415 -2142 213 170 146
-143.648 143.268 -2140 213 170 148
-139.704 143.59 -2145 213 165 141
-135.741 143.912 -2150 201 153 129
-131.575 144.034 -2152 187 138 114
-127.639 144.424 -2158 178 128 105
-123.338 144.413 -2158 176 126 103
-118.817 144.134 -2154 158 122 101
-114.631 144.258 -2156 159 135 119
-110.336 144.248 -2156 182 171 161
-106.042 144.238 -2156 166 168 160
-101.891 144.429 -2159 159 164 157
-97.5474 144.353 -2158 143 159 156
-93.4248 144.612 -2162 155 177 175
-89.081 144.537 -2161 157 185 183
-84.9379 144.797 -2165 144 174 175
-80.6307 144.79 -2165 140 172 172
-76.3945 144.916 -2167 133 174 173
-306.827 141.618 -2169 41 41 43
-300.201 140.547 -2153 36 36 39
-232.253 136.046 -2089 49 48 56
-216.502 134.033 -2059 34 31 37
-210.923 133.103 -2045 25 22 28
-207.02 133.215 -2047 49 46 53
-202.913 133.197 -2047 80 69 71
-199.778 133.83 -2057 107 88 87
-195.654 133.813 -2057 122 94 84
-192.09 134.186 -2063 141 112 99
-188.048 134.234 -2064 180 148 129
-184.627 134.738 -2072 193 165 146
-181.176 135.243 -2080 179 154 135
-177.523 135.617 -2086 164 127 108
-174.68 136.642 -2102 153 115 95
-170.638 136.757 -2104 165 126 101
-167.935 137.977 -2123 172 132 107
-164.308 138.482 -2131 170 130 105
-160.576 138.923 -2138 199 155 134
-156.598 139.169 -2142 216 175 149
-152.392 139.22 -2143 218 181 144
-147.976 139.077 -2141 216 179 152
-143.502 138.869 -2138 210 173 149
-139.692 139.312 -2145 210 166 143
-135.476 139.365 -2146 203 158 136
-131.625 139.808 -2153 191 145 124
-127.687 140.186 -2159 177 131 107
-123.67 140.499 -2164 171 125 100
-119.247 140.359 -2162 154 118 96
-114.993 140.414 -2163 145 115 100
-111.043 140.858 -2170 173 151 144
-106.574 140.654 -2167 171 168 164
-102.071 140.385 -2163 158 159 156
-98.036 140.766 -2169 138 155 153
-93.7622 140.823 -2170 139 162 161
-89.4028 140.75 -2169 148 176 175
-85.3227 141.131 -2175 138 170 171
-81.1821 141.449 -2180 131 164 165
-307.083 137.396 -2171 44 44 47
-300.594 136.421 -2156 37 37 40
-297.052 136.775 -2162 40 40 44
-291.594 136.244 -2154 42 40 44
-286.704 135.966 -2150 41 38 43
-229.787 130.48 -2067 52 51 59
-224.103 129.577 -2053 63 62 69
-219.441 129.242 -2048 63 62 69
-214.801 128.908 -2043 56 53 60
-209.564 128.196 -2032 46 44 50
-205.283 128.053 -2030 56 55 62
-201.607 128.288 -2034 65 57 62
-197.819 128.46 -2037 73 60 63
-182.74 129.278 -2051 94 78 75
-178.896 129.451 -2054 93 77 74
-175.381 129.878 -2061 105 81 68
-172.172 130.556 -2072 132 107 93
-169.326 131.55 -2088 174 146 127
-166.575 132.669 -2106 186 153 133
-163.446 133.537 -2120 178 144 123
-159.962 134.153 -2130 178 136 114
-156.292 134.644 -2138 207 167 141
-152.023 134.631 -2138 223 187 154
-147.963 134.807 -2141 223 189 163
-143.623 134.732 -2140 215 181 158
-139.615 134.972 -2144 210 169 147
-135.654 135.275 -2149 204 161 139
-131.613 135.515 -2153 195 149 128
-127.735 135.945 -2160 182 137 113
-124.059 136.626 -2171 167 122 98
-119.733 136.616 -2171 149 114 93
-115.674 136.921 -2176 135 106 93
-111.699 137.351 -2183 145 124 119
-107.302 137.279 -2182 165 162 162
-102.722 136.956 -2177 157 158 158
-98.4343 137.01 -2178 135 153 151
-94.0998 137.002 -2178 126 148 147
-89.8485 137.12 -2180 122 148 148
-313.61 133.99 -2186 51 51 55
-307.341 133.168 -2173 42 42 46
-300.987 132.285 -2159 36 36 40
-298.126 132.934 -2170 41 41 45
-293.058 132.603 -2165 41 38 43
-287.08 131.844 -2153 40 37 42
-233.699 126.245 -2065 55 52 59
-228.101 125.431 -2052 55 54 61
-222.774 124.74 -2041 60 59 66
-217.816 124.233 -2033 59 58 65
-213.627 124.154 -2032 60 57 64
-208.309 123.404 -2020 63 60 67
-167.609 126.103 -2067 113 95 83
-165.059 127.309 -2087 174 150 135
-162.353 128.455 -2106 204 177 160
-159.197 129.295 -2120 201 163 142
-155.694 129.892 -2130 198 161 137
-151.868 130.245 -2136 220 186 157
-147.951 130.538 -2141 226 194 170
-143.611 130.465 -2140 220 188 166
-139.733 130.819 -2146 210 173 152
-135.769 131.113 -2151 202 162 140
-131.664 131.285 -2154 198 153 131
-127.784 131.701 -2161 186 142 120
-124.106 132.361 -2172 175 132 110
-120.33 132.96 -2182 156 122 102
-116.462 133.499 -2191 129 103 91
-314.158 129.847 -2190 47 47 51
-307.881 129.051 -2177 40 40 44
-301.52 128.197 -2163 36 36 40
-296.728 127.995 -2160 40 40 44
-291.681 127.675 -2155 41 39 43
-285.056 126.645 -2138 39 36 41
-279.553 126.089 -2129 36 33 38
-242.344 122.333 -2068 58 55 60
-236.223 121.308 -2051 53 50 57
-231.983 121.23 -2050 49 46 53
-226.971 120.739 -2042 52 51 58
-221.883 120.189 -2033 52 51 58
-217.262 119.876 -2028 55 54 61
-212.874 119.681 -2025 60 57 64
-207.983 119.192 -2017 65 62 69
-167.99 119.337 -2022 74 70 68
-165.487 120.445 -2041 74 67 62
-162.91 121.553 -2060 95 81 73
-160.953 123.193 -2088 182 163 153
-157.908 124.065 -2103 218 187 169
-154.951 125.055 -2120 211 179 160
-151.501 125.692 -2131 217 185 161
-147.731 126.093 -2138 224 194 172
-143.667 126.258 -2141 225 196 174
-139.852 126.66 -2148 212 180 159
-135.758 126.826 -2151 201 164 143
-131.714 127.051 -2155 199 154 134
-127.892 127.513 -2163 188 148 129
-124.439 128.387 -2178 181 141 122
-313.99 125.401 -2189 43 43 47
-307.433 124.518 -2174 38 38 42
-301.496 123.864 -2163 35 35 39
-295.606 123.211 -2152 39 39 43
-291.252 123.189 -2152 40 38 43
-284.5 122.136 -2134 37 34 39
-278.743 121.485 -2123 37 34 39
-247.682 118.789 -2078 50 47 54
-241.505 117.799 -2061 51 48 54
-235.974 117.094 -2049 48 45 52
-230.72 116.505 -2039 47 44 51
-226.175 116.259 -2035 43 44 52
-221.32 115.842 -2028 47 47 54
-216.603 115.482 -2022 54 53 60
-212.226 115.294 -2019 62 60 67
-161 116.078 -2036 76 67 64
-159.013 117.605 -2063 87 76 72
-156.394 118.733 -2083 194 173 161
-153.916 120.031 -2106 230 205 192
-150.849 120.932 -2122 222 192 175
-147.374 121.547 -2133 222 194 173
-143.454 121.821 -2138 225 197 175
-139.451 122.038 -2142 217 188 167
-135.684 122.483 -2150 206 172 152
-131.765 122.815 -2156 203 162 143
-128.118 123.431 -2167 194 157 141
-125.057 124.675 -2189 188 151 136
-313.536 120.851 -2186 38 38 42
-306.278 119.722 -2166 35 35 39
-299.94 118.925 -2152 33 33 37
-294.21 118.351 -2142 38 38 42
-290.012 118.384 -2143 39 37 41
-284.346 117.81 -2133 36 33 38
-278.853 117.292 -2124 36 33 38
-273.529 116.83 -2116 33 30 35
-268.239 116.368 -2108 36 33 38
-251.971 114.709 -2079 38 37 44
-246.471 114.084 -2068 37 36 43
-240.549 113.238 -2053 41 38 45
-234.805 112.448 -2039 49 46 53
-230.024 112.1 -2033 52 49 56
-225.269 111.753 -2027 46 48 55
-220.212 111.24 -2018 52 52 59
-215.515 110.893 -2012 58 57 64
-211.054 110.657 -2008 62 59 66
-156.612 111.787 -2032 77 69 70
-154.13 112.931 -2053 94 82 79
-152.589 114.844 -2088 197 179 173
-149.487 115.658 -2103 230 203 192
-146.949 116.967 -2127 223 195 176
-143.377 117.506 -2137 225 197 175
-139.44 117.771 -2142 220 194 172
-135.611 118.145 -2149 210 181 161
-131.816 118.575 -2157 205 170 154
-128.404 119.39 -2172 194 160 146
-311.505 115.727 -2172 40 40 44
-304.842 114.852 -2156 37 37 41
-298.942 114.244 -2145 36 36 40
-293.364 113.744 -2136 36 36 40
-289.314 113.829 -2138 35 33 38
-283.525 113.223 -2127 35 32 37
-277.651 112.564 -2115 36 33 38
-271.829 111.906 -2103 33 30 35
-266.057 111.248 -2091 38 35 40
-260.836 110.803 -2083 38 38 42
-257.128 110.998 -2087 39 39 43
-251.468 110.341 -2075 36 35 42
-245.619 109.579 -2061 38 36 43
-239.712 108.764 -2046 49 46 53
-234.097 108.056 -2033 51 48 55
-228.989 107.561 -2024 50 47 54
-224.141 107.173 -2017 50 52 59
-218.778 106.519 -2005 55 55 62
-214.321 106.291 -2001 62 61 68
-154.828 106.518 -2009 74 66 70
-152.242 107.514 -2028 75 69 69
-151.043 109.571 -2067 113 103 101
-148.552 110.779 -2090 205 186 181
-145.902 111.935 -2112 230 205 190
-142.762 112.773 -2128 225 200 181
-139.17 113.293 -2138 222 196 174
-135.475 113.76 -2147 213 185 166
-131.807 114.28 -2157 206 176 160
-312.344 111.686 -2178 42 42 46
-304.82 110.536 -2156 35 35 39
-298.364 109.746 -2141 34 34 38
-292.52 109.162 -2130 35 35 39
-288.346 109.193 -2131 37 34 39
-282.972 108.763 -2123 35 32 37
-277.632 108.334 -2115 33 30 35
-266.674 107.323 -2096 36 33 38
-261.444 106.896 -2088 38 37 42
-256.741 106.673 -2084 40 40 44
-251.086 106.041 -2072 31 30 37
-245.125 105.256 -2057 45 43 50
-238.992 104.37 -2040 57 54 61
-233.965 103.944 -2032 45 42 49
-228.294 103.212 -2018 45 43 50
-223.236 102.736 -2009 52 52 60
-218.326 102.312 -2001 59 59 66
-213.449 101.888 -1993 65 64 71
-149.279 104.229 -2043 77 69 70
-146.978 105.494 -2068 136 123 123
-144.786 106.913 -2096 217 196 185
-142.015 107.974 -2117 228 205 190
-138.704 108.678 -2131 223 197 175
-135.213 109.281 -2143 216 189 170
-131.859 110.037 -2158 204 178 162
-311.749 107.128 -2174 38 38 42
-303.81 105.876 -2149 32 32 36
-297.647 105.216 -2136 34 34 38
-292.912 105.048 -2133 35 35 39
-288.191 104.881 -2130 35 33 38
-283.086 104.567 -2124 34 31 36
-277.875 104.203 -2117 33 30 35
-272.437 103.742 -2108 36 33 38
-266.274 102.986 -2093 37 34 39
-260.174 102.231 -2078 35 34 39
-255.122 101.869 -2071 35 35 39
-249.737 101.36 -2061 38 35 42
-244.274 100.803 -2050 52 49 56
-238.741 100.197 -2038 48 45 52
-232.913 99.4441 -2023 42 41 48
-227.713 98.9372 -2013 45 44 51
-222.777 98.5291 -2005 57 56 63
-217.657 98.0232 -1995 63 62 69
-212.685 97.5668 -1986 64 63 70
-147.588 99.0326 -2020 73 65 66
-145.405 100.298 -2046 77 69 75
-143.533 101.857 -2078 173 156 150
-141.066 103.073 -2103 230 210 199
-138.304 104.142 -2125 220 194 174
-135.078 104.917 -2141 214 188 170
-131.911 105.79 -2159 207 182 166
-302.8 101.245 -2142 32 32 36
-297.348 100.848 -2134 36 36 40
-293.03 100.829 -2134 35 35 39
-288.579 100.763 -2133 35 33 37
-283.6 100.508 -2128 36 33 38
-278.514 100.207 -2122 34 31 36
-272.419 99.5285 -2108 37 34 39
-265.621 98.5672 -2088 37 34 39
-259.406 97.7952 -2072 28 27 31
-254.12 97.3541 -2063 33 33 37
-248.63 96.819 -2052 50 47 54
-243.424 96.3787 -2043 52 49 56
-237.906 95.7974 -2031 46 43 50
-232.322 95.1692 -2018 47 46 53
-227.245 94.7302 -2009 50 49 56
-222.318 94.3387 -2001 59 58 65
-216.988 93.759 -1989 63 62 69
-211.601 93.1326 -1976 62 61 68
-145.825 93.8815 -1996 74 64 65
-143.548 95.0011 -2020 67 59 64
-141.452 96.3089 -2048 98 85 83
-139.581 97.8518 -2081 210 194 189
-137.515 99.3476 -2113 223 199 182
-134.438 100.185 -2131 213 189 172
-302.923 97.0048 -2143 37 37 41
-297.608 96.6696 -2136 38 38 42
-293.149 96.6062 -2135 34 34 38
-288.019 96.317 -2129 34 31 36
-282.517 95.8924 -2120 37 34 39
-277.184 95.5135 -2112 39 36 41
-270.335 94.5923 -2092 37 34 39
-263.823 93.7621 -2074 34 31 36
-258.138 93.2037 -2062 30 30 34
-252.995 92.8267 -2054 50 50 55
-247.887 92.4498 -2046 54 52 59
-242.694 92.0282 -2037 50 47 54
-237.071 91.4263 -2024 46 43 50
-231.963 91.0054 -2015 49 47 54
-226.779 90.5399 -2005 49 48 55
-221.637 90.0747 -1995 57 58 64
-216.647 89.6551 -1986 60 60 67
-211.052 88.9649 -1971 59 59 67
-205.834 88.4106 -1959 60 59 66
-200.46 87.7665 -1945 67 66 73
-195.75 87.3935 -1937 69 68 74
-150.703 88.1238 -1956 81 69 70
-147.399 88.4752 -1964 81 69 70
-145.086 89.4573 -1986 78 67 67
-142.189 90.1242 -2001 68 58 61
-140.269 91.4669 -2031 65 55 55
-137.963 92.6292 -2057 133 123 121
-135.879 94.0168 -2088 223 203 188
-133.673 95.4045 -2119 212 192 175
-303.046 92.7614 -2144 39 38 44
-298.009 92.5275 -2139 37 37 42
-293.681 92.5102 -2139 31 31 35
-288.543 92.2337 -2133 30 27 32
-282.9 91.7846 -2123 32 29 34
-277.036 91.2495 -2111 38 35 40
-269.802 90.2394 -2088 34 31 36
-263.426 89.4892 -2071 33 30 35
-257.747 88.9555 -2059 40 40 46
-252.734 88.6382 -2052 56 57 63
-247.63 88.2781 -2044 50 48 55
-242.322 87.8319 -2034 47 44 51
-236.706 87.2567 -2021 45 42 49
-231.718 86.8977 -2013 47 44 51
-226.652 86.4958 -2004 51 49 56
-221.624 86.0944 -1995 56 58 64
-216.525 85.6501 -1985 56 58 64
-210.718 84.9042 -1968 55 57 64
-205.192 84.2449 -1953 58 57 64
-199.727 83.5862 -1938 69 68 74
-195.233 83.3159 -1932 76 75 78
-147.315 84.5224 -1963 86 74 77
-144.712 85.2889 -1981 78 66 68
-141.612 85.7973 -1993 69 56 55
-138.811 86.521 -2010 59 49 51
-136.546 87.6321 -2036 70 61 63
-134.374 88.8724 -2065 194 176 164
-132.277 90.2418 -2097 219 200 185
-309.092 88.9858 -2156 35 34 39
-302.322 88.2672 -2139 37 36 43
-297.295 88.0441 -2134 35 34 40
-293.115 88.0689 -2135 31 30 34
-288.121 87.8465 -2130 28 26 31
-283.017 87.583 -2124 32 29 34
-277.02 87.0316 -2111 34 31 36
-269.399 85.9445 -2085 32 29 34
-263.03 85.229 -2068 35 32 37
-257.232 84.6787 -2055 48 49 58
-252.35 84.4174 -2049 48 49 59
-247.01 83.9915 -2039 46 45 52
-241.713 83.566 -2029 44 42 49
-236.809 83.2645 -2022 40 37 43
-231.015 82.6338 -2007 41 38 43
-226.3 82.3741 -2001 51 49 54
-220.834 81.8266 -1988 55 57 65
-216.186 81.5674 -1982 56 56 64
-209.957 80.6914 -1961 61 59 67
-204.76 80.1861 -1949 62 60 67
-199.406 79.599 -1935 71 68 74
-146.856 80.369 -1957 136 119 114
-143.608 80.7306 -1966 93 77 74
-140.609 81.2565 -1979 73 60 59
-138.043 82.0699 -1999 55 45 47
-135.533 82.9656 -2021 57 49 51
-133.391 84.1486 -2050 116 102 98
-131.513 85.5779 -2085 213 198 190
-309.648 84.8309 -2160 35 34 40
-303.153 84.2255 -2145 36 35 40
-298.254 84.0526 -2141 33 32 37
-293.785 83.9976 -2140 30 27 32
-288.105 83.5897 -2130 27 24 29
-282.601 83.2214 -2121 33 30 35
-275.43 82.3434 -2099 32 28 33
-267.705 81.2699 -2072 31 28 33
-261.87 80.7461 -2059 44 41 46
-256.592 80.3794 -2050 51 51 66
-252.213 80.2875 -2048 45 46 61
-246.755 79.843 -2037 44 43 53
-241.819 79.5558 -2030 44 43 50
-236.094 78.9945 -2016 41 38 43
-231.117 78.6687 -2008 41 38 42
-225.949 78.2649 -1998 48 46 50
-220.822 77.8615 -1988 51 54 64
-215.847 77.4975 -1979 56 56 65
-209.517 76.6247 -1957 63 60 67
-204.013 76.0266 -1942 71 68 75
-198.365 75.3504 -1925 77 73 78
-143.162 76.5842 -1960 129 112 104
-140.104 77.0455 -1972 76 65 62
-137.207 77.6243 -1987 58 49 50
-134.586 78.3984 -2007 56 48 50
-132.082 79.2899 -2030 71 60 67
-129.929 80.4546 -2060 179 168 171
-302.572 79.788 -2141 36 36 40
-297.681 79.6238 -2137 29 28 32
-293.221 79.5717 -2136 26 23 27
-287.955 79.2963 -2129 27 24 28
-281.921 78.7978 -2116 34 31 35
-274.498 77.8902 -2092 35 31 36
-267.045 76.9458 -2067 36 33 38
-261.603 76.5603 -2057 53 50 56
-256.453 76.2495 -2049 49 48 58
-252.077 76.1623 -2047 42 41 52
-246.863 75.815 -2038 43 42 51
-241.449 75.3935 -2027 43 42 50
-236.199 75.0096 -2017 39 37 44
-230.99 74.626 -2007 41 38 44
-226.05 74.3171 -1999 46 44 50
-220.589 73.8227 -1986 48 50 58
-215.945 73.5887 -1980 53 53 60
-209.078 72.5746 -1953 62 61 68
-203.373 71.9326 -1936 72 69 75
-197.427 71.1796 -1916 119 115 118
-142.789 72.4993 -1955 183 166 157
-139.955 73.0485 -1970 89 75 72
-136.993 73.5607 -1984 58 48 49
-133.976 74.073 -1998 54 46 48
-131.425 74.8819 -2020 64 54 57
-129.103 75.8763 -2047 136 126 128
-310.047 76.2988 -2163 38 37 44
-302.981 75.614 -2144 37 37 41
-297.667 75.3528 -2137 28 27 31
-293.069 75.2682 -2135 27 24 27
-287.941 75.0429 -2129 27 24 27
-282.04 74.6063 -2117 32 29 32
-274.747 73.7825 -2094 31 27 32
-267.419 72.9241 -2070 44 41 47
-262.099 72.5945 -2061 59 56 63
-256.441 72.1595 -2049 45 43 51
-252.188 72.1121 -2048 41 39 46
-246.73 71.7131 -2037 43 42 50
-241.676 71.4198 -2029 42 41 49
-236.07 70.9509 -2016 38 37 45
-231.324 70.7286 -2010 41 38 45
-226.039 70.3307 -1999 43 41 48
-220.8 69.9332 -1988 46 46 54
-215.934 69.6414 -1980 53 53 60
-209.282 68.7521 -1955 60 60 68
-202.627 67.8279 -1929 64 61 64
-141.468 67.9788 -1937 221 202 192
-139.451 68.8845 -1963 116 101 97
-136.434 69.3342 -1976 63 53 53
-133.835 70.0295 -1996 51 43 45
-131.028 70.6548 -2014 58 48 49
-128.781 71.631 -2042 96 86 87
-303.533 71.4618 -2148 36 36 40
-297.653 71.0823 -2137 29 27 31
-293.056 71.0026 -2135 26 23 26
-287.522 70.6902 -2126 27 24 27
-281.361 70.212 -2112 30 27 30
-273.947 69.4017 -2088 28 25 30
-267.149 68.7248 -2068 48 45 51
-261.705 68.3807 -2058 51 48 55
-256.429 68.07 -2049 42 40 44
-252.299 68.0586 -2049 42 39 43
-246.961 67.7153 -2039 43 42 49
-241.545 67.339 -2028 41 40 47
-236.527 67.0627 -2020 38 37 45
-231.313 66.7203 -2010 40 37 44
-226.255 66.4112 -2001 41 38 45
-221.123 66.0694 -1991 48 45 52
-216.251 65.7941 -1983 53 52 59
-209.487 64.922 -1957 56 57 64
-140.804 63.8283 -1928 230 210 200
-139.445 64.9807 -1963 140 124 118
-136.428 65.4048 -1976 68 57 57
-133.762 66.0277 -1995 51 41 43
-130.892 66.5845 -2012 54 44 44
-128.397 67.3728 -2036 67 58 58
-303.661 67.2004 -2149 34 33 37
-298.058 66.9063 -2140 29 27 31
-293.455 66.8312 -2138 26 23 26
-287.509 66.4439 -2126 26 23 26
-280.15 65.7132 -2103 25 22 26
-272.623 64.9203 -2078 33 30 35
-266.491 64.4404 -2063 49 46 51
-261.185 64.1481 -2054 42 39 45
-256.167 63.9186 -2047 40 39 41
-251.919 63.8768 -2046 42 41 43
-247.071 63.6789 -2040 42 41 48
-242.25 63.4813 -2034 41 40 47
-236.517 63.0343 -2020 38 37 45
-231.649 62.806 -2013 39 36 43
-226.358 62.4533 -2002 39 36 43
-221.447 62.1942 -1994 44 41 47
-216.678 61.9667 -1987 50 49 55
-210.441 61.3029 -1966 54 55 61
-139.865 61.264 -1969 146 130 123
-136.56 61.5383 -1978 63 51 52
-133.958 62.1547 -1998 52 41 45
-130.821 62.5536 -2011 50 40 40
-128.013 63.1392 -2030 63 53 53
-124.946 63.6316 -2046 99 91 91
-303.507 62.8771 -2148 34 31 35
-297.906 62.6017 -2139 27 24 28
-292.756 62.4145 -2133 26 23 27
-287.227 62.1397 -2124 28 25 30
-279.339 61.3386 -2097 24 21 26
-272.349 60.7135 -2076 43 40 45
-266.609 60.352 -2064 48 45 50
-261.683 60.1661 -2058 42 39 44
-256.407 59.8927 -2049 41 41 43
-252.155 59.8534 -2048 42 42 44
-247.545 59.7267 -2044 40 39 46
-242.359 59.4541 -2035 40 39 47
-236.976 59.1233 -2024 40 39 47
-231.984 58.8803 -2016 38 34 42
-226.688 58.5501 -2005 39 34 42
-221.66 58.2785 -1996 45 41 46
-216.887 58.0654 -1989 50 47 51
-139.149 57.058 -1959 158 140 131
-136.9 57.7515 -1983 66 53 54
-133.818 58.1248 -1996 50 39 44
-131.011 58.6438 -2014 52 42 42
-127.755 58.9882 -2026 61 52 52
-124.758 59.4781 -2043 69 61 61
-305.474 58.9673 -2162 35 32 35
-299.009 58.5471 -2147 25 22 25
-292.745 58.1545 -2133 27 24 28
-286.27 57.7076 -2117 30 27 31
-278.796 57.043 -2093 29 26 30
-271.814 56.4606 -2072 46 43 48
-266.212 56.1509 -2061 46 43 48
-261.291 55.9777 -2055 40 37 42
-256.272 55.7776 -2048 39 38 40
-252.022 55.741 -2047 42 41 43
-247.536 55.6502 -2044 40 39 45
-242.468 55.4233 -2036 39 38 44
-237.435 55.1968 -2028 38 37 45
-232.436 54.9703 -2020 36 31 39
-227.358 54.717 -2011 38 33 41
-222.539 54.5183 -2004 45 41 44
-218.297 54.4559 -2002 53 48 50
-138.646 52.9735 -1952 175 155 144
-136.894 53.8098 -1983 68 54 54
-133.88 54.1848 -1997 52 40 44
-130.811 54.5597 -2011 50 40 41
-127.813 54.9891 -2027 55 46 47
-124.631 55.3643 -2041 65 58 57
-121.63 55.8481 -2059 91 85 86
-305.604 54.6736 -2163 32 29 32
-298.859 54.2336 -2146 24 21 24
-292.735 53.8949 -2133 24 21 24
-285.719 53.3797 -2113 25 22 25
-277.72 52.6628 -2085 33 30 33
-271.411 52.2493 -2069 47 44 49
-265.944 51.9876 -2059 43 40 45
-261.028 51.8272 -2053 39 36 41
-256.388 51.7173 -2049 42 39 42
-252.26 51.7087 -2049 41 38 40
-247.406 51.5487 -2043 41 40 44
-243.174 51.5152 -2042 38 37 43
-237.661 51.2043 -2030 37 36 43
-233.348 51.1458 -2028 39 35 41
-228.593 50.9867 -2022 36 31 37
-224.308 50.9284 -2020 43 38 40
-138.144 48.9174 -1945 199 177 164
-136.682 49.793 -1980 76 61 59
-133.54 50.0901 -1992 52 39 41
-130.676 50.5132 -2009 51 41 43
-127.683 50.9111 -2025 51 42 44
-124.382 51.2085 -2037 61 55 55
-121.449 51.682 -2056 68 64 67
-305.453 50.3296 -2162 35 32 35
-298.71 49.9243 -2145 27 24 27
-291.627 49.4497 -2125 29 26 29
-285.033 49.045 -2108 26 23 26
-277.578 48.4778 -2084 39 36 40
-271.533 48.1436 -2070 46 43 48
-266.452 47.9722 -2063 38 35 40
-261.401 47.8013 -2056 36 33 38
-256.505 47.6536 -2050 42 38 40
-252.251 47.6224 -2049 46 42 43
-248.125 47.6145 -2049 41 38 43
-243.405 47.4905 -2044 36 35 41
-238.356 47.2971 -2036 36 35 42
-234.606 47.3594 -2039 37 33 39
-231.073 47.4683 -2044 39 35 39
-228.409 47.7629 -2057 56 49 49
-135.435 45.4411 -1962 104 88 83
-133.335 46.0622 -1989 54 40 39
-130.542 46.475 -2007 53 43 45
-127.553 46.8415 -2023 51 43 44
-124.5 47.208 -2039 60 54 55
-121.445 47.5977 -2056 64 62 67
-118.95 48.2421 -2084 82 80 86
-305.867 46.0752 -2165 34 31 34
-299.119 45.7047 -2148 31 28 30
-291.756 45.2282 -2126 33 29 31
-284.754 44.7944 -2106 30 27 29
-278.102 44.4036 -2088 43 40 43
-272.443 44.1617 -2077 43 40 45
-266.702 43.8988 -2065 36 33 38
-262.41 43.8699 -2064 35 32 37
-257.248 43.6924 -2056 41 36 39
-253.105 43.6851 -2056 47 42 44
-248.844 43.6567 -2055 43 40 46
-245.66 43.8195 -2063 39 37 44
-242.446 43.9825 -2071 37 36 43
-134.051 41.1188 -1942 168 151 145
-132.66 41.8984 -1979 51 37 34
-130.148 42.3604 -2001 53 43 45
-127.423 42.7802 -2021 49 40 43
-124.497 43.1575 -2039 55 48 51
-121.382 43.4926 -2055 64 63 70
-118.547 43.9548 -2077 67 66 74
-304.87 41.6164 -2158 30 27 30
-297.718 41.2228 -2138 32 28 31
-291.061 40.8874 -2121 31 27 28
-283.935 40.4751 -2100 31 28 31
-277.961 40.2173 -2087 39 36 39
-272.961 40.0945 -2081 36 33 38
-267.728 39.9332 -2073 34 31 36
-262.657 39.7915 -2066 35 32 37
-258.617 39.804 -2067 40 34 38
-254.699 39.8358 -2069 49 42 46
-252.227 40.0988 -2083 44 41 48
-133.081 36.9914 -1928 216 199 192
-132.724 37.9857 -1980 80 65 61
-130.209 38.4044 -2002 54 45 47
-127.482 38.7846 -2022 49 40 43
-124.371 39.069 -2037 53 46 50
-121.261 39.3728 -2053 58 58 67
-118.087 39.6765 -2069 61 62 71
-303.308 37.1167 -2147 30 27 29
-296.736 36.833 -2131 32 28 30
-290.78 36.6188 -2119 28 24 26
-283.928 36.2838 -2100 34 33 35
-278.354 36.1044 -2090 38 37 39
-273.741 36.0461 -2087 34 31 35
-268.496 35.9016 -2079 32 29 34
-263.413 35.7746 -2072 32 29 34
-259.612 35.8202 -2075 36 30 36
-257.278 36.0731 -2090 43 37 44
-142.225 28.1479 -1635 238 208 195
-127.76 30.945 -1799 224 197 188
-132.251 33.9317 -1973 135 119 113
-130.271 34.4445 -2003 55 46 48
-127.605 34.8026 -2024 46 38 41
-124.551 35.0748 -2040 51 44 48
-121.317 35.3127 -2054 53 53 62
-117.856 35.4991 -2065 57 58 68
-303.584 32.86 -2149 34 30 32
-297.008 32.6091 -2133 33 29 31
-290.499 32.3584 -2117 30 26 29
-283.922 32.0927 -2100 36 35 37
-278.881 31.9952 -2094 36 36 38
-274.128 31.9284 -2090 33 30 33
-269.007 31.8158 -2083 33 31 34
-264.679 31.795 -2082 32 29 34
-261.608 31.927 -2091 33 28 35
-141.027 23.6079 -1550 238 206 189
-140.775 24.0924 -1582 227 195 178
-140.309 24.5615 -1613 221 189 172
-139.55 25.0003 -1642 215 185 172
-139.589 25.6064 -1682 215 185 173
-138.335 25.9994 -1708 217 185 172
-136.268 26.2552 -1725 218 187 175
-133.595 26.4047 -1735 218 187 174
-131.108 26.5998 -1748 213 188 178
-128.059 26.6885 -1754 211 187 176
-127.189 27.2488 -1791 211 187 174
-132.316 30.0274 -1974 178 161 154
-130.334 30.481 -2004 57 48 49
-127.603 30.7826 -2024 48 40 42
-124.549 31.0234 -2040 50 43 47
-121.078 31.1729 -2050 50 49 58
-117.568 31.3226 -2060 55 55 64
-296.584 28.311 -2130 33 29 33
-290.219 28.1063 -2115 31 27 32
-283.781 27.8885 -2099 37 34 36
-278.476 27.7772 -2091 37 35 36
-274.123 27.7591 -2090 31 31 31
-268.873 27.6479 -2082 33 31 34
-265.691 27.7493 -2090 32 29 36
-153.572 19.7593 -1491 251 237 220
-151.391 19.8626 -1499 254 233 214
-146.452 20.003 -1510 254 224 205
-143.809 20.0534 -1514 254 224 203
-141.801 20.1965 -1525 255 227 206
-139.842 20.3529 -1537 241 208 189
-138.815 20.655 -1560 214 182 162
-137.87 20.9835 -1585 208 177 156
-135.712 22.7341 -1718 209 179 166
-133.361 22.9169 -1732 210 180 168
-130.956 23.0998 -1746 206 181 172
-132.715 26.1856 -1980 189 169 162
-130.266 26.4874 -2003 61 49 50
-127.663 26.7761 -2025 51 41 43
-124.363 26.9325 -2037 49 42 46
-120.839 27.0493 -2046 50 48 55
-117.166 27.1397 -2053 55 54 61
-113.632 27.2698 -2063 56 53 58
-295.466 23.9687 -2122 31 28 32
-289.802 23.8511 -2112 35 31 36
-283.776 23.7 -2099 37 34 35
-278.471 23.6054 -2091 35 32 33
-274.643 23.635 -2094 32 32 33
-270.289 23.6196 -2093 33 32 35
-161.236 16.6637 -1479 255 238 223
-155.72 16.7039 -1483 254 234 216
-152.746 16.7015 -1483 248 227 209
-150.783 16.8118 -1493 250 219 197
-148.286 16.8659 -1498 244 211 190
-145.674 16.9087 -1502 244 207 187
-143.046 16.9515 -1506 244 206 183
-140.869 17.0506 -1515 247 210 186
-138.293 17.1047 -1520 247 215 194
-136.588 17.2714 -1535 226 196 175
-135.52 17.5281 -1558 200 171 150
-136.098 18.4465 -1640 209 172 157
-135.789 19.3309 -1719 205 174 161
-134.129 19.5875 -1742 205 177 165
-132.003 19.7877 -1760 199 176 167
-129.588 19.9544 -1775 198 176 166
-133.651 22.4099 -1994 179 161 154
-130.849 22.6102 -2012 58 46 48
-127.661 22.7544 -2025 50 41 44
-124.422 22.8986 -2038 47 42 45
-120.66 22.9529 -2043 50 48 54
-116.936 23.0185 -2049 51 50 57
-113.465 23.1403 -2060 58 55 60
-109.685 23.206 -2066 60 59 67
-301.309 19.8389 -2133 28 25 28
-295.601 19.742 -2123 29 27 30
-289.798 19.6361 -2112 33 32 35
-284.989 19.5954 -2108 36 33 34
-280.332 19.5637 -2105 35 32 33
-276.344 19.5789 -2107 35 32 37
-163.093 13.6281 -1469 255 243 229
-160.797 13.6816 -1475 255 240 226
-157.837 13.6796 -1475 251 230 215
-155.823 13.7611 -1484 247 217 200
-152.641 13.7407 -1482 239 207 189
-151.084 13.8686 -1496 241 198 175
-148.086 13.8667 -1496 233 190 168
-145.284 13.8834 -1498 230 186 166
-142.379 13.8907 -1499 232 186 164
-139.844 13.9353 -1504 230 185 162
-136.653 13.9151 -1502 236 203 186
-134.45 13.9968 -1511 253 229 213
-132.734 14.1341 -1526 226 204 189
-131.384 14.3177 -1546 206 171 155
-135.076 15.8313 -1710 201 171 158
-134.358 16.1536 -1745 198 171 159
-133.202 16.4389 -1776 194 171 162
-134.32 18.542 -2004 160 143 138
-131.172 18.6606 -2017 56 44 47
-127.911 18.77 -2029 49 41 44
-124.237 18.824 -2035 45 41 45
-120.363 18.8502 -2038 46 45 51
-116.934 18.9504 -2049 48 47 54
-113.243 19.0138 -2056 53 50 55
-109.471 19.0679 -2062 56 55 63
-301.164 15.573 -2132 28 25 28
-296.433 15.5482 -2129 28 26 28
-290.618 15.465 -2118 31 32 33
-286.608 15.4766 -2120 38 36 38
-178.356 10.567 -1449 253 239 228
-176.77 10.6455 -1460 250 239 221
-173.832 10.6438 -1460 254 239 222
-170.895 10.6421 -1460 252 232 215
-167.729 10.6257 -1458 253 231 214
-165.138 10.646 -1461 255 239 222
-161.981 10.6298 -1459 255 240 226
-159.923 10.6865 -1467 254 231 217
-157.621 10.7287 -1473 246 218 203
-155.611 10.7927 -1482 235 198 182
-152.845 10.8058 -1484 222 183 166
-151.385 10.9133 -1499 219 170 149
-148.183 10.8973 -1497 207 157 137
-145.379 10.9104 -1499 203 152 133
-142.188 10.8945 -1497 209 157 136
-138.913 10.8713 -1494 220 168 146
-136.015 10.8772 -1495 247 213 197
-133.381 10.905 -1499 255 235 220
-131.167 10.9692 -1508 252 235 222
-129.683 11.0988 -1526 237 204 189
-137.967 14.5268 -1999 189 173 167
-135.19 14.6562 -2017 122 107 102
-131.626 14.7058 -2024 52 41 45
-127.784 14.7263 -2027 46 38 43
-124.236 14.7832 -2035 42 38 43
-120.421 14.8111 -2039 41 40 47
-116.705 14.8535 -2045 47 46 53
-113.186 14.925 -2055 52 49 54
-109.576 14.9893 -2064 51 50 58
-105.93 15.0536 -2073 55 56 66
-302.009 11.3486 -2138 24 21 24
-297.823 11.3518 -2139 30 29 31
-181.906 7.58617 -1431 250 224 214
-179.898 7.62182 -1438 255 234 222
-177.493 7.64175 -1442 255 237 223
-175.679 7.68819 -1451 255 238 220
-173.116 7.70285 -1454 253 230 212
-170.074 7.69634 -1453 249 223 207
-166.807 7.67926 -1450 253 225 208
-164.458 7.70456 -1455 255 228 211
-161.646 7.70852 -1456 252 225 210
-159.813 7.76032 -1466 243 214 198
-157.62 7.79625 -1473 227 193 177
-156.134 7.86923 -1487 210 168 152
-153.461 7.884 -1490 196 152 136
-151.485 7.93583 -1500 182 127 112
-148.083 7.91361 -1496 165 110 94
-145.378 7.92843 -1499 195 138 121
-141.522 7.87981 -1490 239 181 160
-138.168 7.85767 -1486 255 201 179
-135.013 7.84612 -1484 254 217 201
-132.401 7.86632 -1488 255 227 213
-129.687 7.88125 -1491 255 229 216
-128.237 7.97547 -1509 255 229 215
-138.725 10.6143 -2010 172 157 153
-135.725 10.6926 -2025 74 60 57
-132.015 10.718 -2030 48 38 43
-127.846 10.7065 -2028 43 36 40
-124.113 10.732 -2033 37 34 38
-120.361 10.7576 -2038 41 40 47
-116.647 10.7884 -2044 43 42 49
-112.91 10.8192 -2050 50 47 52
-109.363 10.8712 -2060 51 50 57
-105.725 10.9179 -2069 55 56 66
-102.249 10.9858 -2082 63 64 76
-302.149 7.08359 -2139 29 25 27
-190.168 4.72554 -1428 194 173 174
-187.285 4.7247 -1428 250 218 214
-184.533 4.72719 -1429 254 222 216
-182.16 4.7396 -1433 254 225 213
-179.771 4.75185 -1437 255 224 209
-177.123 4.75767 -1439 248 214 198
-175.436 4.78995 -1449 250 213 195
-172.401 4.78587 -1448 254 222 204
-169.956 4.79833 -1452 253 226 211
-167.036 4.79758 -1452 255 225 210
-164.57 4.81005 -1456 251 217 202
-162.201 4.82584 -1461 242 203 186
-160.684 4.86806 -1474 221 184 166
-158.368 4.88716 -1480 198 160 142
-156.659 4.92608 -1492 173 132 117
-154.182 4.9419 -1497 143 100 85
-151.989 4.96762 -1505 129 77 67
-148.874 4.96365 -1504 145 92 79
-145.183 4.9399 -1497 201 144 129
-141.236 4.90626 -1487 231 171 151
-137.795 4.88896 -1482 242 182 161
-134.466 4.87516 -1478 242 189 171
-131.778 4.88446 -1481 251 205 188
-129.078 4.89377 -1484 251 211 195
-146.009 6.59038 -2000 177 156 148
-142.873 6.62927 -2012 170 154 148
-139.552 6.66159 -2022 119 107 104
-135.992 6.68403 -2029 43 32 30
-132.145 6.69331 -2032 41 33 37
-128.097 6.69273 -2032 38 32 35
-124.234 6.70205 -2035 37 34 37
-120.242 6.70479 -2036 34 32 39
-116.646 6.73061 -2044 42 41 48
-113.075 6.75973 -2053 45 42 47
-109.468 6.78886 -2062 48 47 54
-105.724 6.81143 -2069 54 55 65
-102.199 6.85047 -2081 61 62 74
-301.865 2.81092 -2137 34 31 32
-191.099 1.88611 -1435 240 213 213
-188.202 1.88577 -1435 255 224 216
-185.436 1.88675 -1436 255 226 217
-182.286 1.88378 -1434 255 221 208
-179.896 1.88871 -1438 252 209 193
-177.615 1.89495 -1443 228 181 164
-175.435 1.90251 -1449 239 188 170
-172.757 1.90464 -1451 255 214 197
-170.424 1.9109 -1456 254 217 201
-167.611 1.9119 -1457 246 207 192
-165.248 1.91816 -1462 227 187 172
-163.421 1.93098 -1472 210 166 149
-161.556 1.9438 -1482 184 141 124
-159.544 1.95531 -1491 150 110 92
-157.918 1.97207 -1504 123 83 69
-155.211 1.97572 -1507 105 66 52
-152.695 1.982 -1512 110 63 56
-149.072 1.97386 -1506 129 79 69
-145.183 1.9618 -1497 167 112 97
-141.141 1.94712 -1486 188 129 111
-137.516 1.9377 -1479 203 144 125
-134.193 1.93221 -1475 215 158 139
-131.332 1.93328 -1476 228 177 158
-128.468 1.93435 -1477 235 191 172
-149.847 2.61491 -1998 159 139 133
-146.957 2.63427 -2013 156 139 133
-143.511 2.64447 -2021 124 112 109
-139.69 2.64814 -2024 58 49 47
-136.193 2.65835 -2032 41 33 32
-132.144 2.65811 -2032 35 28 32
-128.349 2.6631 -2036 37 32 36
-124.356 2.66418 -2037 37 34 39
-120.478 2.66788 -2040 38 36 42
-116.532 2.67028 -2042 37 35 42
-112.634 2.67399 -2045 40 37 42
-109.255 2.69079 -2058 44 42 50
-105.571 2.70105 -2066 48 49 59
-101.61 2.70479 -2069 55 56 68
-98.0144 2.71898 -2080 60 61 73
-193.998 -0.976622 -1435 209 184 185
-191.632 -0.979186 -1439 225 193 190
-188.465 -0.97767 -1437 242 195 183
-186.211 -0.980918 -1442 248 205 192
-182.922 -0.978726 -1439 243 196 181
-180.647 -0.981977 -1444 219 167 150
-177.984 -0.98319 -1446 176 122 104
-175.314 -0.984405 -1448 203 142 124
-172.876 -0.986981 -1452 222 165 147
-170.423 -0.989559 -1456 209 162 145
-168.071 -0.992819 -1461 203 158 142
-166.378 -1.00016 -1472 188 144 128
-164.642 -1.00749 -1483 167 121 105
-162.973 -1.01551 -1495 136 92 77
-160.614 -1.01945 -1501 111 70 55
-158.338 -1.02408 -1508 100 63 50
-155.726 -1.02666 -1512 100 64 51
-152.695 -1.02654 -1512 104 63 56
-149.27 -1.0237 -1508 115 69 60
-145.958 -1.02154 -1505 139 87 74
-141.805 -1.01328 -1493 157 102 87
-137.702 -1.00502 -1481 172 117 101
-134.557 -1.00355 -1479 190 132 113
-131.243 -1.00072 -1475 204 152 132
-160.033 -1.37385 -2026 151 127 117
-154.373 -1.35948 -2005 141 119 111
-150.447 -1.36003 -2006 124 109 104
-147.322 -1.36805 -2018 99 86 82
-143.654 -1.37132 -2023 55 46 44
-140.035 -1.37527 -2029 39 33 32
-136.461 -1.3799 -2036 35 30 29
-132.404 -1.37978 -2036 36 32 35
-128.349 -1.37968 -2036 37 34 38
-124.417 -1.38093 -2038 35 32 38
-120.419 -1.3815 -2039 38 35 42
-116.532 -1.38344 -2042 39 36 43
-112.633 -1.38538 -2045 40 37 42
-109.096 -1.39206 -2055 42 41 49
-105.571 -1.39942 -2066 47 48 58
-101.56 -1.40069 -2068 52 53 65
-97.7316 -1.40467 -2074 55 55 67
-94.1053 -1.41204 -2085 61 60 70
-193.863 -3.83721 -1434 214 184 185
-191.499 -3.84725 -1438 194 160 155
-188.727 -3.84909 -1439 199 151 136
-186.082 -3.8538 -1441 203 154 138
-183.303 -3.85583 -1442 204 149 131
-180.897 -3.8659 -1446 178 119 103
-178.6 -3.87865 -1451 144 83 67
-176.283 -3.8914 -1456 157 101 80
-173.948 -3.90415 -1461 171 116 97
-158.023 -4.01765 -1505 100 64 52
-155.211 -4.02245 -1507 98 64 52
-152.594 -4.03259 -1511 100 63 54
-148.973 -4.01587 -1505 109 68 58
-145.959 -4.01536 -1505 122 75 63
-141.901 -3.98552 -1494 133 83 71
-137.888 -3.95569 -1483 144 94 81
-134.011 -3.92855 -1473 163 109 92
-164.159 -5.40306 -2027 171 144 131
-159.244 -5.37318 -2016 111 90 82
-154.527 -5.34865 -2007 82 64 57
-150.748 -5.35612 -2010 58 48 49
-147.25 -5.37425 -2017 46 37 37
-143.725 -5.39239 -2024 35 29 28
-139.966 -5.40256 -2028 35 30 30
-136.394 -5.42072 -2035 32 28 28
-132.535 -5.42825 -2038 35 32 37
-128.601 -5.43312 -2040 33 31 36
-124.478 -5.43002 -2039 35 34 40
-120.596 -5.43758 -2042 37 34 41
-116.532 -5.43717 -2042 39 36 42
-112.854 -5.45541 -2049 40 37 42
-108.884 -5.46035 -2051 40 39 47
-105.06 -5.47329 -2056 43 44 54
-101.364 -5.49422 -2064 48 49 61
-97.7318 -5.52049 -2074 52 52 64
-93.8347 -5.53347 -2079 60 59 70
-307.339 -10.027 -2145 37 33 32
-194.134 -6.70768 -1436 227 196 195
-191.5 -6.71585 -1438 197 159 153
-188.728 -6.71919 -1439 179 130 113
-186.6 -6.74606 -1445 171 120 102
-183.686 -6.74493 -1445 178 119 100
-181.398 -6.76716 -1450 166 105 89
-178.97 -6.78473 -1454 156 93 77
-169.121 -9.48371 -2038 220 190 177
-163.917 -9.41754 -2024 146 121 110
-159.481 -9.39329 -2019 55 38 32
-155.298 -9.38302 -2017 35 21 17
-151.273 -9.38209 -2017 31 25 28
-147.542 -9.39978 -2021 33 28 30
-143.868 -9.42214 -2026 31 26 26
-140.174 -9.44452 -2031 26 23 24
-136.462 -9.46692 -2036 32 28 30
-132.6 -9.48005 -2039 29 27 32
-128.602 -9.4839 -2040 31 30 36
-124.479 -9.47847 -2039 30 31 37
-120.479 -9.48237 -2040 35 33 40
-116.589 -9.49559 -2043 38 35 42
-112.799 -9.51812 -2048 40 37 42
-108.884 -9.53139 -2051 39 38 45
-105.163 -9.56326 -2058 41 42 52
-101.217 -9.57657 -2061 45 46 58
-97.638 -9.62707 -2072 48 49 61
-93.7449 -9.64971 -2077 56 55 67
-90.1777 -9.70954 -2090 59 58 70
-316.771 -14.349 -2150 33 29 32
-196.489 -9.54788 -1432 191 171 169
-193.865 -9.55951 -1434 243 211 206
-191.235 -9.57117 -1436 248 208 201
-188.336 -9.56952 -1436 240 190 172
-185.568 -9.57437 -1437 182 130 111
-184.633 -13.7852 -2075 211 161 142
-178.571 -13.6375 -2053 225 179 159
-173.109 -13.5296 -2037 204 173 160
-168.126 -13.4551 -2026 201 172 161
-163.513 -13.4071 -2019 128 105 96
-159.324 -13.3922 -2017 47 34 31
-155.376 -13.3975 -2018 31 21 21
-151.575 -13.416 -2021 26 23 28
-147.616 -13.4214 -2022 27 24 28
-144.011 -13.4599 -2028 28 25 26
-140.313 -13.4918 -2033 27 26 28
-136.597 -13.5238 -2038 24 23 25
-132.666 -13.5359 -2040 27 26 33
-128.855 -13.5613 -2044 27 27 33
-124.785 -13.5602 -2044 27 29 35
-120.893 -13.579 -2047 33 31 38
-116.876 -13.5846 -2048 36 33 40
-112.91 -13.5968 -2050 40 37 42
-108.885 -13.6025 -2051 39 38 46
-105.163 -13.648 -2058 40 41 51
-101.218 -13.667 -2061 42 43 55
-97.5916 -13.7324 -2071 44 45 57
-93.7456 -13.7714 -2077 50 49 61
-90.2217 -13.8634 -2091 55 54 66
-86.3546 -13.909 -2098 64 63 75
-316.185 -18.609 -2146 34 31 34
-313.579 -18.7094 -2158 37 34 36
-197.726 -12.4838 -1441 228 205 203
-194.408 -12.4554 -1438 249 218 213
-191.37 -12.4446 -1437 255 210 204
-187.682 -12.3905 -1431 237 184 169
-239.631 -18.0121 -2083 170 124 107
-230.483 -17.946 -2076 118 76 64
-225.224 -17.8569 -2066 106 66 54
-220.97 -17.8457 -2065 103 65 53
-216.302 -17.8001 -2060 99 65 53
-212.171 -17.7976 -2060 98 64 52
-208.951 -17.873 -2069 100 64 54
-206.686 -18.0347 -2088 112 69 58
-197.184 -17.9262 -2076 136 85 72
-192.006 -17.829 -2065 149 98 84
-187.056 -17.7492 -2056 169 115 97
-182.054 -17.6607 -2046 184 138 122
-177.094 -17.5724 -2036 196 154 138
-172.43 -17.51 -2029 187 159 147
-167.962 -17.4649 -2024 164 138 128
-163.758 -17.4457 -2022 84 64 57
-159.721 -17.4439 -2022 33 22 22
-155.762 -17.4507 -2023 32 25 27
-151.801 -17.4576 -2024 27 24 30
-147.91 -17.4729 -2026 28 26 30
-144.225 -17.5143 -2031 27 26 27
-140.383 -17.5386 -2034 25 26 29
-136.598 -17.5715 -2038 25 26 31
-132.603 -17.5786 -2039 29 28 36
-128.793 -17.6116 -2043 27 27 34
-124.725 -17.6101 -2043 27 29 34
-120.776 -17.626 -2045 32 29 36
-116.877 -17.6505 -2048 35 32 39
-113.022 -17.6836 -2052 39 36 41
-108.993 -17.691 -2053 39 38 45
-105.062 -17.7156 -2056 40 41 51
-101.219 -17.7575 -2061 43 44 56
-97.4984 -17.8253 -2069 44 44 56
-93.5209 -17.85 -2072 49 48 60
-89.9637 -17.961 -2085 52 51 63
-86.0262 -18.003 -2090 57 56 68
-317.22 -22.9707 -2153 35 32 35
-194.14 -15.3036 -1436 240 201 196
-190.308 -15.2261 -1429 243 191 185
-186.504 -15.1489 -1422 223 168 158
-252.326 -22.1825 -2084 144 91 69
-247.298 -22.1045 -2077 141 88 68
-242.184 -22.016 -2069 133 81 64
-237.103 -21.9272 -2061 124 78 62
-232.396 -21.8708 -2056 117 74 59
-227.932 -21.8356 -2053 102 67 59
-223.047 -21.758 -2046 94 60 52
-219.047 -21.7656 -2047 95 62 52
-214.73 -21.741 -2045 95 64 53
-210.732 -21.7486 -2046 96 65 54
-206.631 -21.7457 -2046 97 66 53
-202.729 -21.7641 -2048 102 65 54
-198.53 -21.7507 -2047 107 66 56
-194.242 -21.7267 -2045 114 71 61
-189.777 -21.6812 -2041 119 75 64
-185.694 -21.6786 -2041 138 90 75
-181.256 -21.6335 -2037 150 110 97
-176.575 -21.5567 -2030 154 118 106
-172.263 -21.5224 -2027 132 110 103
-168.13 -21.5094 -2026 93 73 67
-163.841 -21.4752 -2023 45 30 26
-160.039 -21.5047 -2026 30 21 23
-155.995 -21.5025 -2026 26 20 24
-152.178 -21.5322 -2029 25 22 28
-148.277 -21.5513 -2031 25 23 28
-144.44 -21.5811 -2034 25 25 27
-140.592 -21.6107 -2037 26 27 32
-136.667 -21.6299 -2039 28 29 34
-132.604 -21.628 -2039 28 28 35
-128.858 -21.6792 -2044 30 30 36
-125.032 -21.7199 -2048 27 29 33
-121.014 -21.7287 -2049 31 29 35
-117.049 -21.7483 -2051 34 31 37
-113.244 -21.7997 -2056 35 32 38
-109.153 -21.7981 -2056 36 35 43
-105.217 -21.8284 -2059 41 41 51
-101.22 -21.8481 -2061 43 44 55
-97.4525 -21.9209 -2068 43 43 55
-93.4769 -21.9514 -2071 46 45 57
-89.8784 -22.0773 -2083 47 47 58
-85.7804 -22.0867 -2084 50 49 61
-82.1881 -22.2338 -2098 55 58 69
-261.351 -26.4081 -2089 165 107 90
-254.927 -26.176 -2071 165 108 91
-249.666 -26.0581 -2062 146 99 81
-244.683 -25.9655 -2055 127 83 68
-240.08 -25.9107 -2051 118 77 65
-235.956 -25.9068 -2051 113 78 70
-231.043 -25.8145 -2044 107 74 68
-227.048 -25.8233 -2045 92 66 61
-222.287 -25.7435 -2039 87 62 55
-218.301 -25.7525 -2040 87 62 54
-214.104 -25.7363 -2039 86 63 55
-210.015 -25.7327 -2039 88 65 57
-205.826 -25.7164 -2038 91 67 58
-201.643 -25.7004 -2037 96 66 58
-197.369 -25.6718 -2035 102 69 61
-193.105 -25.6433 -2033 104 70 63
-189.036 -25.6402 -2033 106 72 65
-184.878 -25.6244 -2032 110 76 68
-180.725 -25.6088 -2031 109 79 73
-176.49 -25.5803 -2029 102 74 68
-172.18 -25.5396 -2026 65 55 56
-168.382 -25.5746 -2029 40 30 31
-164.329 -25.5718 -2029 29 22 23
-160.436 -25.5943 -2031 27 22 25
-156.537 -25.6168 -2033 26 21 26
-152.63 -25.6394 -2035 26 23 27
-148.571 -25.6369 -2035 25 23 26
-144.655 -25.6597 -2037 26 24 26
-140.802 -25.6951 -2040 28 26 29
-136.87 -25.7177 -2042 32 30 33
-132.867 -25.728 -2043 27 28 33
-128.923 -25.751 -2045 27 28 32
-125.095 -25.7993 -2049 27 28 32
-121.016 -25.7972 -2049 27 27 31
-117.108 -25.833 -2052 30 29 34
-113.135 -25.8562 -2054 30 28 35
-109.155 -25.8796 -2056 33 32 40
-105.218 -25.9155 -2059 41 40 49
-101.173 -25.9264 -2060 43 43 53
-97.3598 -26.0002 -2066 43 42 53
-93.2978 -26.0112 -2067 45 44 55
-89.4916 -26.0978 -2074 47 46 57
-85.6171 -26.1718 -2080 46 46 57
-81.9543 -26.3214 -2092 50 52 60
-264.295 -30.4319 -2079 169 112 97
-259.354 -30.3391 -2073 167 119 104
-253.823 -30.1729 -2062 160 115 100
-248.702 -30.051 -2054 130 94 81
-244.092 -29.9877 -2050 108 76 66
-239.499 -29.9243 -2046 97 69 63
-235.27 -29.9051 -2045 88 65 64
-230.595 -29.8273 -2040 78 57 56
-226.608 -29.8375 -2041 65 50 48
-222.182 -29.7893 -2038 59 44 42
-218.305 -29.8143 -2040 53 37 35
-214.003 -29.7806 -2038 50 36 33
-210.121 -29.8058 -2040 58 45 41
-205.931 -29.7871 -2039 72 56 52
-201.647 -29.754 -2037 81 62 59
-197.082 -29.6769 -2032 86 65 63
-193.013 -29.6731 -2032 90 67 66
-189.132 -29.6986 -2034 88 66 64
-185.063 -29.695 -2034 78 57 56
-180.995 -29.6915 -2034 63 45 44
-176.928 -29.688 -2034 50 33 32
-172.693 -29.6552 -2032 32 26 30
-168.468 -29.6227 -2030 28 23 27
-164.575 -29.6487 -2032 26 23 26
-160.597 -29.6601 -2033 25 22 26
-156.54 -29.657 -2033 29 25 30
-153.008 -29.7562 -2040 31 28 31
-149.012 -29.7678 -2041 28 25 28
-144.942 -29.765 -2041 27 24 27
-141.011 -29.7914 -2043 28 25 29
-137.141 -29.8324 -2046 31 28 31
-133.129 -29.8444 -2047 26 28 32
-129.241 -29.8853 -2050 26 27 31
-125.219 -29.8974 -2051 28 28 31
-121.254 -29.9242 -2053 27 27 32
-117.282 -29.951 -2055 29 29 34
-113.302 -29.978 -2057 30 29 36
-109.21 -29.9758 -2057 33 32 40
-105.323 -30.032 -2061 39 38 46
-101.322 -30.0591 -2063 43 42 51
-97.4086 -30.1155 -2067 45 44 53
-93.2995 -30.1136 -2067 45 44 55
-89.5364 -30.2284 -2075 44 43 54
-85.454 -30.2413 -2076 43 43 53
-81.6816 -30.3708 -2085 46 48 55
-77.7998 -30.4712 -2092 51 53 60
-270.819 -34.8835 -2097 178 125 114
-263.792 -34.5115 -2075 163 113 105
-258.734 -34.3894 -2068 140 107 97
-253.213 -34.2006 -2057 109 80 70
-248.465 -34.112 -2052 69 47 40
-243.859 -34.0399 -2048 53 36 31
-239.622 -34.0179 -2047 47 35 33
-235.275 -33.9795 -2045 41 31 34
-230.826 -33.9243 -2042 38 30 34
-226.612 -33.9027 -2041 34 30 34
-222.296 -33.8643 -2039 34 28 33
-218.31 -33.8761 -2040 29 22 27
-214.217 -33.8713 -2040 27 22 27
-210.229 -33.8833 -2041 29 24 28
-206.036 -33.8619 -2040 32 24 30
-201.552 -33.791 -2036 35 28 34
-197.377 -33.77 -2035 37 30 35
-193.017 -33.716 -2032 36 28 34
-189.136 -33.7447 -2034 36 28 34
-185.067 -33.7406 -2034 32 25 31
-181.177 -33.7697 -2036 28 23 28
-176.932 -33.7326 -2034 27 23 28
-172.867 -33.7288 -2034 31 27 32
-168.637 -33.6919 -2032 27 23 28
-164.822 -33.7377 -2035 25 22 27
-160.996 -33.7838 -2038 26 23 28
-157.005 -33.7969 -2039 29 25 30
-153.161 -33.8432 -2042 31 27 30
-149.088 -33.8399 -2042 30 26 30
-145.087 -33.8532 -2043 26 23 28
-141.221 -33.8998 -2046 27 24 29
-137.211 -33.9133 -2047 29 26 31
-133.262 -33.9435 -2049 26 28 32
-129.433 -34.0068 -2053 26 27 30
-125.405 -34.0203 -2054 28 28 30
-121.138 -33.9679 -2051 28 27 33
-117.227 -34.015 -2054 28 27 34
-113.195 -34.029 -2055 28 27 34
-109.212 -34.0597 -2057 31 30 37
-105.325 -34.1235 -2061 35 34 41
-101.226 -34.1213 -2061 38 37 45
-97.3164 -34.1853 -2065 43 42 51
-93.3014 -34.2163 -2067 47 46 58
-89.4088 -34.2971 -2072 46 45 56
-85.4146 -34.3448 -2075 45 44 54
-81.6441 -34.4919 -2084 47 49 56
-77.6899 -34.5729 -2089 49 51 58
-73.8924 -34.7367 -2099 58 60 67
-277.418 -39.4086 -2115 215 161 152
-270.179 -38.9734 -2092 178 130 125
-263.799 -38.6499 -2075 120 80 78
-258.865 -38.5317 -2069 70 48 45
-253.958 -38.4135 -2063 54 35 33
-249.198 -38.3142 -2058 39 29 26
-244.222 -38.1776 -2051 40 31 31
-239.861 -38.1344 -2049 37 31 34
-235.511 -38.0911 -2047 29 27 32
-230.944 -38.011 -2043 29 27 33
-226.729 -37.9865 -2042 29 26 33
-222.628 -37.981 -2042 31 27 34
-218.422 -37.957 -2041 27 22 30
-214.432 -37.97 -2042 25 22 29
-210.44 -37.9834 -2043 26 23 30
-205.839 -37.8853 -2038 25 20 28
-201.755 -37.8803 -2038 25 19 27
-197.382 -37.8194 -2035 27 20 28
-193.117 -37.7774 -2033 30 22 30
-189.234 -37.8099 -2035 33 25 33
-185.162 -37.8053 -2035 33 26 34
-181.27 -37.8377 -2037 29 23 31
-177.11 -37.8147 -2036 27 22 30
-173.211 -37.8475 -2038 27 23 28
-168.807 -37.769 -2034 27 23 28
-164.988 -37.8206 -2037 26 23 28
-160.921 -37.8164 -2037 28 24 29
-157.24 -37.9052 -2042 29 25 30
-153.24 -37.92 -2043 30 26 29
-149.384 -37.9719 -2046 30 26 30
-145.517 -38.024 -2049 28 25 30
-141.225 -37.9648 -2046 27 24 29
-137.482 -38.0541 -2051 28 25 30
-133.395 -38.0508 -2051 26 27 31
-129.373 -38.0661 -2052 28 28 32
-125.408 -38.1 -2054 27 27 31
-121.496 -38.1526 -2057 30 29 35
-117.287 -38.1123 -2055 29 28 35
-113.418 -38.1837 -2059 28 27 34
-109.162 -38.1253 -2056 29 28 35
-105.378 -38.2339 -2062 28 27 34
-101.277 -38.2314 -2062 29 28 36
-97.4129 -38.3216 -2067 36 35 44
-93.3488 -38.3378 -2068 44 43 54
-89.4972 -38.4468 -2074 48 47 57
-85.5401 -38.5187 -2078 46 45 55
-81.646 -38.6279 -2084 48 50 57
-77.6545 -38.7001 -2088 49 51 58
-73.6829 -38.7909 -2093 54 56 63
-69.7917 -38.9374 -2101 60 60 68
-269.928 -43.1054 -2090 133 93 92
-263.679 -42.768 -2074 69 40 43
-258.872 -42.6578 -2069 47 34 37
-253.964 -42.5269 -2063 45 35 38
-248.841 -42.3552 -2055 37 33 37
-244.228 -42.2658 -2051 35 32 37
-239.868 -42.2177 -2049 33 31 38
-235.402 -42.1495 -2046 28 28 35
-230.724 -42.0401 -2041 26 26 33
-226.513 -42.0131 -2040 29 25 33
-222.525 -42.0276 -2041 30 26 34
-218.428 -42.0213 -2041 28 24 32
-214.438 -42.036 -2042 29 25 32
-210.548 -42.0714 -2044 29 25 33
-206.046 -41.9832 -2040 28 22 30
-201.76 -41.9365 -2038 27 20 29
-197.387 -41.8693 -2035 27 20 28
